1.792586 1.088655 0.765911
1.793525 1.088732 0.808210
1.747805 1.065621 0.804887
1.748155 1.066440 0.764304
1.782703 1.108284 0.766157
1.783643 1.108361 0.808456
1.737922 1.085250 0.805133
1.738272 1.086069 0.764550
1.805828 1.103825 0.722824
1.806434 1.102352 0.765556
1.795840 1.091141 0.765723
1.794901 1.091074 0.723429
1.789491 1.118516 0.723364
1.790097 1.117043 0.766096
1.779503 1.105832 0.766263
1.778563 1.105765 0.723969
1.806039 1.101933 0.765601
1.806639 1.100461 0.808333
1.796385 1.090800 0.808066
1.795446 1.090723 0.765767
1.790493 1.117459 0.766137
1.791093 1.115987 0.808869
1.780839 1.106326 0.808602
1.779899 1.106249 0.766304
1.769419 1.271326 0.023104
1.770980 1.284810 0.023999
1.770937 1.284429 0.074241
1.769571 1.271024 0.073425
1.747570 1.273701 0.023144
1.749130 1.287185 0.024039
1.749088 1.286804 0.074281
1.747721 1.273399 0.073465
1.769587 1.271183 0.073481
1.770953 1.284588 0.074297
1.770878 1.284208 0.124536
1.769731 1.270880 0.123803
1.747705 1.273239 0.073510
1.749072 1.286644 0.074326
1.748997 1.286264 0.124565
1.747849 1.272936 0.123832
1.769741 1.270999 0.123847
1.770889 1.284327 0.124580
1.770909 1.283919 0.174886
1.769859 1.270769 0.174271
1.747839 1.272815 0.123889
1.748986 1.286143 0.124621
1.749007 1.285735 0.174928
1.747956 1.272585 0.174313
1.769856 1.270738 0.174308
1.770907 1.283887 0.174923
1.771105 1.283438 0.225159
1.769925 1.270627 0.224632
1.747959 1.272616 0.174377
1.749009 1.285766 0.174991
1.749208 1.285317 0.225228
1.748028 1.272506 0.224700
1.769913 1.270499 0.224682
1.771094 1.283310 0.225210
1.771278 1.282866 0.275445
1.769987 1.270392 0.275006
1.748040 1.272634 0.224750
1.749220 1.285445 0.225278
1.749405 1.285001 0.275513
1.748113 1.272527 0.275074
1.769984 1.270355 0.275044
1.771275 1.282829 0.275483
1.771420 1.282424 0.325962
1.770190 1.269985 0.325408
1.748117 1.272563 0.275137
1.749408 1.285037 0.275576
1.749553 1.284633 0.326055
1.748324 1.272194 0.325502
1.770203 1.270114 0.325453
1.771432 1.282553 0.326007
1.771520 1.282182 0.376246
1.770510 1.269544 0.375773
1.748312 1.272065 0.325558
1.749541 1.284504 0.326111
1.749629 1.284133 0.376350
1.748619 1.271495 0.375877
1.770525 1.269730 0.375810
1.771535 1.282368 0.376283
1.771717 1.282059 0.426527
1.770886 1.269188 0.426137
1.748604 1.271308 0.375941
1.749614 1.283945 0.376414
1.749796 1.283636 0.426659
1.748965 1.270765 0.426268
1.770894 1.269318 0.426110
1.771725 1.282189 0.426500
1.772329 1.282237 0.476736
1.771580 1.268948 0.476428
1.748958 1.270635 0.426396
1.749789 1.283506 0.426786
1.750392 1.283554 0.477021
1.749643 1.270265 0.476713
1.771584 1.269021 0.476474
1.772334 1.282311 0.476782
1.772973 1.282363 0.527015
1.772276 1.268657 0.526793
1.749640 1.270191 0.476768
1.750389 1.283481 0.477076
1.751028 1.283533 0.527309
1.750331 1.269827 0.527087
1.772279 1.268704 0.526849
1.772976 1.282410 0.527071
1.773595 1.282270 0.577228
1.772928 1.268359 0.576612
1.750329 1.269779 0.527132
1.751026 1.283486 0.527354
1.751645 1.283346 0.577511
1.750978 1.269435 0.576896
1.772929 1.268374 0.576665
1.773596 1.282285 0.577280
1.774220 1.281930 0.627515
1.773548 1.268039 0.626985
1.750978 1.269420 0.576943
1.751645 1.283330 0.577559
1.752268 1.282976 0.627793
1.751596 1.269085 0.627263
1.773549 1.268044 0.627038
1.774221 1.281935 0.627568
1.774818 1.281582 0.677803
1.774169 1.267709 0.677357
1.751597 1.269079 0.627311
1.752269 1.282970 0.627840
1.752866 1.282617 0.678076
1.752217 1.268744 0.677630
1.774170 1.267716 0.677404
1.774819 1.281590 0.677850
1.775444 1.281234 0.728213
1.774807 1.267374 0.728769
1.752218 1.268735 0.677684
1.752866 1.282608 0.678129
1.753491 1.282253 0.728492
1.752854 1.268393 0.729048
1.775421 1.266154 0.779419
1.775101 1.266572 0.754083
1.775981 1.280065 0.751056
1.776545 1.279280 0.773920
1.753521 1.267946 0.779865
1.753201 1.268363 0.754529
1.754081 1.281856 0.751503
1.754645 1.281072 0.774366
1.775119 1.266831 0.754065
1.774800 1.267247 0.728729
1.775437 1.281107 0.728174
1.775999 1.280324 0.751039
1.753182 1.268105 0.754498
1.752863 1.268520 0.729162
1.753500 1.282380 0.728607
1.754062 1.281598 0.751472
1.767891 1.277486 0.779796
1.782601 1.272494 0.789405
1.782140 1.273134 0.758424
1.767571 1.277903 0.754460
1.761065 1.256596 0.779499
1.775776 1.251605 0.789108
1.775314 1.252245 0.758127
1.760745 1.257014 0.754162
1.767495 1.277927 0.754439
1.782064 1.273159 0.758404
1.781670 1.273812 0.727419
1.767176 1.278343 0.729103
1.760820 1.256990 0.754127
1.775389 1.252222 0.758091
1.774995 1.252874 0.727107
1.760501 1.257405 0.728791
1.775709 1.277894 0.024042
1.762307 1.282813 0.023182
1.762458 1.282511 0.073502
1.776165 1.277413 0.074053
1.768097 1.257277 0.023927
1.754695 1.262195 0.023067
1.754846 1.261894 0.073388
1.768553 1.256796 0.073938
1.776209 1.277397 0.074104
1.762502 1.282495 0.073553
1.762646 1.282191 0.123875
1.776667 1.276914 0.124111
1.768510 1.256811 0.073989
1.754803 1.261909 0.073438
1.754947 1.261606 0.123760
1.768968 1.256329 0.123996
1.776699 1.276902 0.124145
1.762677 1.282179 0.123909
1.762795 1.281949 0.174333
1.777083 1.276539 0.174169
1.768937 1.256341 0.124062
1.754916 1.261617 0.123826
1.755033 1.261387 0.174250
1.769321 1.255977 0.174086
1.777091 1.276535 0.174195
1.762803 1.281945 0.174358
1.762872 1.281835 0.224682
1.777373 1.276352 0.224206
1.769313 1.255980 0.174162
1.755025 1.261390 0.174325
1.755094 1.261280 0.224649
1.769594 1.255797 0.224173
1.777370 1.276353 0.224256
1.762869 1.281836 0.224732
1.762943 1.281729 0.275056
1.777650 1.276171 0.274267
1.769597 1.255796 0.224224
1.755097 1.261278 0.224700
1.755171 1.261171 0.275024
1.769878 1.255614 0.274235
1.777589 1.276194 0.274340
1.762882 1.281752 0.275129
1.763089 1.281383 0.325494
1.777856 1.276004 0.324335
1.769939 1.255590 0.274262
1.755232 1.261148 0.275051
1.755439 1.260779 0.325415
1.770206 1.255401 0.324256
1.777686 1.276065 0.324404
1.762919 1.281444 0.325563
1.763226 1.280874 0.375883
1.777941 1.275870 0.374415
1.770377 1.255339 0.324287
1.755609 1.260717 0.325446
1.755917 1.260148 0.375766
1.770631 1.255143 0.374298
1.777735 1.275940 0.374463
1.763020 1.280944 0.375932
1.763381 1.280402 0.426258
1.778020 1.275721 0.424503
1.770837 1.255072 0.374349
1.756123 1.260077 0.375818
1.756484 1.259534 0.426145
1.771123 1.254854 0.424389
1.777951 1.275743 0.424536
1.763312 1.280424 0.426292
1.763997 1.280054 0.476609
1.778526 1.275324 0.474544
1.771193 1.254830 0.424457
1.756554 1.259511 0.426212
1.757239 1.259141 0.476530
1.771768 1.254411 0.474464
1.778584 1.275305 0.474592
1.764056 1.280035 0.476658
1.764747 1.279670 0.526977
1.779164 1.274886 0.524598
1.771711 1.254429 0.474516
1.757182 1.259159 0.476582
1.757873 1.258795 0.526901
1.772290 1.254010 0.524522
1.779195 1.274875 0.524638
1.764778 1.279660 0.527017
1.765428 1.279315 0.576780
1.779809 1.274535 0.574696
1.772260 1.254020 0.524583
1.757843 1.258805 0.526962
1.758492 1.258460 0.576725
1.772874 1.253680 0.574641
1.779780 1.274545 0.574736
1.765398 1.279325 0.576820
1.766017 1.278990 0.627140
1.780430 1.274294 0.624743
1.772904 1.253670 0.574701
1.758523 1.258450 0.576785
1.759141 1.258115 0.627105
1.773554 1.253419 0.624708
1.780368 1.274313 0.624794
1.765955 1.279010 0.627191
1.766576 1.278675 0.677510
1.781021 1.274064 0.674802
1.773617 1.253398 0.624758
1.759204 1.258095 0.627155
1.759824 1.257759 0.677474
1.774270 1.253149 0.674766
1.780959 1.274084 0.674854
1.766513 1.278694 0.677562
1.767150 1.278352 0.728926
1.781645 1.273821 0.727242
1.774333 1.253128 0.674816
1.759888 1.257739 0.677524
1.760525 1.257397 0.728888
1.775019 1.252866 0.727204
1.785318 1.205485 0.023438
1.785640 1.205523 0.070803
1.787374 1.191656 0.070358
1.786710 1.192106 0.022890
1.763486 1.202972 0.023654
1.763808 1.203011 0.071020
1.765541 1.189144 0.070574
1.764877 1.189593 0.023106
1.785614 1.205735 0.070852
1.785944 1.205773 0.118221
1.788008 1.191417 0.117877
1.787348 1.191868 0.070406
1.763835 1.202799 0.071066
1.764164 1.202836 0.118435
1.766228 1.188480 0.118091
1.765568 1.188932 0.070621
1.785921 1.205941 0.118273
1.786278 1.205916 0.165620
1.788591 1.191163 0.165261
1.787984 1.191585 0.117928
1.764189 1.202668 0.118478
1.764546 1.202644 0.165826
1.766859 1.187890 0.165467
1.766252 1.188312 0.118134
1.786270 1.205972 0.165676
1.786730 1.205778 0.213044
1.789034 1.190866 0.212791
1.788583 1.191219 0.165317
1.764555 1.202588 0.165865
1.765015 1.202394 0.213233
1.767319 1.187482 0.212980
1.766868 1.187834 0.165506
1.786733 1.205758 0.213091
1.787189 1.205564 0.260458
1.789497 1.190495 0.260312
1.789038 1.190846 0.212837
1.765012 1.202413 0.213281
1.765467 1.202219 0.260648
1.767776 1.187150 0.260502
1.767316 1.187501 0.213028
1.787189 1.205566 0.260499
1.787676 1.205171 0.307807
1.790008 1.190151 0.307886
1.789497 1.190497 0.260353
1.765468 1.202216 0.260702
1.765956 1.201821 0.308009
1.768287 1.186801 0.308088
1.767777 1.187147 0.260556
1.787665 1.205245 0.307841
1.788213 1.204374 0.355200
1.790642 1.189893 0.355393
1.789996 1.190225 0.307920
1.765968 1.201745 0.308070
1.766516 1.200874 0.355429
1.768946 1.186393 0.355622
1.768300 1.186726 0.308149
1.788191 1.204507 0.355249
1.788743 1.203636 0.402608
1.791265 1.189695 0.402913
1.790620 1.190026 0.355442
1.766539 1.200739 0.355475
1.767092 1.199868 0.402834
1.769613 1.185928 0.403139
1.768969 1.186259 0.355667
1.788729 1.203719 0.402635
1.789380 1.203250 0.449986
1.791877 1.189664 0.450464
1.791250 1.189778 0.402940
1.767107 1.199784 0.402902
1.767758 1.199316 0.450253
1.770255 1.185730 0.450731
1.769629 1.185844 0.403207
1.789381 1.203246 0.450024
1.790082 1.202959 0.497388
1.792487 1.189631 0.497976
1.791878 1.189661 0.450502
1.767759 1.199319 0.450310
1.768459 1.199031 0.497674
1.770865 1.185704 0.498262
1.770255 1.185733 0.450788
1.790088 1.202928 0.497435
1.790783 1.202640 0.544800
1.793112 1.189571 0.545496
1.792493 1.189601 0.498023
1.768454 1.199062 0.497722
1.769149 1.198774 0.545087
1.771478 1.185705 0.545783
1.770860 1.185734 0.498310
1.790786 1.202617 0.544781
1.791746 1.202428 0.592144
1.794063 1.189347 0.592940
1.793116 1.189548 0.545477
1.769147 1.198797 0.545201
1.770107 1.198608 0.592564
1.772424 1.185526 0.593360
1.771476 1.185727 0.545897
1.791749 1.202421 0.592181
1.792742 1.202246 0.639541
1.795069 1.189114 0.640444
1.794065 1.189339 0.592978
1.770107 1.198616 0.592621
1.771101 1.198441 0.639981
1.773427 1.185309 0.640883
1.772423 1.185534 0.593418
1.792744 1.202241 0.639589
1.793738 1.202066 0.686866
1.796057 1.188886 0.687520
1.795071 1.189109 0.640492
1.771101 1.198445 0.640027
1.772094 1.198270 0.687304
1.774413 1.185090 0.687959
1.773428 1.185313 0.640930
1.793255 1.187711 0.022878
1.783988 1.198165 0.022938
1.784652 1.197716 0.070406
1.793657 1.187771 0.073049
1.776877 1.173056 0.022998
1.767610 1.183510 0.023059
1.768274 1.183060 0.070526
1.777279 1.173116 0.073169
1.793582 1.187854 0.073098
1.784577 1.197799 0.070456
1.785236 1.197348 0.117926
1.793990 1.187915 0.123264
1.777355 1.173032 0.073217
1.768350 1.182977 0.070574
1.769010 1.182526 0.118045
1.777763 1.173093 0.123382
1.793886 1.188029 0.123311
1.785132 1.197461 0.117973
1.785739 1.197039 0.165306
1.794260 1.188195 0.173479
1.777869 1.172980 0.123433
1.769115 1.182412 0.118095
1.769722 1.181990 0.165428
1.778243 1.173146 0.173601
1.794074 1.188390 0.173527
1.785552 1.197234 0.165354
1.786003 1.196881 0.212828
1.794411 1.188723 0.223693
1.778431 1.172952 0.173650
1.769910 1.181796 0.165477
1.770361 1.181443 0.212951
1.778768 1.173285 0.223816
1.794147 1.188982 0.223743
1.785739 1.197140 0.212878
1.786199 1.196789 0.260353
1.794486 1.189318 0.273909
1.779033 1.173026 0.223864
1.770625 1.181184 0.212999
1.771085 1.180833 0.260474
1.779372 1.173362 0.274029
1.794271 1.189516 0.273983
1.785984 1.196988 0.260428
1.786494 1.196641 0.307960
1.794719 1.189412 0.324109
1.779588 1.173163 0.274052
1.771301 1.180634 0.260496
1.771811 1.180288 0.308029
1.780036 1.173058 0.324178
1.794714 1.189417 0.324166
1.786489 1.196646 0.308017
1.787135 1.196314 0.355489
1.795228 1.189027 0.374329
1.780042 1.173053 0.324219
1.771818 1.180282 0.308070
1.772463 1.179950 0.355543
1.780557 1.172663 0.374383
1.795326 1.188938 0.374372
1.787232 1.196226 0.355532
1.787877 1.195895 0.403004
1.795883 1.188562 0.424578
1.780460 1.172750 0.374438
1.772367 1.180038 0.355598
1.773011 1.179707 0.403069
1.781017 1.172374 0.424644
1.796008 1.188445 0.424590
1.788003 1.195778 0.403016
1.788629 1.195664 0.450539
1.796725 1.188141 0.474753
1.780893 1.172491 0.424730
1.772887 1.179823 0.403155
1.773513 1.179710 0.450679
1.781610 1.172187 0.474893
1.796820 1.188051 0.474794
1.788724 1.195573 0.450580
1.789333 1.195544 0.498054
1.797546 1.187747 0.524956
1.781516 1.172277 0.474950
1.773420 1.179800 0.450736
1.774029 1.179770 0.498210
1.782242 1.171974 0.525112
1.797650 1.187645 0.525007
1.789437 1.195442 0.498104
1.790056 1.195412 0.545577
1.798659 1.187011 0.575062
1.782139 1.172075 0.525159
1.773927 1.179872 0.498257
1.774545 1.179842 0.545730
1.783149 1.171441 0.575214
1.798835 1.186832 0.575094
1.790232 1.195233 0.545610
1.791179 1.195032 0.593073
1.800162 1.185850 0.625235
1.782975 1.171618 0.575279
1.774371 1.180020 0.545795
1.775319 1.179819 0.593258
1.784302 1.170636 0.625420
1.800351 1.185647 0.625274
1.791369 1.194830 0.593113
1.792373 1.194605 0.640579
1.801671 1.184665 0.675417
1.784114 1.170837 0.625478
1.775131 1.180020 0.593316
1.776135 1.179795 0.640782
1.785434 1.169855 0.675621
1.801837 1.184480 0.675461
1.792538 1.194420 0.640622
1.793524 1.194197 0.687651
1.803157 1.183497 0.725555
1.785271 1.170039 0.675675
1.775972 1.179979 0.640836
1.776958 1.179756 0.687865
1.786590 1.169056 0.725769
1.789755 1.213967 0.023717
1.790186 1.213372 0.073776
1.784983 1.200338 0.070811
1.784660 1.200299 0.023445
1.769241 1.221853 0.023920
1.769672 1.221258 0.073980
1.764469 1.208224 0.071014
1.764147 1.208185 0.023649
1.790098 1.213151 0.073824
1.790525 1.212557 0.123891
1.785225 1.200154 0.118228
1.784895 1.200116 0.070859
1.769761 1.221479 0.074030
1.770188 1.220885 0.124097
1.764887 1.208482 0.118433
1.764557 1.208444 0.071064
1.790439 1.212351 0.123936
1.790848 1.211757 0.174101
1.785496 1.199924 0.165620
1.785139 1.199948 0.118272
1.770274 1.221090 0.124150
1.770683 1.220496 0.174314
1.765331 1.208663 0.165833
1.764974 1.208687 0.118486
1.790801 1.211651 0.174135
1.791173 1.211061 0.224198
1.785909 1.199623 0.213022
1.785449 1.199817 0.165654
1.770730 1.220602 0.174378
1.771102 1.220012 0.224442
1.765838 1.208574 0.213265
1.765378 1.208768 0.165897
1.791154 1.211016 0.224247
1.791530 1.210426 0.274311
1.786345 1.199385 0.260438
1.785890 1.199579 0.213070
1.771122 1.220056 0.224491
1.771499 1.219466 0.274555
1.766314 1.208425 0.260681
1.765858 1.208619 0.213314
1.791540 1.210445 0.274351
1.792066 1.210269 0.324304
1.786842 1.199008 0.307785
1.786354 1.199404 0.260477
1.771491 1.219446 0.274613
1.772017 1.219269 0.324566
1.766793 1.208009 0.308047
1.766306 1.208405 0.260739
1.792155 1.210472 0.324326
1.792799 1.210587 0.374392
1.787479 1.198340 0.355166
1.786931 1.199211 0.307808
1.771929 1.219066 0.324641
1.772573 1.219181 0.374706
1.767253 1.206934 0.355480
1.766705 1.207805 0.308122
1.792899 1.210829 0.374437
1.793551 1.210888 0.424520
1.788131 1.197711 0.402571
1.787579 1.198582 0.355212
1.772474 1.218938 0.374757
1.773126 1.218997 0.424840
1.767707 1.205820 0.402891
1.767154 1.206691 0.355532
1.793607 1.211030 0.424555
1.794329 1.210773 0.474618
1.788838 1.197384 0.449957
1.788187 1.197853 0.402606
1.773071 1.218854 0.424903
1.773794 1.218597 0.474966
1.768303 1.205208 0.450305
1.767652 1.205677 0.402954
1.794341 1.210801 0.474670
1.795055 1.210544 0.524733
1.789550 1.197125 0.497373
1.788849 1.197412 0.450009
1.773784 1.218569 0.475012
1.774498 1.218312 0.525075
1.768994 1.204893 0.497715
1.768293 1.205180 0.450351
1.795052 1.210537 0.524758
1.795985 1.210233 0.574753
1.790243 1.196830 0.544762
1.789548 1.197118 0.497397
1.774502 1.218318 0.525148
1.775434 1.218014 0.575144
1.769692 1.204611 0.545153
1.768997 1.204899 0.497788
1.795972 1.210200 0.574752
1.797131 1.209845 0.624806
1.791190 1.196608 0.592124
1.790230 1.196797 0.544761
1.775448 1.218047 0.575242
1.776607 1.217692 0.625297
1.770667 1.204455 0.592614
1.769707 1.204643 0.545251
1.797087 1.209729 0.624852
1.798248 1.209373 0.674906
1.792140 1.196317 0.639529
1.791146 1.196492 0.592170
1.776653 1.217808 0.625348
1.777815 1.217452 0.675402
1.771707 1.204396 0.640026
1.770713 1.204571 0.592666
1.798203 1.209258 0.674955
1.799361 1.208904 0.724821
1.793088 1.196026 0.686855
1.792095 1.196201 0.639578
1.777863 1.217567 0.675450
1.779020 1.217214 0.725317
1.772748 1.204335 0.687351
1.771754 1.204511 0.640074
1.805858 1.176716 0.725591
1.806434 1.175223 0.768758
1.809247 1.110214 0.765693
1.808641 1.111688 0.722960
1.783903 1.175759 0.725860
1.784478 1.174266 0.769027
1.787292 1.109257 0.765962
1.786686 1.110731 0.723229
1.806434 1.175227 0.768802
1.807008 1.173732 0.811969
1.809848 1.108746 0.808469
1.809248 1.110218 0.765737
1.784479 1.174259 0.769068
1.785053 1.172764 0.812236
1.787893 1.107778 0.808736
1.787292 1.109250 0.766004
1.800053 1.214752 0.725073
1.800339 1.213757 0.766324
1.806307 1.176501 0.768832
1.805732 1.177994 0.725666
1.778342 1.211341 0.725194
1.778627 1.210346 0.766445
1.784596 1.173089 0.768953
1.784020 1.174583 0.725786
1.800330 1.213814 0.766369
1.800608 1.212818 0.807621
1.806872 1.175063 0.812045
1.806298 1.176557 0.768878
1.778637 1.210287 0.766484
1.778915 1.209291 0.807736
1.785179 1.171536 0.812160
1.784605 1.173031 0.768993
1.789091 1.265613 0.727216
1.789485 1.264961 0.758201
1.800221 1.214393 0.766334
1.799935 1.215388 0.725083
1.767599 1.261018 0.727314
1.767993 1.260365 0.758298
1.778729 1.209797 0.766431
1.778443 1.210792 0.725180
1.789498 1.264903 0.758226
1.789959 1.264262 0.789207
1.800511 1.213340 0.807610
1.800233 1.214335 0.766359
1.767982 1.260421 0.758345
1.768443 1.259780 0.789326
1.778996 1.208858 0.807729
1.778717 1.209853 0.766478
1.799818 1.214691 0.722819
1.805496 1.177933 0.723411
1.795864 1.188634 0.685508
1.793545 1.201813 0.684853
1.778569 1.211402 0.727368
1.784247 1.174644 0.727960
1.774615 1.185344 0.690057
1.772296 1.198523 0.689402
1.782776 1.269214 0.023906
1.783233 1.268733 0.073918
1.790791 1.219003 0.073801
1.790360 1.219597 0.023741
1.761050 1.265902 0.024063
1.761507 1.265421 0.074075
1.769065 1.215691 0.073958
1.768634 1.216286 0.023898
1.783235 1.268723 0.073968
1.783693 1.268240 0.123975
1.791220 1.218398 0.123918
1.790793 1.218992 0.073851
1.761506 1.265430 0.074125
1.761964 1.264948 0.124132
1.769491 1.215106 0.124075
1.769064 1.215700 0.074008
1.783695 1.268234 0.124033
1.784078 1.267870 0.174058
1.791630 1.217797 0.174141
1.791222 1.218392 0.123976
1.761963 1.264954 0.124174
1.762347 1.264590 0.174198
1.769898 1.214518 0.174281
1.769490 1.215112 0.124117
1.784079 1.267872 0.174120
1.784360 1.267689 0.224131
1.792002 1.217209 0.224267
1.791630 1.217799 0.174203
1.762348 1.264588 0.174236
1.762629 1.264405 0.224248
1.770271 1.213925 0.224383
1.769899 1.214516 0.174319
1.784359 1.267695 0.224181
1.784640 1.267513 0.274192
1.792378 1.216625 0.274381
1.792001 1.217215 0.224316
1.762630 1.264398 0.224298
1.762911 1.264216 0.274309
1.770649 1.213329 0.274498
1.770272 1.213918 0.224434
1.784635 1.267543 0.274221
1.784902 1.267353 0.324215
1.792900 1.216479 0.324362
1.792374 1.216656 0.274409
1.762916 1.264185 0.274381
1.763183 1.263995 0.324375
1.771180 1.213121 0.324522
1.770654 1.213298 0.274569
1.784891 1.267426 0.324249
1.785145 1.267230 0.374260
1.793532 1.216667 0.374462
1.792889 1.216552 0.324396
1.763195 1.263922 0.324441
1.763449 1.263727 0.374452
1.771836 1.213163 0.374653
1.771192 1.213048 0.324588
1.785131 1.267319 0.374307
1.785417 1.267100 0.424347
1.794170 1.216815 0.424592
1.793518 1.216756 0.374509
1.763464 1.263638 0.374504
1.763750 1.263419 0.424544
1.772503 1.213133 0.424789
1.771851 1.213074 0.374706
1.785406 1.267162 0.424368
1.785981 1.266742 0.474375
1.794882 1.216619 0.474676
1.794160 1.216876 0.424613
1.763762 1.263357 0.424623
1.764336 1.262938 0.474630
1.773238 1.212815 0.474931
1.772515 1.213071 0.424868
1.785975 1.266777 0.474426
1.786555 1.266358 0.524433
1.795591 1.216397 0.524790
1.794877 1.216654 0.474727
1.764343 1.262902 0.474680
1.764923 1.262483 0.524686
1.773958 1.212522 0.525044
1.773244 1.212779 0.474980
1.786546 1.266409 0.524455
1.787160 1.266069 0.574513
1.796514 1.216144 0.574808
1.795582 1.216448 0.524813
1.764933 1.262432 0.524764
1.765547 1.262092 0.574822
1.774901 1.212167 0.575117
1.773969 1.212471 0.525121
1.787144 1.266154 0.574535
1.787794 1.265902 0.624542
1.797657 1.215874 0.624885
1.796498 1.216229 0.574830
1.765564 1.262007 0.574900
1.766214 1.261755 0.624907
1.776077 1.211727 0.625250
1.774918 1.212082 0.575195
1.787775 1.266003 0.624593
1.788428 1.265753 0.674600
1.798800 1.215619 0.674989
1.797638 1.215974 0.624935
1.766235 1.261654 0.624957
1.766888 1.261404 0.674965
1.777260 1.211270 0.675353
1.776098 1.211625 0.625299
1.788408 1.265854 0.674653
1.789094 1.265591 0.727041
1.799938 1.215366 0.724908
1.798780 1.215719 0.675041
1.766909 1.261303 0.675013
1.767595 1.261040 0.727402
1.778439 1.210815 0.725268
1.777281 1.211168 0.675402
1.796046 1.180926 0.022843
1.796448 1.180986 0.073013
1.799834 1.117597 0.073395
1.799349 1.117824 0.023442
1.774099 1.179767 0.023035
1.774501 1.179827 0.073206
1.777887 1.116438 0.073587
1.777402 1.116665 0.023634
1.796448 1.180995 0.073065
1.796855 1.181057 0.123231
1.800295 1.117379 0.123402
1.799834 1.117606 0.073447
1.774502 1.179817 0.073254
1.774910 1.179879 0.123419
1.778350 1.116201 0.123591
1.777888 1.116428 0.073636
1.796855 1.181071 0.123277
1.797230 1.181238 0.173445
1.800804 1.117386 0.173414
1.800295 1.117394 0.123449
1.774911 1.179864 0.123473
1.775286 1.180031 0.173641
1.778860 1.116179 0.173609
1.778351 1.116187 0.123645
1.797229 1.181268 0.173491
1.797566 1.181601 0.223657
1.801364 1.117699 0.223411
1.800802 1.117416 0.173459
1.775288 1.180001 0.173695
1.775626 1.180335 0.223861
1.779423 1.116432 0.223616
1.778862 1.116149 0.173664
1.797564 1.181639 0.223707
1.797903 1.181975 0.273873
1.801918 1.118020 0.273414
1.801362 1.117737 0.223462
1.775628 1.180298 0.223911
1.775967 1.180633 0.274077
1.779981 1.116679 0.273618
1.779426 1.116395 0.223666
1.797902 1.182001 0.273918
1.798350 1.181896 0.324044
1.802464 1.117784 0.323416
1.801916 1.118046 0.273459
1.775969 1.180607 0.274132
1.776418 1.180503 0.324257
1.780531 1.116390 0.323629
1.779984 1.116653 0.273672
1.798350 1.181906 0.324091
1.798864 1.181516 0.374254
1.803014 1.117221 0.373413
1.802463 1.117794 0.323463
1.776419 1.180492 0.324310
1.776933 1.180102 0.374474
1.781083 1.115807 0.373633
1.780532 1.116380 0.323683
1.798865 1.181518 0.374298
1.799421 1.181142 0.424504
1.803585 1.116621 0.423419
1.803015 1.117223 0.373456
1.776934 1.180099 0.374531
1.777491 1.179723 0.424737
1.781654 1.115202 0.423652
1.781084 1.115804 0.373689
1.799422 1.181142 0.424519
1.800139 1.180838 0.474682
1.804322 1.115894 0.473378
1.803585 1.116621 0.423434
1.777492 1.179722 0.424823
1.778209 1.179419 0.474986
1.782392 1.114475 0.473682
1.781655 1.115201 0.423738
1.800139 1.180835 0.474732
1.800865 1.180532 0.524894
1.805052 1.115166 0.523373
1.804323 1.115891 0.473428
1.778209 1.179420 0.475036
1.778935 1.179116 0.525198
1.783122 1.113751 0.523677
1.782392 1.114476 0.473732
1.800866 1.180515 0.524904
1.801876 1.179880 0.574959
1.805883 1.114374 0.573336
1.805054 1.115149 0.523383
1.778935 1.179132 0.525288
1.779945 1.178498 0.575343
1.783952 1.112992 0.573719
1.783123 1.113766 0.523767
1.801879 1.179831 0.574968
1.803206 1.178849 0.625108
1.806796 1.113500 0.623285
1.805886 1.114325 0.573344
1.779944 1.178545 0.575435
1.781270 1.177563 0.625575
1.784861 1.112214 0.623752
1.783951 1.113039 0.573811
1.803210 1.178782 0.625156
1.804530 1.177800 0.675299
1.807724 1.112607 0.673271
1.806801 1.113433 0.623333
1.781268 1.177628 0.625627
1.782588 1.176646 0.675770
1.785781 1.111453 0.673742
1.784858 1.112279 0.623804
1.804535 1.177734 0.675349
1.805854 1.176751 0.725443
1.808637 1.111723 0.722812
1.807728 1.112541 0.673321
1.782586 1.176710 0.675821
1.783905 1.175727 0.725915
1.786688 1.110698 0.723285
1.785779 1.111517 0.673793
1.747014 1.080844 -0.013822
1.746434 1.066938 -0.014386
1.746525 1.068142 -0.064737
1.747367 1.081409 -0.064209
1.725066 1.081995 -0.013898
1.724487 1.068090 -0.014463
1.724577 1.069294 -0.064813
1.725419 1.082561 -0.064285
1.747348 1.081113 -0.064276
1.746505 1.067847 -0.064804
1.746487 1.069050 -0.115153
1.747704 1.081672 -0.114663
1.725439 1.082859 -0.064319
1.724597 1.069592 -0.064847
1.724578 1.070795 -0.115196
1.725796 1.083417 -0.114706
1.747681 1.081415 -0.114693
1.746464 1.068793 -0.115183
1.746627 1.069325 -0.165528
1.747993 1.081731 -0.165083
1.725820 1.083675 -0.114777
1.724602 1.071053 -0.115267
1.724766 1.071585 -0.165613
1.726132 1.083991 -0.165168
1.747994 1.081734 -0.165108
1.746628 1.069328 -0.165553
1.746983 1.068866 -0.215917
1.748206 1.081628 -0.215496
1.726132 1.083988 -0.165244
1.724766 1.071582 -0.165689
1.725121 1.071120 -0.216053
1.726344 1.083882 -0.215632
1.748220 1.081771 -0.215547
1.746997 1.069009 -0.215968
1.747344 1.068547 -0.266330
1.748440 1.081660 -0.265938
1.726331 1.083738 -0.215681
1.725107 1.070976 -0.216103
1.725454 1.070514 -0.266464
1.726551 1.083627 -0.266072
1.748451 1.081779 -0.266033
1.747354 1.068666 -0.266426
1.747515 1.068623 -0.316857
1.748467 1.081505 -0.316484
1.726541 1.083507 -0.266077
1.725444 1.070394 -0.266470
1.725605 1.070351 -0.316901
1.726557 1.083233 -0.316528
1.748479 1.081664 -0.316549
1.747527 1.068782 -0.316922
1.747697 1.069025 -0.367288
1.748360 1.081275 -0.366940
1.726546 1.083074 -0.316563
1.725594 1.070192 -0.316936
1.725764 1.070436 -0.367302
1.726428 1.082685 -0.366953
1.748369 1.081426 -0.367005
1.747705 1.069176 -0.367353
1.747726 1.069402 -0.417735
1.748272 1.081092 -0.417407
1.726419 1.082534 -0.366989
1.725755 1.070285 -0.367338
1.725776 1.070511 -0.417719
1.726322 1.082201 -0.417392
1.748277 1.081203 -0.417427
1.747731 1.069513 -0.417754
1.747919 1.069642 -0.468119
1.748314 1.081286 -0.467817
1.726317 1.082089 -0.417474
1.725771 1.070400 -0.417801
1.725959 1.070528 -0.468166
1.726354 1.082172 -0.467864
1.748318 1.081411 -0.467873
1.747924 1.069766 -0.468176
1.748064 1.069905 -0.518545
1.748343 1.081500 -0.518261
1.726349 1.082048 -0.467908
1.725955 1.070403 -0.468210
1.726095 1.070541 -0.518580
1.726374 1.082137 -0.518295
1.748342 1.081493 -0.518236
1.748064 1.069897 -0.518520
1.748435 1.070268 -0.568920
1.748850 1.082151 -0.568792
1.726375 1.082145 -0.518421
1.726096 1.070549 -0.518705
1.726468 1.070920 -0.569104
1.726882 1.082803 -0.568977
1.748836 1.081833 -0.568815
1.748421 1.069950 -0.568943
1.748720 1.070493 -0.619302
1.749732 1.082916 -0.619188
1.726897 1.083123 -0.569055
1.726482 1.071240 -0.569182
1.726781 1.071784 -0.619541
1.727793 1.084206 -0.619427
1.749697 1.082466 -0.619237
1.748685 1.070044 -0.619351
1.749067 1.070595 -0.669719
1.750594 1.083554 -0.669601
1.727829 1.084657 -0.619479
1.726818 1.072234 -0.619593
1.727199 1.072785 -0.669961
1.728727 1.085744 -0.669843
1.750556 1.083218 -0.669651
1.749028 1.070260 -0.669769
1.749484 1.070809 -0.719826
1.751431 1.084318 -0.719670
1.728767 1.086081 -0.669893
1.727239 1.073123 -0.670011
1.727695 1.073671 -0.720068
1.729642 1.087181 -0.719912
1.786171 1.094642 -0.018141
1.741047 1.071644 -0.013936
1.741400 1.072210 -0.064323
1.787015 1.095451 -0.068194
1.776203 1.114229 -0.017991
1.731079 1.091231 -0.013787
1.731432 1.091797 -0.064174
1.777048 1.115038 -0.068045
1.787015 1.095451 -0.068241
1.741400 1.072210 -0.064371
1.741756 1.072768 -0.114758
1.787870 1.096246 -0.118298
1.777049 1.115040 -0.068098
1.731434 1.091798 -0.064227
1.731791 1.092356 -0.114615
1.777904 1.115835 -0.118154
1.787884 1.096254 -0.118322
1.741771 1.072775 -0.114782
1.742083 1.073092 -0.165173
1.788635 1.096951 -0.168360
1.777891 1.115828 -0.118231
1.731778 1.092350 -0.114691
1.732090 1.092667 -0.165081
1.778643 1.116526 -0.168268
1.788690 1.096979 -0.168367
1.742137 1.073120 -0.165180
1.742349 1.073014 -0.215568
1.789299 1.097540 -0.218429
1.778589 1.116498 -0.168362
1.732037 1.092639 -0.165174
1.732249 1.092533 -0.215562
1.779199 1.117059 -0.218423
1.789375 1.097579 -0.218476
1.742425 1.073053 -0.215616
1.742645 1.072942 -0.266006
1.789985 1.098133 -0.268536
1.779124 1.117020 -0.218476
1.732174 1.092494 -0.215615
1.732394 1.092383 -0.266005
1.779734 1.117574 -0.268535
1.790046 1.098165 -0.268558
1.742706 1.072974 -0.266029
1.742722 1.072700 -0.316479
1.790230 1.098264 -0.318542
1.779674 1.117542 -0.268613
1.732334 1.092351 -0.266083
1.732351 1.092076 -0.316534
1.779858 1.117641 -0.318596
1.790269 1.098285 -0.318576
1.742761 1.072720 -0.316514
1.742643 1.072332 -0.366904
1.790187 1.098116 -0.368641
1.779820 1.117620 -0.318663
1.732312 1.092055 -0.316600
1.732194 1.091667 -0.366990
1.779738 1.117451 -0.368728
1.790212 1.098130 -0.368693
1.742668 1.072345 -0.366955
1.742571 1.072011 -0.417358
1.790167 1.097950 -0.418700
1.779713 1.117437 -0.368777
1.732168 1.091653 -0.367039
1.732071 1.091319 -0.417442
1.779667 1.117257 -0.418784
1.790155 1.097943 -0.418779
1.742559 1.072005 -0.417437
1.742596 1.072088 -0.467827
1.790206 1.097770 -0.468846
1.779679 1.117264 -0.418806
1.732083 1.091325 -0.417464
1.732120 1.091408 -0.467854
1.779730 1.117091 -0.468873
1.790165 1.097748 -0.468899
1.742554 1.072065 -0.467880
1.742579 1.072155 -0.518267
1.790216 1.097585 -0.518969
1.779772 1.117113 -0.468921
1.732161 1.091431 -0.467902
1.732186 1.091520 -0.518289
1.779824 1.116951 -0.518991
1.790159 1.097555 -0.519062
1.742522 1.072124 -0.518360
1.743029 1.072782 -0.568917
1.790070 1.097449 -0.568945
1.779881 1.116981 -0.518998
1.732243 1.091551 -0.518296
1.732751 1.092209 -0.568853
1.779792 1.116876 -0.568881
1.789986 1.097406 -0.569026
1.742946 1.072739 -0.568998
1.743841 1.073822 -0.619370
1.789779 1.097327 -0.619090
1.779876 1.116920 -0.568900
1.732835 1.092253 -0.568872
1.733731 1.093336 -0.619245
1.779669 1.116841 -0.618964
1.789680 1.097276 -0.619143
1.743742 1.073771 -0.619424
1.744640 1.074859 -0.669787
1.789459 1.097207 -0.669216
1.779768 1.116892 -0.619011
1.733831 1.093387 -0.619292
1.734728 1.094475 -0.669655
1.779547 1.116823 -0.669084
1.789354 1.097155 -0.669273
1.744536 1.074807 -0.669844
1.745410 1.075907 -0.719863
1.789123 1.097111 -0.719603
1.779652 1.116875 -0.669127
1.734833 1.094527 -0.669699
1.735708 1.095627 -0.719718
1.779421 1.116831 -0.719458
1.797997 1.112289 -0.019200
1.790910 1.099283 -0.018017
1.791754 1.100092 -0.068070
1.798312 1.112653 -0.069154
1.778604 1.122630 -0.019304
1.771517 1.109624 -0.018120
1.772361 1.110433 -0.068174
1.778919 1.122994 -0.069257
1.798413 1.112846 -0.069200
1.791855 1.100285 -0.068117
1.792710 1.101080 -0.118173
1.798711 1.113210 -0.119156
1.778820 1.122803 -0.069311
1.772262 1.110242 -0.068227
1.773117 1.111037 -0.118284
1.779119 1.123167 -0.119267
1.798824 1.113438 -0.119215
1.792822 1.101307 -0.118232
1.793574 1.102005 -0.168269
1.799160 1.114021 -0.169178
1.779007 1.122941 -0.119309
1.773005 1.110811 -0.118326
1.773757 1.111508 -0.168363
1.779343 1.123524 -0.169271
1.799274 1.114264 -0.169238
1.793687 1.102248 -0.168330
1.794296 1.102809 -0.218392
1.799671 1.115139 -0.219184
1.779231 1.123283 -0.169311
1.773644 1.111266 -0.168403
1.774254 1.111827 -0.218464
1.779628 1.124157 -0.219257
1.799778 1.115385 -0.219231
1.794404 1.103055 -0.218438
1.795014 1.103608 -0.268497
1.800163 1.116260 -0.269179
1.779522 1.123913 -0.219311
1.774148 1.111582 -0.218518
1.774758 1.112136 -0.268577
1.779907 1.124788 -0.269259
1.800200 1.116349 -0.269229
1.795051 1.103697 -0.268547
1.795235 1.103796 -0.318531
1.800581 1.116679 -0.319186
1.779871 1.124700 -0.269308
1.774722 1.112048 -0.268626
1.774906 1.112147 -0.318610
1.780251 1.125030 -0.319265
1.800512 1.116514 -0.319238
1.795166 1.103631 -0.318583
1.795084 1.103463 -0.368648
1.800902 1.116533 -0.369194
1.780321 1.125195 -0.319313
1.774975 1.112313 -0.318658
1.774894 1.112144 -0.368723
1.780711 1.125214 -0.369269
1.800794 1.116289 -0.369237
1.794976 1.103219 -0.368691
1.794931 1.103039 -0.418699
1.801195 1.116278 -0.419205
1.780820 1.125458 -0.369326
1.775002 1.112387 -0.368780
1.774957 1.112207 -0.418788
1.781221 1.125447 -0.419294
1.801070 1.116015 -0.419224
1.794806 1.102775 -0.418718
1.794857 1.102603 -0.468785
1.801634 1.115881 -0.469176
1.781347 1.125710 -0.419375
1.775082 1.112470 -0.418869
1.775134 1.112297 -0.468936
1.781910 1.125575 -0.469327
1.801485 1.115588 -0.469226
1.794708 1.102310 -0.468835
1.794760 1.102148 -0.518905
1.802055 1.115454 -0.519176
1.782060 1.125867 -0.469377
1.775283 1.112589 -0.468986
1.775335 1.112427 -0.519056
1.782630 1.125733 -0.519327
1.801855 1.115091 -0.519230
1.794560 1.101785 -0.518959
1.794470 1.101680 -0.568842
1.802528 1.114908 -0.569191
1.782831 1.126095 -0.519373
1.775536 1.112790 -0.519102
1.775446 1.112684 -0.568985
1.783504 1.125912 -0.569334
1.802237 1.114432 -0.569246
1.794179 1.101204 -0.568896
1.793972 1.101125 -0.618960
1.802968 1.114196 -0.619198
1.783796 1.126388 -0.569380
1.775738 1.113159 -0.569031
1.775531 1.113080 -0.619094
1.784527 1.126152 -0.619332
1.802622 1.113693 -0.619247
1.793626 1.100621 -0.619010
1.793405 1.100552 -0.669082
1.803383 1.113458 -0.669191
1.784874 1.126655 -0.619382
1.775878 1.113583 -0.619145
1.775656 1.113514 -0.669217
1.785635 1.126420 -0.669326
1.803017 1.112984 -0.669244
1.793038 1.100077 -0.669136
1.792807 1.100033 -0.719466
1.803769 1.112747 -0.718747
1.786001 1.126894 -0.669372
1.776023 1.113988 -0.669264
1.775792 1.113943 -0.719594
1.786754 1.126657 -0.718875
1.751006 1.084474 -0.800985
1.751560 1.084784 -0.760389
1.750165 1.070915 -0.759172
1.750893 1.070159 -0.798342
1.729059 1.085640 -0.801049
1.729613 1.085950 -0.760452
1.728218 1.072081 -0.759235
1.728946 1.071325 -0.798406
1.751495 1.084040 -0.760273
1.751445 1.084422 -0.719728
1.749498 1.070913 -0.719884
1.750099 1.070172 -0.759056
1.729679 1.086694 -0.760488
1.729629 1.087077 -0.719944
1.727682 1.073568 -0.720100
1.728283 1.072826 -0.759272
1.789120 1.097109 -0.719546
1.745407 1.075906 -0.719806
1.745457 1.075523 -0.760351
1.789931 1.097663 -0.761841
1.779425 1.116833 -0.719606
1.735712 1.095629 -0.719866
1.735762 1.095247 -0.760411
1.780236 1.117387 -0.761901
1.789999 1.097697 -0.761930
1.745525 1.075557 -0.760440
1.744971 1.075247 -0.801037
1.790798 1.098278 -0.804226
1.780168 1.117354 -0.761894
1.735694 1.095213 -0.760405
1.735140 1.094904 -0.801001
1.780967 1.117935 -0.804191
1.803417 1.112337 -0.718700
1.792454 1.099623 -0.719419
1.793265 1.100177 -0.761713
1.803877 1.111371 -0.761448
1.787108 1.127067 -0.719015
1.776146 1.114353 -0.719734
1.776956 1.114907 -0.762028
1.787568 1.126100 -0.761763
1.803483 1.110957 -0.761497
1.792872 1.099763 -0.761763
1.793671 1.100344 -0.804059
1.803943 1.109986 -0.804245
1.787962 1.126514 -0.761798
1.777351 1.115321 -0.762064
1.778150 1.115902 -0.804360
1.788423 1.125544 -0.804546
1.769360 1.271550 -0.016934
1.769354 1.271847 -0.067254
1.770718 1.285261 -0.067914
1.770949 1.285041 -0.017673
1.747514 1.273952 -0.016870
1.747507 1.274249 -0.067191
1.748872 1.287662 -0.067851
1.749103 1.287442 -0.017609
1.769371 1.272023 -0.067303
1.769370 1.272319 -0.117627
1.770509 1.285655 -0.118204
1.770736 1.285437 -0.067963
1.747489 1.274074 -0.067243
1.747488 1.274369 -0.117567
1.748627 1.287706 -0.118144
1.748854 1.287487 -0.067903
1.769380 1.272433 -0.117667
1.769350 1.272807 -0.168092
1.770413 1.285962 -0.168552
1.770519 1.285770 -0.118244
1.747478 1.274255 -0.117628
1.747448 1.274629 -0.168052
1.748511 1.287784 -0.168512
1.748617 1.287592 -0.118204
1.769347 1.272773 -0.168131
1.769276 1.273261 -0.218451
1.770455 1.286078 -0.218831
1.770410 1.285928 -0.168591
1.747451 1.274663 -0.168113
1.747380 1.275151 -0.218433
1.748558 1.287968 -0.218813
1.748514 1.287818 -0.168573
1.769265 1.273137 -0.218504
1.769186 1.273627 -0.268826
1.770480 1.286105 -0.269121
1.770443 1.285954 -0.218883
1.747391 1.275276 -0.218481
1.747312 1.275765 -0.268803
1.748606 1.288243 -0.269098
1.748569 1.288092 -0.218861
1.769182 1.273593 -0.268866
1.769238 1.273816 -0.319228
1.770459 1.286262 -0.319641
1.770476 1.286071 -0.269160
1.747315 1.275799 -0.268865
1.747371 1.276023 -0.319227
1.748592 1.288468 -0.319640
1.748609 1.288278 -0.269159
1.769249 1.273941 -0.319271
1.769391 1.273965 -0.369596
1.770414 1.286606 -0.369921
1.770471 1.286386 -0.319684
1.747359 1.275899 -0.319285
1.747500 1.275924 -0.369609
1.748523 1.288565 -0.369934
1.748580 1.288344 -0.319698
1.769406 1.274158 -0.369634
1.769613 1.274213 -0.419964
1.770423 1.287089 -0.420204
1.770429 1.286799 -0.369959
1.747485 1.275732 -0.369672
1.747691 1.275787 -0.420002
1.748501 1.288663 -0.420242
1.748508 1.288373 -0.369997
1.769621 1.274341 -0.419930
1.770143 1.274571 -0.470251
1.770909 1.287862 -0.470402
1.770431 1.287217 -0.420170
1.747684 1.275660 -0.420137
1.748205 1.275889 -0.470458
1.748972 1.289180 -0.470608
1.748494 1.288536 -0.420377
1.770147 1.274642 -0.470302
1.770682 1.274876 -0.520623
1.771366 1.288585 -0.520684
1.770914 1.287933 -0.470453
1.748202 1.275819 -0.470507
1.748736 1.276053 -0.520828
1.749420 1.289762 -0.520889
1.748968 1.289110 -0.470658
1.770685 1.274921 -0.520673
1.771163 1.275169 -0.570438
1.771854 1.289085 -0.570890
1.771369 1.288630 -0.520735
1.748735 1.276010 -0.520877
1.749212 1.276258 -0.570642
1.749904 1.290174 -0.571094
1.749418 1.289719 -0.520939
1.771164 1.275188 -0.570498
1.771621 1.275455 -0.620821
1.772269 1.289353 -0.621186
1.771855 1.289104 -0.570949
1.749212 1.276240 -0.570683
1.749669 1.276507 -0.621006
1.750317 1.290405 -0.621370
1.749903 1.290156 -0.571134
1.771621 1.275451 -0.620865
1.772060 1.275715 -0.671183
1.772761 1.289590 -0.671468
1.772270 1.289349 -0.621229
1.749670 1.276512 -0.621062
1.750109 1.276777 -0.671381
1.750809 1.290652 -0.671665
1.750318 1.290410 -0.621427
1.772060 1.275700 -0.671239
1.772522 1.275969 -0.722607
1.773198 1.289819 -0.721886
1.772761 1.289575 -0.671523
1.750110 1.276793 -0.671427
1.750572 1.277061 -0.722795
1.751248 1.290912 -0.722074
1.750811 1.290668 -0.671711
1.772960 1.275359 -0.773264
1.774129 1.288416 -0.767615
1.773639 1.288932 -0.744742
1.772721 1.275478 -0.747924
1.751062 1.277201 -0.773620
1.752231 1.290258 -0.767970
1.751741 1.290774 -0.745097
1.750823 1.277320 -0.748280
1.772739 1.275735 -0.747912
1.773658 1.289189 -0.744729
1.773191 1.289702 -0.721852
1.772515 1.275851 -0.722572
1.750804 1.277063 -0.748244
1.751722 1.290517 -0.745061
1.751255 1.291030 -0.722184
1.750579 1.277179 -0.722904
1.765450 1.286710 -0.773486
1.765210 1.286829 -0.748145
1.779764 1.282082 -0.752216
1.780109 1.281805 -0.783204
1.758587 1.265831 -0.773410
1.758347 1.265950 -0.748070
1.772901 1.261203 -0.752141
1.773246 1.260926 -0.783128
1.765136 1.286853 -0.748123
1.764911 1.286969 -0.722783
1.779396 1.282390 -0.721203
1.779690 1.282106 -0.752194
1.758422 1.265926 -0.748036
1.758197 1.266042 -0.722697
1.772682 1.261463 -0.721116
1.772976 1.261179 -0.752107
1.775644 1.278143 -0.017807
1.775952 1.278255 -0.067823
1.762243 1.283348 -0.067169
1.762249 1.283050 -0.016848
1.768032 1.257526 -0.017914
1.768340 1.257638 -0.067930
1.754630 1.262730 -0.067276
1.754637 1.262433 -0.016955
1.775997 1.278239 -0.067873
1.776301 1.278352 -0.117882
1.762286 1.283627 -0.117543
1.762287 1.283331 -0.067219
1.768296 1.257655 -0.067980
1.768600 1.257768 -0.117989
1.754585 1.263043 -0.117651
1.754586 1.262747 -0.067326
1.776334 1.278340 -0.117916
1.776580 1.278572 -0.167942
1.762289 1.283988 -0.168001
1.762319 1.283615 -0.117577
1.768567 1.257781 -0.118056
1.768814 1.258013 -0.168083
1.754523 1.263429 -0.168142
1.754553 1.263055 -0.117718
1.776589 1.278569 -0.167968
1.776722 1.278982 -0.217980
1.762227 1.284473 -0.218347
1.762298 1.283985 -0.168027
1.768805 1.258017 -0.168158
1.768938 1.258429 -0.218169
1.754442 1.263921 -0.218537
1.754513 1.263433 -0.168217
1.776718 1.278983 -0.218030
1.776857 1.279396 -0.268040
1.762144 1.284964 -0.268720
1.762223 1.284475 -0.218398
1.768942 1.258428 -0.218219
1.769080 1.258840 -0.268229
1.754367 1.264409 -0.268909
1.754446 1.263920 -0.218587
1.776793 1.279420 -0.268114
1.776903 1.279823 -0.318109
1.762136 1.285212 -0.319157
1.762081 1.284989 -0.268794
1.769144 1.258817 -0.268255
1.769253 1.259220 -0.318250
1.754486 1.264609 -0.319298
1.754431 1.264386 -0.268935
1.776731 1.279886 -0.318178
1.776829 1.280282 -0.368187
1.762105 1.285300 -0.369549
1.761964 1.285275 -0.319225
1.769426 1.259158 -0.318282
1.769524 1.259554 -0.368291
1.754799 1.264572 -0.369654
1.754658 1.264547 -0.319330
1.776624 1.280353 -0.368233
1.776746 1.280727 -0.418274
1.762106 1.285426 -0.419926
1.761899 1.285370 -0.369596
1.769730 1.259484 -0.368345
1.769853 1.259858 -0.418386
1.755212 1.264557 -0.420038
1.755006 1.264501 -0.369708
1.776678 1.280750 -0.418306
1.777099 1.280924 -0.468316
1.762559 1.285678 -0.470280
1.762037 1.285448 -0.419959
1.769922 1.259836 -0.418454
1.770343 1.260011 -0.468464
1.755803 1.264764 -0.470427
1.755281 1.264535 -0.420106
1.777160 1.280905 -0.468365
1.777572 1.281077 -0.518376
1.763154 1.285893 -0.520649
1.762620 1.285658 -0.470329
1.770284 1.260030 -0.468515
1.770696 1.260203 -0.518525
1.756278 1.265019 -0.520799
1.755744 1.264784 -0.470479
1.777606 1.281066 -0.518416
1.778057 1.281320 -0.568476
1.763666 1.286130 -0.570454
1.763188 1.285882 -0.520690
1.770663 1.260214 -0.518585
1.771115 1.260468 -0.568646
1.756723 1.265278 -0.570624
1.756245 1.265030 -0.520859
1.778032 1.281328 -0.568516
1.778508 1.281667 -0.618524
1.764098 1.286406 -0.620817
1.763641 1.286139 -0.570494
1.771141 1.260460 -0.568706
1.771616 1.260799 -0.618714
1.757206 1.265538 -0.621007
1.756749 1.265270 -0.570684
1.778451 1.281686 -0.618575
1.778935 1.282028 -0.668586
1.764480 1.286690 -0.671186
1.764041 1.286425 -0.620868
1.771674 1.260780 -0.618763
1.772158 1.261122 -0.668775
1.757703 1.265784 -0.671375
1.757264 1.265519 -0.621056
1.778878 1.282047 -0.668638
1.779369 1.282398 -0.721026
1.764884 1.286977 -0.722607
1.764423 1.286709 -0.671239
1.772216 1.261103 -0.668825
1.772708 1.261455 -0.721213
1.758223 1.266034 -0.722793
1.757762 1.265765 -0.671425
1.785252 1.205732 -0.018094
1.786650 1.192348 -0.017710
1.787163 1.192461 -0.065181
1.785434 1.206333 -0.065457
1.763418 1.203222 -0.018273
1.764817 1.189838 -0.017889
1.765330 1.189952 -0.065360
1.763601 1.203824 -0.065636
1.785408 1.206542 -0.065503
1.787138 1.192670 -0.065227
1.787652 1.192783 -0.112701
1.785592 1.207143 -0.112869
1.763627 1.203616 -0.065685
1.765356 1.189744 -0.065410
1.765870 1.189857 -0.112884
1.763811 1.204217 -0.113051
1.785569 1.207310 -0.112918
1.787628 1.192951 -0.112751
1.788090 1.193092 -0.160087
1.785783 1.207850 -0.160263
1.763835 1.204050 -0.113096
1.765894 1.189690 -0.112929
1.766356 1.189831 -0.160266
1.764049 1.204589 -0.160442
1.785775 1.207905 -0.160318
1.788082 1.193147 -0.160142
1.788390 1.193359 -0.207617
1.786092 1.208274 -0.207687
1.764058 1.204534 -0.160482
1.766364 1.189776 -0.160306
1.766672 1.189988 -0.207781
1.764375 1.204903 -0.207851
1.786096 1.208252 -0.207734
1.788393 1.193337 -0.207664
1.788706 1.193551 -0.255142
1.786412 1.208623 -0.255101
1.764372 1.204926 -0.207898
1.766669 1.190011 -0.207829
1.766981 1.190224 -0.255306
1.764687 1.205296 -0.255265
1.786412 1.208624 -0.255142
1.788706 1.193553 -0.255183
1.789075 1.193771 -0.302717
1.786754 1.208791 -0.302453
1.764688 1.205294 -0.255319
1.766982 1.190223 -0.255360
1.767352 1.190441 -0.302893
1.765031 1.205461 -0.302630
1.786743 1.208864 -0.302487
1.789064 1.193845 -0.302751
1.789559 1.194076 -0.350226
1.787148 1.208556 -0.349853
1.765043 1.205387 -0.302690
1.767364 1.190368 -0.302954
1.767859 1.190599 -0.350429
1.765447 1.205079 -0.350056
1.787126 1.208688 -0.349901
1.789538 1.194208 -0.350274
1.790033 1.194439 -0.397748
1.787529 1.208378 -0.397269
1.765470 1.204948 -0.350103
1.767882 1.190468 -0.350476
1.768376 1.190699 -0.397949
1.765872 1.204638 -0.397471
1.787514 1.208463 -0.397296
1.790018 1.194524 -0.397774
1.790494 1.194974 -0.445298
1.788010 1.208554 -0.444650
1.765888 1.204553 -0.397540
1.768392 1.190615 -0.398018
1.768868 1.191064 -0.445542
1.766384 1.204645 -0.444894
1.788011 1.208554 -0.444689
1.790495 1.194973 -0.445336
1.790951 1.195505 -0.492808
1.788557 1.208826 -0.492055
1.766385 1.204646 -0.444951
1.768869 1.191065 -0.445598
1.769325 1.191598 -0.493070
1.766931 1.204919 -0.492317
1.788563 1.208796 -0.492104
1.790957 1.195475 -0.492858
1.791413 1.196005 -0.540329
1.789097 1.209068 -0.539470
1.766926 1.204950 -0.492363
1.769320 1.191629 -0.493116
1.769776 1.192159 -0.540588
1.767460 1.205221 -0.539729
1.789101 1.209044 -0.539452
1.791417 1.195981 -0.540311
1.792199 1.196341 -0.587776
1.789896 1.209414 -0.586817
1.767457 1.205246 -0.539842
1.769773 1.192184 -0.540701
1.770555 1.192543 -0.588166
1.768252 1.205616 -0.587206
1.789898 1.209410 -0.586854
1.792200 1.196337 -0.587814
1.793043 1.196670 -0.635280
1.790723 1.209791 -0.634217
1.768252 1.205621 -0.587264
1.770555 1.192548 -0.588223
1.771398 1.192881 -0.635690
1.769078 1.206002 -0.634626
1.790725 1.209787 -0.634266
1.793045 1.196666 -0.635330
1.793859 1.196999 -0.682363
1.791552 1.210171 -0.681543
1.769078 1.206007 -0.634672
1.771398 1.192885 -0.635735
1.772213 1.193218 -0.682769
1.769905 1.206390 -0.681948
1.793193 1.187950 -0.017771
1.793438 1.188604 -0.067939
1.784443 1.198519 -0.065150
1.783930 1.198406 -0.017679
1.776811 1.173301 -0.018014
1.777057 1.173955 -0.068182
1.768061 1.183870 -0.065393
1.767548 1.183756 -0.017921
1.793365 1.188687 -0.067988
1.793612 1.189342 -0.118149
1.784883 1.198715 -0.112673
1.784369 1.198602 -0.065199
1.777131 1.173873 -0.068231
1.777379 1.174528 -0.118392
1.768649 1.183901 -0.112916
1.768135 1.183788 -0.065442
1.793509 1.189454 -0.118194
1.793734 1.190216 -0.168357
1.785242 1.198968 -0.160054
1.784780 1.198827 -0.112717
1.777482 1.174417 -0.118446
1.777707 1.175179 -0.168609
1.769214 1.183931 -0.160306
1.768753 1.183790 -0.112969
1.793548 1.190410 -0.168402
1.793728 1.191338 -0.218562
1.785364 1.199374 -0.207575
1.785056 1.199162 -0.160099
1.777893 1.174987 -0.168661
1.778073 1.175915 -0.218820
1.769709 1.183951 -0.207833
1.769400 1.183739 -0.160358
1.793466 1.191596 -0.218608
1.793655 1.192527 -0.268766
1.785414 1.199845 -0.255098
1.785102 1.199632 -0.207620
1.778336 1.175658 -0.218872
1.778525 1.176589 -0.269030
1.770284 1.183907 -0.255362
1.769971 1.183693 -0.207885
1.793441 1.192726 -0.268838
1.793734 1.193217 -0.318963
1.785570 1.200263 -0.302703
1.785200 1.200044 -0.255170
1.778739 1.176391 -0.269056
1.779033 1.176881 -0.319182
1.770868 1.183928 -0.302922
1.770498 1.183709 -0.255388
1.793730 1.193221 -0.319021
1.794085 1.193426 -0.369187
1.786061 1.200499 -0.350236
1.785565 1.200268 -0.302761
1.779038 1.176877 -0.319222
1.779394 1.177081 -0.369388
1.771369 1.184155 -0.350437
1.770873 1.183923 -0.302962
1.794183 1.193338 -0.369231
1.794581 1.193557 -0.419439
1.786653 1.200643 -0.397753
1.786158 1.200411 -0.350280
1.779297 1.177170 -0.369441
1.779695 1.177389 -0.419650
1.771767 1.184475 -0.397964
1.771272 1.184243 -0.350491
1.794706 1.193440 -0.419453
1.795265 1.193732 -0.469618
1.787254 1.200975 -0.445291
1.786778 1.200526 -0.397767
1.779571 1.177507 -0.419734
1.780130 1.177798 -0.469899
1.772119 1.185042 -0.445572
1.771643 1.184592 -0.398048
1.795358 1.193643 -0.469661
1.795919 1.193933 -0.519827
1.787804 1.201419 -0.492806
1.787347 1.200886 -0.445334
1.780038 1.177888 -0.469953
1.780598 1.178178 -0.520119
1.772483 1.185663 -0.493099
1.772027 1.185131 -0.445627
1.796021 1.193833 -0.519881
1.796852 1.193788 -0.569942
1.788362 1.201849 -0.540332
1.787906 1.201319 -0.492860
1.780497 1.178279 -0.520163
1.781328 1.178233 -0.570225
1.772837 1.186294 -0.540614
1.772382 1.185764 -0.493142
1.797029 1.193608 -0.569976
1.798192 1.193220 -0.620128
1.789320 1.202029 -0.587831
1.788538 1.201669 -0.540366
1.781153 1.178413 -0.570288
1.782315 1.178025 -0.620440
1.773444 1.186834 -0.588143
1.772662 1.186474 -0.540678
1.798378 1.193022 -0.620173
1.799513 1.192629 -0.670332
