2.517588 0.419322 0.094196
2.518510 0.419199 0.077284
2.514591 0.405267 0.077211
2.513795 0.405356 0.094026
2.575280 0.403349 0.097236
2.576202 0.403226 0.080323
2.572284 0.389294 0.080251
2.571487 0.389383 0.097066
2.518633 0.419765 0.078992
2.518742 0.419763 0.062092
2.514443 0.406094 0.062175
2.514715 0.405832 0.078920
2.576080 0.402661 0.078581
2.576188 0.402659 0.061681
2.571889 0.388990 0.061764
2.572161 0.388728 0.078509
2.518929 0.420342 0.062605
2.518616 0.420495 0.045712
2.514187 0.406865 0.045932
2.514630 0.406673 0.062687
2.576001 0.402080 0.061135
2.575687 0.402232 0.044242
2.571259 0.388602 0.044463
2.571701 0.388411 0.061218
2.518699 0.420782 0.045006
2.518740 0.420736 0.028123
2.514210 0.407299 0.028452
2.514271 0.407152 0.045226
2.575603 0.401945 0.044914
2.575643 0.401899 0.028032
2.571113 0.388462 0.028360
2.571174 0.388315 0.045135
2.519306 0.421132 0.032991
2.516818 0.422097 0.016209
2.512055 0.408723 0.016684
2.514775 0.407696 0.033320
2.575075 0.401503 0.023130
2.572588 0.402468 0.006347
2.567824 0.389094 0.006823
2.570545 0.388067 0.023458
2.514203 0.406827 0.095435
2.514999 0.406738 0.078621
2.509756 0.393280 0.078632
2.510296 0.392811 0.095243
2.571071 0.387884 0.095656
2.571867 0.387795 0.078841
2.566623 0.374338 0.078852
2.567164 0.373868 0.095464
2.515878 0.408970 0.080120
2.515606 0.409231 0.063375
2.509542 0.396046 0.063519
2.510634 0.395512 0.080132
2.570988 0.385564 0.077308
2.570716 0.385825 0.060563
2.564652 0.372640 0.060706
2.565744 0.372106 0.077319
2.515725 0.409584 0.062369
2.515283 0.409776 0.045615
2.509754 0.396566 0.045868
2.509661 0.396399 0.062513
2.570596 0.385473 0.061536
2.570153 0.385665 0.044781
2.564624 0.372455 0.045034
2.564532 0.372287 0.061679
2.515602 0.410423 0.046439
2.515540 0.410570 0.029664
2.508918 0.397773 0.030101
2.510073 0.397213 0.046692
2.569833 0.385018 0.043923
2.569772 0.385165 0.027148
2.563150 0.372369 0.027585
2.564305 0.371808 0.044177
2.516145 0.411062 0.033015
2.513425 0.412090 0.016379
2.507543 0.399380 0.017033
2.509523 0.398265 0.033452
2.569163 0.384674 0.023764
2.566443 0.385702 0.007128
2.560561 0.372993 0.007782
2.562541 0.371878 0.024201
2.537424 0.441317 0.012886
2.539911 0.440352 0.029669
2.550522 0.444126 0.021519
2.549876 0.444316 0.003359
2.551999 0.383266 0.009661
2.554486 0.382301 0.026443
2.565097 0.386074 0.018294
2.564451 0.386264 0.000134
2.554358 0.445125 0.002256
2.555004 0.444935 0.020416
2.567555 0.446170 0.013890
2.566524 0.446483 -0.006075
2.559993 0.385460 0.001220
2.560639 0.385270 0.019381
2.573190 0.386504 0.012854
2.572160 0.386818 -0.007110
2.567608 0.446566 -0.006051
2.568638 0.446252 0.013914
2.583609 0.447139 0.013765
2.582713 0.447443 -0.006304
2.571104 0.386737 -0.007142
2.572134 0.386424 0.012822
2.587105 0.387311 0.012673
2.586208 0.387615 -0.007395
2.580780 0.447254 -0.007867
2.581676 0.446950 0.012201
2.597131 0.449970 0.012069
2.595870 0.448020 -0.008106
2.588172 0.387807 -0.005832
2.589068 0.387503 0.014236
2.604523 0.390522 0.014104
2.603261 0.388572 -0.006071
2.539879 0.440363 0.029283
2.539838 0.440409 0.046165
2.551582 0.442892 0.039390
2.550490 0.444137 0.021133
2.554520 0.382289 0.026865
2.554479 0.382335 0.043747
2.566223 0.384818 0.036972
2.565131 0.386063 0.018715
2.555083 0.444897 0.021631
2.556174 0.443653 0.039888
2.568712 0.445379 0.035043
2.567634 0.446132 0.015104
2.560562 0.385307 0.018204
2.561654 0.384062 0.036461
2.574191 0.385789 0.031616
2.573113 0.386541 0.011678
2.568264 0.446217 0.014358
2.569342 0.445464 0.034297
2.584108 0.446695 0.034307
2.583235 0.447104 0.014209
2.572510 0.386459 0.012418
2.573589 0.385706 0.032357
2.588354 0.386937 0.032367
2.587481 0.387346 0.012269
2.581524 0.446863 0.015487
2.582397 0.446454 0.035585
2.597299 0.447396 0.035462
2.596978 0.449882 0.015354
2.589222 0.387589 0.010991
2.590095 0.387181 0.031089
2.604997 0.388123 0.030965
2.604677 0.390609 0.010858
2.540641 0.440624 0.045084
2.540955 0.440472 0.061977
2.552928 0.443319 0.056445
2.552384 0.443107 0.038308
2.553677 0.382119 0.044864
2.553991 0.381967 0.061757
2.565964 0.384814 0.056225
2.565421 0.384603 0.038088
2.553314 0.443283 0.037210
2.553858 0.443495 0.055346
2.567163 0.446452 0.053161
2.565852 0.445009 0.032365
2.564515 0.384432 0.039177
2.565059 0.384644 0.057314
2.578364 0.387601 0.055128
2.577053 0.386158 0.034333
2.571076 0.445547 0.032788
2.572387 0.446990 0.053584
2.586846 0.446125 0.052762
2.585841 0.446778 0.032799
2.571857 0.385623 0.033906
2.573168 0.387066 0.054701
2.587627 0.386201 0.053879
2.586623 0.386853 0.033916
2.583698 0.446672 0.033965
2.584703 0.446019 0.053928
2.599369 0.447600 0.054091
2.598601 0.447614 0.033841
2.588795 0.386961 0.032750
2.589799 0.386309 0.052713
2.604466 0.387889 0.052876
2.603697 0.387904 0.032626
2.540428 0.440349 0.061785
2.540319 0.440351 0.078685
2.553031 0.443442 0.074760
2.552401 0.443197 0.056253
2.554519 0.382089 0.061984
2.554410 0.382091 0.078884
2.567122 0.385182 0.074959
2.566492 0.384937 0.056452
2.554533 0.443619 0.057205
2.555163 0.443865 0.075711
2.568449 0.445446 0.074252
2.567838 0.446577 0.055019
2.564385 0.384519 0.055494
2.565015 0.384765 0.074000
2.578301 0.386346 0.072540
2.577690 0.387477 0.053308
2.573026 0.446991 0.054732
2.573636 0.445860 0.073964
2.588175 0.446500 0.074025
2.587485 0.446127 0.053909
2.572531 0.387064 0.053594
2.573141 0.385933 0.072826
2.587680 0.386573 0.072887
2.586990 0.386200 0.052771
2.586528 0.446096 0.054645
2.587218 0.446469 0.074760
2.601519 0.445573 0.074973
2.601194 0.447677 0.054808
2.587976 0.386230 0.052036
2.588666 0.386604 0.072152
2.602967 0.385707 0.072364
2.602642 0.387811 0.052199
2.539704 0.440182 0.077915
2.538782 0.440305 0.094827
2.552900 0.444119 0.092465
2.552416 0.443273 0.073990
2.555025 0.382261 0.079689
2.554103 0.382383 0.096602
2.568221 0.386197 0.094240
2.567737 0.385351 0.075764
2.556185 0.443996 0.073462
2.556669 0.444841 0.091938
2.570495 0.446759 0.091961
2.569471 0.445577 0.072002
2.563995 0.384634 0.076288
2.564479 0.385480 0.094763
2.578305 0.387397 0.094786
2.577280 0.386215 0.074828
2.572293 0.445806 0.071854
2.573317 0.446988 0.091813
2.587748 0.447427 0.092049
2.586831 0.446446 0.071916
2.574486 0.385988 0.074975
2.575511 0.387170 0.094934
2.589942 0.387608 0.095170
2.589025 0.386627 0.075036
2.590703 0.446364 0.072520
2.591620 0.447344 0.092654
2.605720 0.445627 0.092910
2.605004 0.445467 0.072733
2.585182 0.386709 0.074432
2.586099 0.387690 0.094566
2.600199 0.385973 0.094821
2.599483 0.385812 0.074645
2.538218 0.440071 0.093412
2.539160 0.441446 0.107566
2.552907 0.445569 0.109412
2.552337 0.443885 0.091050
2.554668 0.382619 0.098051
2.555609 0.383994 0.112206
2.569356 0.388117 0.114051
2.568786 0.386433 0.095689
2.557212 0.444872 0.091317
2.557782 0.446556 0.109679
2.572019 0.447930 0.111327
2.571037 0.446789 0.091340
2.563939 0.385452 0.095422
2.564509 0.387136 0.113784
2.578746 0.388511 0.115432
2.577764 0.387369 0.095445
2.574720 0.447036 0.092535
2.575702 0.448177 0.112522
2.590050 0.447462 0.112854
2.589151 0.447474 0.092772
2.574109 0.387124 0.094251
2.575091 0.388265 0.114238
2.589439 0.387550 0.114571
2.588540 0.387562 0.094488
2.591695 0.447345 0.092953
2.592594 0.447333 0.113036
2.606942 0.446359 0.113355
2.605795 0.445628 0.093209
2.586025 0.387690 0.094307
2.586924 0.387677 0.114389
2.601272 0.386703 0.114709
2.600125 0.385972 0.094562
2.629145 0.422739 -0.009074
2.630407 0.424690 0.011101
2.632865 0.409872 0.017443
2.631883 0.410243 0.000738
2.570003 0.413841 -0.005095
2.571265 0.415791 0.015079
2.573723 0.400973 0.021421
2.572741 0.401345 0.004717
2.630536 0.424077 0.014284
2.630857 0.421591 0.034391
2.631557 0.409083 0.037451
2.632995 0.409260 0.020626
2.571136 0.416403 0.011933
2.571457 0.413916 0.032041
2.572157 0.401408 0.035100
2.573595 0.401585 0.018275
2.631100 0.418714 0.032417
2.631868 0.418700 0.052666
2.632052 0.405756 0.052077
2.631800 0.406206 0.035477
2.571213 0.416792 0.034052
2.571981 0.416778 0.054301
2.572166 0.403834 0.053711
2.571913 0.404284 0.037111
2.631894 0.417876 0.053227
2.632219 0.415772 0.073392
2.632104 0.404964 0.069615
2.632078 0.404932 0.052637
2.571957 0.417600 0.053778
2.572282 0.415496 0.073943
2.572167 0.404689 0.070167
2.572141 0.404656 0.053188
2.631869 0.419323 0.070970
2.632584 0.419483 0.091147
2.634440 0.408255 0.083963
2.631754 0.408516 0.067193
2.572634 0.411944 0.076402
2.573349 0.412104 0.096579
2.575204 0.400876 0.089395
2.572518 0.401137 0.072626
2.632633 0.419926 0.092842
2.633780 0.420657 0.112988
2.634536 0.408682 0.102449
2.634489 0.408698 0.085658
2.573302 0.411662 0.094921
2.574449 0.412393 0.115067
2.575205 0.400418 0.104528
2.575157 0.400434 0.087737
2.631802 0.410995 0.001508
2.632784 0.410624 0.018212
2.634898 0.398980 0.024842
2.634590 0.398810 0.011420
2.572827 0.400567 0.003964
2.573809 0.400196 0.020668
2.575923 0.388552 0.027297
2.575616 0.388382 0.013875
2.632268 0.412899 0.021125
2.630830 0.412722 0.037950
2.634260 0.400738 0.041100
2.634382 0.401255 0.027754
2.574326 0.397921 0.017785
2.572888 0.397744 0.034610
2.576318 0.385760 0.037760
2.576440 0.386277 0.024414
2.630530 0.413931 0.035610
2.630783 0.413481 0.052210
2.634485 0.402196 0.052141
2.633961 0.401947 0.038760
2.573187 0.396535 0.036980
2.573439 0.396084 0.053580
2.577142 0.384800 0.053511
2.576617 0.384550 0.040130
2.630840 0.413299 0.053452
2.630866 0.413332 0.070431
2.634122 0.401384 0.066742
2.634543 0.402015 0.053384
2.573382 0.396266 0.052368
2.573408 0.396298 0.069347
2.576663 0.384351 0.065658
2.577084 0.384981 0.052300
2.631565 0.410059 0.067728
2.634250 0.409799 0.084497
2.634413 0.398110 0.077449
2.634820 0.398112 0.064039
2.572710 0.399570 0.072081
2.575396 0.399310 0.088850
2.575559 0.387621 0.081802
2.575966 0.387623 0.068392
2.634776 0.405529 0.086357
2.634824 0.405513 0.103148
2.635240 0.393424 0.092680
2.634939 0.393840 0.079309
2.574872 0.403579 0.087021
2.574919 0.403564 0.103812
2.575336 0.391474 0.093344
2.575035 0.391890 0.079973
