0.176679 0.260040 0.777765
0.181087 0.265412 0.802464
0.149921 0.177443 0.827132
0.146535 0.171384 0.802430
0.122350 0.190159 0.802506
0.126758 0.195532 0.827205
0.200757 0.241331 0.777642
0.197365 0.235266 0.752942
0.172155 0.254723 0.753022
0.176572 0.260106 0.777717
0.146635 0.171307 0.802428
0.143243 0.165241 0.777729
0.118033 0.184698 0.777809
0.122450 0.190081 0.802504
0.197274 0.235333 0.752934
0.193886 0.229273 0.728235
0.167656 0.249418 0.728315
0.172064 0.254791 0.753014
0.143326 0.165162 0.777688
0.139938 0.159102 0.752988
0.113709 0.179247 0.753069
0.118117 0.184619 0.777768
0.186710 0.260186 0.802440
0.182302 0.254814 0.777741
0.161745 0.277502 0.777839
0.167041 0.282024 0.802534
0.121092 0.200798 0.827228
0.116684 0.195426 0.802529
0.096127 0.218113 0.802627
0.101423 0.222636 0.827322
0.182208 0.254897 0.777693
0.177792 0.249514 0.752998
0.156346 0.273056 0.753099
0.161651 0.277584 0.777791
0.116768 0.195333 0.802529
0.112351 0.189950 0.777834
0.090906 0.213492 0.777935
0.096211 0.218021 0.802627
0.177713 0.249598 0.752993
0.173305 0.244225 0.728294
0.150971 0.268617 0.728400
0.156267 0.273140 0.753094
0.112420 0.189856 0.777789
0.108012 0.184484 0.753090
0.085678 0.208876 0.753197
0.090974 0.213398 0.777890
0.171671 0.275901 0.802506
0.166375 0.271378 0.777812
0.150071 0.297293 0.777928
0.156092 0.300821 0.802618
0.096757 0.228807 0.827350
0.091461 0.224284 0.802655
0.075158 0.250199 0.802772
0.081179 0.253727 0.827462
0.166297 0.271476 0.777762
0.160991 0.266947 0.753071
0.143960 0.293855 0.753192
0.149993 0.297391 0.777878
0.091528 0.224179 0.802655
0.086222 0.219651 0.777964
0.069191 0.246558 0.778085
0.075224 0.250094 0.802772
0.160928 0.267044 0.753065
0.155632 0.262521 0.728371
0.137874 0.290423 0.728497
0.143897 0.293951 0.753186
0.086274 0.219546 0.777920
0.080978 0.215023 0.753226
0.063220 0.242925 0.753352
0.069243 0.246454 0.778042
0.159588 0.293989 0.802587
0.153566 0.290462 0.777897
0.142010 0.318812 0.778029
0.148573 0.321238 0.802714
0.077656 0.260612 0.827493
0.071635 0.257084 0.802803
0.060079 0.285435 0.802935
0.066642 0.287860 0.827620
0.153506 0.290570 0.777845
0.147473 0.287035 0.753159
0.135372 0.316492 0.753296
0.141949 0.318921 0.777977
0.071683 0.256969 0.802805
0.065650 0.253434 0.778119
0.053549 0.282891 0.778256
0.060126 0.285320 0.802937
0.147429 0.287139 0.753155
0.141406 0.283610 0.728465
0.128764 0.314170 0.728607
0.135328 0.316597 0.753292
0.065681 0.253323 0.778073
0.059658 0.249795 0.753384
0.047017 0.280355 0.753526
0.053581 0.282781 0.778210
0.150829 0.313904 0.802680
0.144266 0.311479 0.777995
0.137806 0.341406 0.778138
0.144711 0.342650 0.802818
0.064368 0.295251 0.827654
0.057805 0.292825 0.802969
0.051346 0.322753 0.803112
0.058250 0.323996 0.827792
0.144226 0.311594 0.777944
0.137649 0.309165 0.753263
0.130849 0.340275 0.753411
0.137767 0.341521 0.778087
0.057831 0.292707 0.802970
0.051254 0.290278 0.778289
0.044455 0.321388 0.778437
0.051372 0.322635 0.803113
0.137624 0.309273 0.753260
0.131060 0.306846 0.728575
0.123920 0.339139 0.728728
0.130825 0.340383 0.753408
0.051265 0.290167 0.778243
0.044702 0.287740 0.753558
0.037561 0.320033 0.753712
0.044466 0.321277 0.778391
0.145660 0.335033 0.802784
0.138756 0.333790 0.778104
0.137592 0.364383 0.778254
0.144626 0.364405 0.802928
0.057294 0.331672 0.827826
0.050389 0.330429 0.803146
0.049226 0.361022 0.803296
0.056260 0.361044 0.827971
0.138737 0.333909 0.778054
0.131820 0.332662 0.753378
0.130527 0.364482 0.753533
0.137574 0.364502 0.778204
0.050394 0.330309 0.803146
0.043477 0.329063 0.778470
0.042183 0.360882 0.778625
0.049230 0.360902 0.803296
0.131814 0.332772 0.753374
0.124909 0.331529 0.728695
0.123486 0.364570 0.728855
0.130521 0.364592 0.753529
0.043468 0.328952 0.778425
0.036563 0.327708 0.753745
0.035141 0.360749 0.753905
0.042175 0.360771 0.778580
0.144238 0.356736 0.802893
0.137204 0.356714 0.778218
0.141372 0.387046 0.778371
0.148323 0.385840 0.803040
0.056651 0.368772 0.828006
0.049617 0.368751 0.803331
0.053785 0.399082 0.803484
0.060736 0.397876 0.828153
0.137207 0.356837 0.778169
0.130160 0.356817 0.753498
0.134412 0.388376 0.753657
0.141375 0.387169 0.778322
0.049600 0.368629 0.803331
0.042553 0.368609 0.778660
0.046805 0.400169 0.778819
0.053768 0.398961 0.803484
0.130173 0.356929 0.753493
0.123139 0.356908 0.728819
0.127472 0.389696 0.728983
0.134425 0.388489 0.753651
0.042526 0.368498 0.778616
0.035491 0.368476 0.753942
0.039825 0.401264 0.754107
0.046778 0.400058 0.778775
0.146608 0.378357 0.802999
0.139657 0.379563 0.778330
0.149028 0.408709 0.778481
0.155688 0.406309 0.803143
0.062465 0.405417 0.828194
0.055514 0.406624 0.803525
0.064885 0.435770 0.803677
0.071545 0.433369 0.828339
0.139683 0.379688 0.778284
0.132720 0.380896 0.753619
0.142385 0.411239 0.753776
0.149054 0.408834 0.778435
0.055474 0.406502 0.803522
0.048511 0.407710 0.778857
0.058176 0.438054 0.779014
0.064845 0.435649 0.803673
0.132753 0.381003 0.753614
0.125800 0.382210 0.728947
0.135761 0.413746 0.729109
0.142417 0.411347 0.753772
0.048465 0.407606 0.778812
0.041512 0.408813 0.754144
0.051473 0.440349 0.754307
0.058130 0.437950 0.778969
0.224623 0.239093 0.827302
0.224632 0.239153 0.814946
0.198680 0.252948 0.814996
0.198671 0.252885 0.827352
0.181487 0.157938 0.826870
0.181496 0.157997 0.814514
0.155544 0.171792 0.814564
0.155535 0.171730 0.826920
0.205363 0.248541 0.827337
0.205372 0.248603 0.814981
0.182209 0.266692 0.815054
0.182201 0.266631 0.827410
0.148793 0.176107 0.826934
0.148803 0.176169 0.814578
0.125640 0.194257 0.814652
0.125631 0.194196 0.827007
0.188040 0.261188 0.827386
0.188049 0.261249 0.815031
0.168380 0.283087 0.815124
0.168371 0.283025 0.827480
0.119749 0.199679 0.827031
0.119758 0.199740 0.814675
0.100089 0.221578 0.814769
0.100080 0.221516 0.827125
0.173174 0.276652 0.827453
0.173183 0.276714 0.815098
0.157605 0.301634 0.815210
0.157596 0.301573 0.827565
0.095241 0.227936 0.827152
0.095250 0.227997 0.814796
0.079672 0.252918 0.814908
0.079662 0.252856 0.827264
0.161221 0.294462 0.827533
0.161230 0.294524 0.815177
0.150215 0.321772 0.815304
0.150206 0.321710 0.827660
0.076011 0.260019 0.827296
0.076020 0.260080 0.814940
0.065006 0.287329 0.815067
0.064997 0.287266 0.827423
0.152540 0.314081 0.827621
0.152549 0.314143 0.815265
0.146431 0.342889 0.815403
0.146423 0.342828 0.827759
0.062645 0.294951 0.827462
0.062655 0.295013 0.815107
0.056537 0.323759 0.815244
0.056528 0.323698 0.827600
0.147398 0.334910 0.827720
0.147406 0.334970 0.815365
0.146372 0.364342 0.815509
0.146363 0.364281 0.827865
0.055547 0.331675 0.827639
0.055555 0.331735 0.815283
0.054521 0.361107 0.815427
0.054512 0.361046 0.827783
0.145946 0.356305 0.827827
0.145956 0.356367 0.815472
0.150041 0.385470 0.815618
0.150031 0.385410 0.827974
0.054931 0.369080 0.827820
0.054940 0.369141 0.815465
0.059025 0.398245 0.815611
0.059015 0.398184 0.827967
0.148235 0.377625 0.827930
0.148245 0.377686 0.815575
0.157325 0.405638 0.815719
0.157318 0.405576 0.828075
0.060825 0.406026 0.828011
0.060835 0.406086 0.815655
0.069915 0.434038 0.815800
0.069908 0.433976 0.828155
0.181166 0.211830 0.940682
0.154936 0.231975 0.940762
0.141198 0.218726 0.951992
0.169927 0.196398 0.951904
0.152412 0.174938 0.861567
0.126183 0.195082 0.861647
0.112444 0.181834 0.872877
0.141173 0.159505 0.872789
0.157923 0.229212 0.940754
0.135590 0.253606 0.940858
0.119766 0.242940 0.952095
0.144184 0.215963 0.951984
0.123145 0.197892 0.861655
0.100813 0.222285 0.861759
0.084988 0.211620 0.872996
0.109406 0.184643 0.872885
0.138056 0.250361 0.940847
0.120299 0.278262 0.940972
0.102873 0.270505 0.952222
0.122232 0.239695 0.952084
0.098305 0.225585 0.861770
0.080548 0.253486 0.861895
0.063122 0.245729 0.873145
0.082481 0.214920 0.873007
0.122172 0.274642 0.940953
0.109531 0.305203 0.941095
0.091035 0.300589 0.952364
0.104746 0.266885 0.952203
0.078644 0.257167 0.861915
0.066003 0.287728 0.862057
0.047506 0.283114 0.873326
0.061217 0.249410 0.873165
0.110747 0.301318 0.941073
0.103607 0.333610 0.941229
0.084600 0.332276 0.952515
0.092250 0.296704 0.952342
0.064767 0.291680 0.862079
0.057627 0.323972 0.862235
0.038620 0.322638 0.873522
0.046270 0.287066 0.873348
0.104128 0.329570 0.941207
0.102703 0.362612 0.941370
0.083765 0.364595 0.952676
0.085121 0.328236 0.952493
0.057097 0.328080 0.862258
0.055673 0.361122 0.862421
0.036734 0.363105 0.873727
0.038090 0.326746 0.873544
0.102515 0.358547 0.941348
0.106848 0.391334 0.941513
0.088552 0.396574 0.952836
0.083577 0.360531 0.952653
0.055864 0.365255 0.862444
0.060197 0.398042 0.862609
0.041901 0.403281 0.873933
0.036925 0.367239 0.873750
0.105957 0.387359 0.941490
0.115917 0.418896 0.941652
0.098819 0.427229 0.952995
0.087661 0.392599 0.952813
0.061103 0.402085 0.862633
0.071063 0.433621 0.862795
0.053966 0.441954 0.874137
0.042808 0.407324 0.873956
0.223732 0.237513 0.839874
0.197780 0.251306 0.839923
0.194359 0.245005 0.864559
0.221436 0.230715 0.864509
0.182375 0.159510 0.814335
0.156423 0.173303 0.814385
0.153002 0.167001 0.839021
0.180079 0.152711 0.838970
0.221321 0.230760 0.864554
0.194244 0.245050 0.864605
0.190817 0.238740 0.889238
0.219020 0.223953 0.889185
0.180189 0.152652 0.838974
0.153111 0.166942 0.839024
0.149684 0.160632 0.863657
0.177888 0.145845 0.863605
0.218916 0.224004 0.889196
0.190713 0.238791 0.889248
0.187290 0.232488 0.913882
0.216620 0.217206 0.913830
0.177986 0.145781 0.863644
0.149783 0.160568 0.863696
0.146360 0.154265 0.888330
0.175690 0.138983 0.888278
0.204223 0.247137 0.839908
0.181061 0.265226 0.839981
0.176618 0.259609 0.864619
0.200802 0.240835 0.864544
0.149929 0.177505 0.814400
0.126767 0.195595 0.814473
0.122324 0.189978 0.839111
0.146508 0.171203 0.839036
0.200696 0.240901 0.864591
0.176511 0.259675 0.864666
0.172060 0.254050 0.889301
0.197269 0.234591 0.889224
0.146607 0.171126 0.839039
0.122422 0.189900 0.839114
0.117971 0.184275 0.863748
0.143180 0.164816 0.863671
0.197176 0.234658 0.889235
0.171968 0.254117 0.889312
0.167524 0.248499 0.913949
0.193753 0.228355 0.913869
0.143264 0.164736 0.863709
0.118056 0.184196 0.863786
0.113612 0.178577 0.888424
0.139841 0.158433 0.888344
0.186683 0.260001 0.839961
0.167014 0.281838 0.840055
0.161683 0.277072 0.864696
0.182239 0.254384 0.864599
0.121101 0.200861 0.814493
0.101432 0.222698 0.814587
0.096101 0.217932 0.839229
0.116658 0.195244 0.839132
0.182146 0.254467 0.864647
0.161589 0.277155 0.864744
0.156249 0.272383 0.889382
0.177695 0.248842 0.889281
0.116742 0.195151 0.839133
0.096185 0.217839 0.839230
0.090844 0.213067 0.863868
0.112291 0.189525 0.863768
0.177617 0.248924 0.889289
0.156171 0.272465 0.889390
0.150841 0.267700 0.914030
0.173173 0.243306 0.913927
0.112359 0.189433 0.863809
0.090913 0.212974 0.863910
0.085582 0.208208 0.888551
0.107915 0.183814 0.888447
0.171643 0.275715 0.840029
0.156064 0.300636 0.840141
0.150007 0.296864 0.864787
0.166312 0.270950 0.864671
0.096767 0.228868 0.814613
0.081188 0.253788 0.814725
0.075131 0.250016 0.839371
0.091436 0.224102 0.839255
0.166235 0.271046 0.864717
0.149931 0.296960 0.864833
0.143865 0.293183 0.889476
0.160895 0.266274 0.889355
0.091501 0.223997 0.839257
0.075196 0.249911 0.839373
0.069130 0.246134 0.864016
0.086160 0.219225 0.863895
0.160833 0.266369 0.889363
0.143802 0.293278 0.889483
0.137746 0.289504 0.914129
0.155502 0.261603 0.914004
0.086211 0.219122 0.863937
0.069181 0.246031 0.864057
0.063124 0.242257 0.888702
0.080881 0.214356 0.888578
0.159561 0.293802 0.840108
0.148546 0.321049 0.840235
0.141949 0.318382 0.864886
0.153504 0.290030 0.864754
0.077664 0.260676 0.814758
0.066650 0.287923 0.814885
0.060052 0.285256 0.839536
0.071607 0.256904 0.839403
0.153445 0.290138 0.864802
0.141890 0.318490 0.864935
0.135280 0.315817 0.889582
0.147379 0.286360 0.889445
0.071653 0.256789 0.839405
0.060098 0.285141 0.839537
0.053489 0.282468 0.864184
0.065587 0.253012 0.864047
0.147334 0.286465 0.889453
0.135235 0.315922 0.889590
0.128636 0.313253 0.914241
0.141277 0.282692 0.914098
0.065620 0.252901 0.864088
0.053521 0.282357 0.864225
0.046923 0.279688 0.888876
0.059563 0.249127 0.888733
0.150802 0.313716 0.840199
0.144685 0.342463 0.840337
0.137746 0.340975 0.864994
0.144205 0.311049 0.864850
0.064376 0.295314 0.814921
0.058259 0.324061 0.815059
0.051320 0.322573 0.839716
0.057779 0.292646 0.839572
0.144165 0.311164 0.864900
0.137707 0.341091 0.865044
0.130755 0.339602 0.889697
0.137556 0.308492 0.889547
0.057805 0.292526 0.839572
0.051346 0.322453 0.839715
0.044394 0.320964 0.864369
0.051195 0.289853 0.864219
0.137530 0.308600 0.889553
0.130730 0.339711 0.889703
0.123791 0.338223 0.914359
0.130932 0.305931 0.914203
0.051207 0.289741 0.864263
0.044406 0.320852 0.864412
0.037467 0.319364 0.889069
0.044608 0.287072 0.888913
0.145634 0.334851 0.840298
0.144599 0.364222 0.840442
0.137529 0.363957 0.865106
0.138695 0.333363 0.864955
0.057303 0.331733 0.815098
0.056268 0.361104 0.815242
0.049198 0.360839 0.839905
0.050364 0.330245 0.839755
0.138677 0.333481 0.865003
0.137511 0.364075 0.865153
0.130431 0.363810 0.889813
0.131725 0.331992 0.889656
0.050368 0.330125 0.839757
0.049202 0.360720 0.839907
0.042123 0.360455 0.864567
0.043416 0.328637 0.864410
0.131719 0.332101 0.889662
0.130425 0.363920 0.889819
0.123356 0.363655 0.914482
0.124781 0.330614 0.914319
0.043408 0.328525 0.864453
0.042115 0.360344 0.864610
0.035046 0.360079 0.889273
0.036470 0.327037 0.889110
0.144211 0.356551 0.840402
0.148295 0.385655 0.840548
0.141309 0.386617 0.865218
0.137141 0.356286 0.865065
0.056659 0.368835 0.815283
0.060744 0.397939 0.815430
0.053758 0.398901 0.840099
0.049590 0.368570 0.839946
0.137144 0.356409 0.865113
0.141313 0.386740 0.865265
0.134314 0.387705 0.889932
0.130065 0.356145 0.889773
0.049572 0.368448 0.839948
0.053741 0.398778 0.840101
0.046742 0.399743 0.864767
0.042492 0.368183 0.864608
0.130078 0.356258 0.889779
0.134328 0.387818 0.889938
0.127342 0.388780 0.914607
0.123009 0.355993 0.914442
0.042465 0.368070 0.864651
0.046715 0.399631 0.864810
0.039729 0.400592 0.889479
0.035396 0.367806 0.889314
0.146579 0.378170 0.840513
0.155662 0.406120 0.840658
0.148965 0.408278 0.865333
0.139593 0.379131 0.865183
0.062474 0.405483 0.815465
0.071557 0.433434 0.815610
0.064860 0.435591 0.840285
0.055488 0.406445 0.840134
0.139620 0.379257 0.865230
0.148991 0.408404 0.865381
0.142286 0.410565 0.890052
0.132621 0.380222 0.889896
0.055448 0.406322 0.840136
0.064820 0.435468 0.840287
0.058114 0.437630 0.864958
0.048449 0.407287 0.864802
0.132655 0.380331 0.889899
0.142320 0.410674 0.890054
0.135629 0.412830 0.914730
0.125669 0.381293 0.914568
0.048401 0.407181 0.864849
0.058066 0.437524 0.865005
0.051375 0.439679 0.889681
0.041415 0.408143 0.889519
0.207068 0.198743 0.940640
0.177738 0.214026 0.940693
0.166500 0.198593 0.951915
0.198669 0.181592 0.951851
0.185228 0.157422 0.861503
0.155898 0.172705 0.861556
0.144659 0.157272 0.872778
0.176829 0.140271 0.872714
0.114522 0.416317 0.702207
0.097441 0.424763 0.690923
0.114443 0.456929 0.691092
0.129807 0.445646 0.702364
0.072715 0.437850 0.781173
0.055634 0.446295 0.769888
0.072636 0.478462 0.770057
0.088000 0.467179 0.781330
0.127611 0.442219 0.702347
0.112247 0.453502 0.691075
0.134574 0.482230 0.691235
0.147754 0.468448 0.702493
0.090233 0.470664 0.781346
0.074870 0.481947 0.770074
0.097197 0.510676 0.770234
0.110377 0.496893 0.781492
0.144989 0.465449 0.702477
0.131809 0.479231 0.691219
0.158787 0.503644 0.691358
0.169382 0.487781 0.702605
0.113189 0.499943 0.781509
0.100009 0.513726 0.770250
0.126987 0.538139 0.770390
0.137583 0.522275 0.781637
0.166141 0.485306 0.702593
0.155545 0.501169 0.691346
0.186353 0.520526 0.691461
0.194042 0.503063 0.702701
0.140880 0.524792 0.781649
0.130284 0.540655 0.770402
0.161092 0.560012 0.770517
0.168781 0.542549 0.781757
0.190420 0.501191 0.702691
0.182731 0.518654 0.691450
0.216432 0.532367 0.691542
0.220981 0.513831 0.702774
0.172464 0.544452 0.781768
0.164775 0.561915 0.770527
0.198476 0.575628 0.770619
0.203025 0.557092 0.781851
0.217086 0.512619 0.702765
0.212537 0.531154 0.691533
0.248108 0.538804 0.691594
0.249378 0.519759 0.702822
0.206986 0.558326 0.781860
0.202438 0.576861 0.770628
0.238009 0.584511 0.770689
0.239278 0.565466 0.781917
0.245339 0.519245 0.702815
0.244069 0.538290 0.691587
0.280427 0.539651 0.691623
0.278381 0.520670 0.702845
0.243386 0.565989 0.781924
0.242117 0.585035 0.770696
0.278475 0.586396 0.770732
0.276429 0.567415 0.781954
0.274305 0.520862 0.702844
0.276351 0.539843 0.691621
0.312393 0.534867 0.691619
0.307092 0.516530 0.702846
0.280574 0.567220 0.781956
0.282620 0.586201 0.770733
0.318663 0.581225 0.770731
0.313362 0.562888 0.781958
0.303117 0.517420 0.702852
0.308417 0.535757 0.691624
0.343048 0.524601 0.691593
0.334654 0.507461 0.702826
0.317405 0.561983 0.781953
0.322706 0.580320 0.770725
0.357337 0.569164 0.770694
0.348943 0.552024 0.781927
0.152699 0.399240 0.803101
0.146039 0.401641 0.778439
0.160330 0.428718 0.778584
0.166495 0.425191 0.803239
0.074557 0.440493 0.828381
0.067897 0.442894 0.803719
0.082187 0.469971 0.803864
0.088352 0.466443 0.828519
0.146087 0.401759 0.778395
0.139418 0.404164 0.753736
0.154204 0.432368 0.753887
0.160377 0.428836 0.778539
0.067836 0.442782 0.803714
0.061167 0.445187 0.779055
0.075954 0.473391 0.779206
0.082127 0.469859 0.803858
0.139471 0.404265 0.753739
0.132815 0.406663 0.729076
0.148100 0.435992 0.729232
0.154258 0.432469 0.753890
0.061101 0.445092 0.779003
0.054445 0.447491 0.754340
0.069730 0.476820 0.754497
0.075887 0.473296 0.779154
0.162326 0.418748 0.803204
0.156161 0.422275 0.778548
0.174937 0.446459 0.778681
0.180415 0.441911 0.803331
0.092554 0.472936 0.828555
0.086389 0.476463 0.803899
0.105165 0.500646 0.804033
0.110643 0.496098 0.828683
0.156225 0.422381 0.778501
0.150052 0.425913 0.753849
0.169513 0.451121 0.753988
0.175001 0.446564 0.778634
0.086313 0.476366 0.803897
0.080139 0.479898 0.779245
0.099600 0.505105 0.779384
0.105088 0.500549 0.804030
0.150124 0.426005 0.753854
0.143966 0.429528 0.729197
0.164110 0.455757 0.729343
0.169585 0.451212 0.753993
0.080056 0.479815 0.779190
0.073898 0.483338 0.754533
0.094041 0.509567 0.754679
0.099516 0.505022 0.779329
0.175190 0.436288 0.803301
0.169711 0.440836 0.778651
0.192401 0.461392 0.778769
0.197028 0.455957 0.803414
0.115909 0.501764 0.828713
0.110431 0.506312 0.804063
0.133120 0.526868 0.804181
0.137747 0.521433 0.828826
0.169794 0.440931 0.778600
0.164305 0.445487 0.753954
0.187848 0.466933 0.754077
0.192483 0.461487 0.778718
0.110339 0.506228 0.804065
0.104850 0.510785 0.779418
0.128393 0.532230 0.779542
0.133028 0.526784 0.804182
0.164391 0.445563 0.753959
0.158916 0.450108 0.729309
0.183309 0.472440 0.729437
0.187933 0.467009 0.754083
0.104755 0.510719 0.779363
0.099279 0.515264 0.754713
0.123673 0.537596 0.754841
0.128297 0.532164 0.779487
0.190906 0.451329 0.803385
0.186280 0.456764 0.778740
0.212193 0.473069 0.778840
0.215827 0.466907 0.803480
0.143916 0.526097 0.828855
0.139289 0.531533 0.804210
0.165203 0.547837 0.804309
0.168837 0.541675 0.828949
0.186377 0.456843 0.778689
0.181742 0.462289 0.754049
0.208650 0.479321 0.754152
0.212290 0.473147 0.778789
0.139184 0.531465 0.804211
0.134549 0.536912 0.779571
0.161457 0.553943 0.779674
0.165098 0.547770 0.804311
0.181839 0.462348 0.754056
0.177214 0.467780 0.729410
0.205115 0.485536 0.729518
0.208747 0.479380 0.754159
0.134444 0.536864 0.779514
0.129819 0.542296 0.754868
0.157720 0.560053 0.754976
0.161352 0.553896 0.779618
0.208996 0.463412 0.803457
0.205362 0.469574 0.778817
0.233713 0.481131 0.778894
0.236243 0.474428 0.803531
0.175721 0.545197 0.828973
0.172087 0.551359 0.804332
0.200439 0.562917 0.804409
0.202969 0.556213 0.829047
0.205470 0.469633 0.778767
0.201829 0.475807 0.754131
0.231287 0.487906 0.754211
0.233821 0.481191 0.778844
0.171974 0.551313 0.804333
0.168333 0.557486 0.779696
0.197791 0.569586 0.779777
0.200325 0.562870 0.804410
0.201933 0.475847 0.754139
0.198302 0.482004 0.729497
0.228863 0.494644 0.729580
0.231391 0.487947 0.754219
0.168223 0.557459 0.779639
0.164592 0.563615 0.754997
0.195152 0.576255 0.755081
0.197681 0.569558 0.779719
0.228909 0.472171 0.803518
0.226379 0.478874 0.778880
0.256307 0.485333 0.778933
0.257655 0.478290 0.803568
0.210360 0.558487 0.829061
0.207830 0.565191 0.804423
0.237758 0.571650 0.804476
0.239106 0.564606 0.829111
0.226492 0.478913 0.778831
0.223958 0.485629 0.754198
0.255070 0.492428 0.754253
0.256420 0.485372 0.778884
0.207713 0.565166 0.804423
0.205179 0.571882 0.779790
0.236291 0.578681 0.779844
0.237641 0.571625 0.804476
0.224067 0.485651 0.754205
0.221539 0.492348 0.729566
0.253831 0.499489 0.729623
0.255179 0.492450 0.754259
0.205067 0.571873 0.779734
0.202538 0.578570 0.755095
0.234830 0.585711 0.755152
0.236178 0.578672 0.779789
0.250037 0.477339 0.803564
0.248689 0.484383 0.778929
0.279283 0.485545 0.778956
0.279408 0.478373 0.803590
0.246784 0.565564 0.829116
0.245436 0.572608 0.804481
0.276030 0.573770 0.804508
0.276155 0.566598 0.829142
0.248807 0.484402 0.778878
0.247457 0.491458 0.754246
0.279277 0.492750 0.754275
0.279402 0.485564 0.778905
0.245316 0.572603 0.804482
0.243966 0.579658 0.779850
0.275785 0.580951 0.779879
0.275910 0.573765 0.804509
0.247570 0.491462 0.754248
0.246222 0.498501 0.729612
0.279265 0.499926 0.729642
0.279390 0.492755 0.754277
0.243851 0.579669 0.779799
0.242503 0.586707 0.755163
0.275545 0.588133 0.755193
0.275671 0.580961 0.779828
0.271740 0.478762 0.803587
0.271615 0.485934 0.778953
0.301946 0.481767 0.778954
0.300844 0.474674 0.803588
0.283884 0.566206 0.829145
0.283759 0.573378 0.804511
0.314090 0.569210 0.804512
0.312988 0.562118 0.829146
0.271741 0.485931 0.778902
0.271616 0.493118 0.754272
0.303178 0.488868 0.754274
0.302073 0.481764 0.778904
0.283633 0.573395 0.804512
0.283508 0.580581 0.779882
0.315070 0.576331 0.779884
0.313965 0.569227 0.804513
0.271729 0.493102 0.754272
0.271603 0.500274 0.729638
0.304391 0.495942 0.729640
0.303290 0.488853 0.754274
0.283397 0.580610 0.779832
0.283271 0.587782 0.755198
0.316059 0.583450 0.755200
0.314958 0.576361 0.779834
0.293362 0.476391 0.803585
0.294464 0.483483 0.778951
0.323612 0.474112 0.778927
0.321314 0.467310 0.803560
0.320529 0.560388 0.829149
0.321631 0.567481 0.804515
0.350778 0.558109 0.804491
0.348480 0.551307 0.829124
0.294591 0.483457 0.778903
0.295696 0.490561 0.754273
0.326040 0.480899 0.754249
0.323739 0.474086 0.778878
0.321507 0.567521 0.804514
0.322612 0.574625 0.779885
0.352957 0.564962 0.779860
0.350655 0.558149 0.804490
0.295804 0.490525 0.754280
0.296905 0.497614 0.729646
0.328443 0.487655 0.729620
0.326149 0.480862 0.754255
0.322507 0.574675 0.779829
0.323608 0.581764 0.755195
0.355146 0.571805 0.755169
0.352852 0.565012 0.779805
0.154202 0.398234 0.828036
0.154209 0.398296 0.815680
0.168004 0.424247 0.815818
0.167995 0.424186 0.828174
0.073046 0.441372 0.828195
0.073054 0.441433 0.815839
0.086849 0.467384 0.815977
0.086840 0.467323 0.828333
0.163651 0.417494 0.828141
0.163660 0.417555 0.815785
0.181750 0.440717 0.815912
0.181741 0.440656 0.828268
0.091216 0.474064 0.828367
0.091225 0.474125 0.816011
0.109315 0.497288 0.816139
0.109306 0.497226 0.828495
0.176298 0.434818 0.828236
0.176307 0.434879 0.815880
0.198145 0.454547 0.815993
0.198135 0.454487 0.828349
0.114788 0.503108 0.828527
0.114797 0.503169 0.816171
0.136635 0.522837 0.816284
0.136625 0.522777 0.828640
0.191762 0.449683 0.828322
0.191772 0.449743 0.815967
0.216693 0.465321 0.816061
0.216683 0.465261 0.828417
0.143045 0.527616 0.828667
0.143055 0.527677 0.816311
0.167975 0.543255 0.816405
0.167966 0.543194 0.828761
0.209574 0.461637 0.828391
0.209583 0.461697 0.816035
0.236831 0.472713 0.816109
0.236822 0.472651 0.828465
0.175127 0.546845 0.828787
0.175137 0.546905 0.816432
0.202384 0.557921 0.816506
0.202375 0.557859 0.828861
0.229195 0.470317 0.828447
0.229204 0.470379 0.816091
0.257950 0.476498 0.816142
0.257942 0.476438 0.828498
0.210057 0.560210 0.828880
0.210067 0.560272 0.816524
0.238812 0.566391 0.816575
0.238804 0.566330 0.828931
0.250018 0.475462 0.828488
0.250026 0.475523 0.816133
0.279398 0.476557 0.816159
0.279390 0.476495 0.828514
0.246786 0.567312 0.828940
0.246795 0.567373 0.816584
0.276166 0.568407 0.816611
0.276158 0.568345 0.828966
0.271412 0.476912 0.828510
0.271420 0.476973 0.816155
0.300525 0.472886 0.816156
0.300516 0.472825 0.828511
0.284194 0.567926 0.828970
0.284203 0.567987 0.816614
0.313307 0.563899 0.816615
0.313298 0.563838 0.828971
0.292736 0.474620 0.828513
0.292745 0.474681 0.816157
0.320696 0.465601 0.816132
0.320688 0.465538 0.828488
0.321135 0.562030 0.828969
0.321144 0.562091 0.816614
0.349096 0.553010 0.816589
0.349087 0.552947 0.828944
0.127435 0.441036 0.941765
0.147579 0.467264 0.941908
0.134383 0.480935 0.953281
0.112055 0.452208 0.953125
0.090178 0.470260 0.862993
0.110322 0.496488 0.863137
0.097126 0.510159 0.874510
0.074798 0.481432 0.874353
0.144815 0.464261 0.941888
0.169209 0.486592 0.942016
0.158598 0.502342 0.953407
0.131618 0.477932 0.953261
0.113134 0.499542 0.863157
0.137527 0.521873 0.863284
0.126917 0.537623 0.874676
0.099937 0.513213 0.874530
0.165971 0.484117 0.941997
0.193872 0.501872 0.942105
0.186169 0.519223 0.953507
0.155360 0.499867 0.953388
0.140820 0.524390 0.863304
0.168721 0.542145 0.863412
0.161018 0.559496 0.874814
0.130209 0.540140 0.874695
0.190249 0.500001 0.942093
0.220810 0.512641 0.942178
0.216246 0.531064 0.953588
0.182546 0.517352 0.953495
0.172406 0.544047 0.863425
0.202967 0.556687 0.863510
0.198403 0.575110 0.874920
0.164702 0.561398 0.874827
0.216915 0.511426 0.942168
0.249207 0.518567 0.942228
0.247921 0.537499 0.953645
0.212351 0.529849 0.953578
0.206929 0.557923 0.863520
0.239220 0.565063 0.863580
0.237934 0.583995 0.874997
0.202364 0.576345 0.874930
0.245167 0.518048 0.942221
0.278209 0.519474 0.942252
0.280238 0.538340 0.953670
0.243881 0.536980 0.953638
0.243329 0.565591 0.863587
0.276371 0.567018 0.863618
0.278400 0.585883 0.875036
0.242043 0.584523 0.875004
0.274134 0.519664 0.942249
0.306922 0.515334 0.942250
0.312205 0.533557 0.953671
0.276164 0.538530 0.953667
0.280514 0.566825 0.863621
0.313302 0.562494 0.863622
0.318585 0.580717 0.875043
0.282544 0.585690 0.875040
0.302947 0.516227 0.942251
0.334484 0.506269 0.942222
0.342861 0.523297 0.953638
0.308230 0.534450 0.953671
0.317345 0.561585 0.863622
0.348883 0.551627 0.863594
0.357260 0.568654 0.875009
0.322628 0.579808 0.875042
0.152674 0.399055 0.840626
0.166468 0.425006 0.840764
0.160269 0.428289 0.865444
0.145978 0.401212 0.865301
0.074567 0.440554 0.815643
0.088361 0.466506 0.815781
0.082161 0.469788 0.840461
0.067870 0.442712 0.840317
0.146024 0.401328 0.865347
0.160315 0.428404 0.865491
0.154106 0.431694 0.890168
0.139319 0.403490 0.890019
0.067811 0.442602 0.840320
0.082102 0.469678 0.840464
0.075893 0.472967 0.865141
0.061106 0.444763 0.864992
0.139373 0.403591 0.890016
0.154160 0.431795 0.890165
0.147966 0.435074 0.914847
0.132682 0.405746 0.914692
0.061039 0.444667 0.865044
0.075826 0.472871 0.865193
0.069632 0.476151 0.889875
0.054348 0.446823 0.889720
0.162299 0.418564 0.840730
0.180389 0.441726 0.840857
0.174874 0.446032 0.865543
0.156100 0.421847 0.865410
0.092562 0.472998 0.815815
0.110652 0.496160 0.815942
0.105136 0.500465 0.840628
0.086363 0.476280 0.840495
0.156165 0.421952 0.865458
0.174939 0.446137 0.865590
0.169416 0.450449 0.890272
0.149956 0.425241 0.890134
0.086286 0.476183 0.840497
0.105060 0.500367 0.840630
0.099537 0.504679 0.865312
0.080076 0.479472 0.865174
0.150026 0.425330 0.890130
0.169487 0.450538 0.890268
0.163977 0.454838 0.914955
0.143832 0.428609 0.914812
0.079994 0.479390 0.865228
0.099455 0.504598 0.865366
0.093945 0.508898 0.890053
0.073801 0.482670 0.889910
0.175163 0.436104 0.840827
0.197000 0.455773 0.840940
0.192337 0.460965 0.865630
0.169648 0.440409 0.865512
0.115918 0.501826 0.815973
0.137755 0.521495 0.816086
0.133093 0.526687 0.840776
0.110403 0.506131 0.840659
0.169731 0.440502 0.865560
0.192420 0.461058 0.865677
0.187750 0.466260 0.890364
0.164208 0.444814 0.890242
0.110310 0.506048 0.840661
0.132999 0.526604 0.840779
0.128329 0.531806 0.865465
0.104788 0.510360 0.865343
0.164294 0.444889 0.890236
0.187835 0.466335 0.890358
0.183178 0.471520 0.915050
0.158784 0.449189 0.914923
0.104692 0.510294 0.865399
0.128234 0.531740 0.865521
0.123576 0.536925 0.890214
0.099182 0.514594 0.890086
0.190878 0.451144 0.840912
0.215799 0.466722 0.841007
0.212130 0.472640 0.865702
0.186216 0.456336 0.865603
0.143925 0.526160 0.816114
0.168846 0.541739 0.816208
0.165176 0.547657 0.840903
0.139262 0.531353 0.840804
0.186312 0.456413 0.865651
0.212226 0.472717 0.865751
0.208551 0.478645 0.890442
0.181642 0.461614 0.890338
0.139157 0.531287 0.840805
0.165072 0.547591 0.840904
0.161397 0.553519 0.865595
0.134487 0.536489 0.865492
0.181738 0.461672 0.890328
0.208648 0.478703 0.890432
0.204982 0.484613 0.915129
0.177081 0.466858 0.915021
0.134382 0.536442 0.865551
0.161291 0.553473 0.865654
0.157625 0.559382 0.890352
0.129724 0.541627 0.890243
0.208966 0.463226 0.840984
0.236213 0.474240 0.841058
0.233649 0.480700 0.865757
0.205296 0.469144 0.865679
0.175732 0.545262 0.816232
0.202980 0.556276 0.816306
0.200415 0.562736 0.841005
0.172063 0.551180 0.840927
0.205404 0.469202 0.865727
0.233756 0.480758 0.865805
0.231187 0.487228 0.890501
0.201729 0.475131 0.890418
0.171949 0.551134 0.840928
0.200302 0.562690 0.841006
0.197732 0.569160 0.865701
0.168274 0.557063 0.865619
0.201834 0.475171 0.890409
0.231292 0.487269 0.890491
0.228729 0.493720 0.915192
0.198168 0.481080 0.915106
0.168162 0.557035 0.865678
0.197620 0.569132 0.865760
0.195057 0.575584 0.890461
0.164496 0.562944 0.890375
0.228882 0.471984 0.841037
0.257629 0.478104 0.841088
0.256245 0.484902 0.865790
0.226318 0.478444 0.865736
0.210369 0.558550 0.816326
0.239115 0.564670 0.816377
0.237731 0.571468 0.841079
0.207804 0.565010 0.841025
0.226430 0.478482 0.865787
0.256358 0.484940 0.865841
0.254973 0.491752 0.890539
0.223861 0.484953 0.890482
0.207687 0.564984 0.841025
0.237614 0.571442 0.841079
0.236230 0.578254 0.865777
0.205118 0.571455 0.865720
0.223971 0.484974 0.890473
0.255083 0.491774 0.890530
0.253700 0.498566 0.915234
0.221408 0.491425 0.915174
0.205004 0.571446 0.865778
0.236116 0.578246 0.865835
0.234733 0.585039 0.890538
0.202441 0.577898 0.890478
0.250012 0.477154 0.841074
0.279384 0.478187 0.841100
0.279223 0.485117 0.865804
0.248628 0.483952 0.865776
0.246791 0.565627 0.816392
0.276163 0.566660 0.816417
0.276002 0.573590 0.841121
0.245407 0.572425 0.841094
0.248748 0.483970 0.865826
0.279343 0.485136 0.865854
0.279183 0.492076 0.890554
0.247363 0.490782 0.890524
0.245286 0.572420 0.841093
0.275881 0.573585 0.841121
0.275720 0.580526 0.865821
0.243901 0.579232 0.865791
0.247475 0.490786 0.890520
0.279294 0.492080 0.890549
0.279133 0.499005 0.915254
0.246092 0.497578 0.915223
0.243788 0.579243 0.865845
0.275607 0.580537 0.865875
0.275446 0.587462 0.890580
0.242405 0.586035 0.890549
0.271712 0.478577 0.841097
0.300816 0.474489 0.841098
0.301883 0.481337 0.865802
0.271551 0.485506 0.865801
0.283894 0.566268 0.816421
0.312999 0.562181 0.816421
0.314065 0.569028 0.841125
0.283734 0.573198 0.841124
0.271679 0.485503 0.865851
0.302010 0.481334 0.865852
0.303080 0.488196 0.890552
0.271518 0.492444 0.890551
0.283607 0.573215 0.841124
0.313939 0.569046 0.841124
0.315008 0.575908 0.865824
0.283447 0.580156 0.865824
0.271633 0.492427 0.890546
0.303195 0.488179 0.890546
0.304260 0.495021 0.915252
0.271472 0.499352 0.915250
0.283333 0.580186 0.865879
0.314895 0.575939 0.865880
0.315960 0.582781 0.890585
0.283172 0.587112 0.890584
0.293334 0.476206 0.841106
0.321286 0.467124 0.841081
0.323548 0.473682 0.865784
0.294401 0.483054 0.865810
0.320539 0.560451 0.816413
0.348491 0.551369 0.816388
0.350752 0.557927 0.841091
0.321606 0.567299 0.841117
0.294528 0.483028 0.865861
0.323674 0.473656 0.865835
0.325942 0.480226 0.890533
0.295597 0.489890 0.890561
0.321482 0.567338 0.841116
0.350629 0.557967 0.841089
0.352897 0.564536 0.865788
0.322552 0.574200 0.865816
0.295706 0.489852 0.890549
0.326051 0.480188 0.890521
0.328309 0.486736 0.915226
0.296771 0.496694 0.915254
0.322446 0.574252 0.865877
0.352791 0.564587 0.865849
0.355049 0.571136 0.890554
0.323512 0.581094 0.890582
0.114349 0.415136 0.941629
0.129634 0.444464 0.941784
0.114254 0.455636 0.953144
0.097252 0.423469 0.952972
0.072657 0.437445 0.862818
0.087942 0.466773 0.862973
0.072561 0.477945 0.874333
0.055560 0.445778 0.874161
0.330894 0.509032 0.702832
0.339288 0.526172 0.691599
0.371457 0.509173 0.691540
0.360223 0.493749 0.702779
0.352767 0.550426 0.781921
0.361161 0.567566 0.770688
0.393330 0.550567 0.770629
0.382096 0.535143 0.781868
0.356788 0.495954 0.702787
0.368022 0.511378 0.691548
0.396748 0.489049 0.691458
0.383016 0.475809 0.702706
0.385589 0.532900 0.781860
0.396823 0.548324 0.770621
0.425550 0.525995 0.770531
0.411817 0.512755 0.781779
0.380023 0.478576 0.702715
0.393755 0.491816 0.691467
0.418169 0.464840 0.691354
0.402353 0.454181 0.702610
0.414861 0.509941 0.781770
0.428593 0.523181 0.770522
0.453007 0.496205 0.770409
0.437191 0.485546 0.781665
0.399885 0.457429 0.702621
0.415701 0.468088 0.691366
0.435057 0.437280 0.691228
0.417640 0.429528 0.702495
0.439702 0.482243 0.781653
0.455517 0.492901 0.770398
0.474874 0.462094 0.770259
0.457457 0.454341 0.781527
0.415775 0.433150 0.702509
0.433192 0.440903 0.691242
0.446907 0.407204 0.691087
0.428416 0.402589 0.702366
0.459354 0.450657 0.781513
0.476770 0.458410 0.770245
0.490485 0.424710 0.770090
0.471995 0.420095 0.781369
0.427215 0.406476 0.702379
0.445705 0.411090 0.691100
0.453364 0.375522 0.690936
0.434359 0.374185 0.702225
0.473217 0.416143 0.781356
0.491707 0.420757 0.770077
0.499367 0.385189 0.769913
0.480362 0.383852 0.781203
0.433848 0.378229 0.702241
0.452852 0.379566 0.690952
0.454216 0.343207 0.690775
0.435277 0.345188 0.702080
0.480883 0.379738 0.781187
0.499887 0.381075 0.769898
0.501251 0.344716 0.769721
0.482312 0.346697 0.781026
0.435469 0.349257 0.702100
0.454408 0.347277 0.690795
0.449437 0.311233 0.690614
0.431139 0.316470 0.701935
0.482117 0.342558 0.781005
0.501056 0.340577 0.769701
0.496085 0.304533 0.769520
0.477787 0.309771 0.780841
0.432036 0.320438 0.701954
0.450334 0.315201 0.690632
0.439181 0.280567 0.690458
0.422078 0.288901 0.701792
0.476875 0.305735 0.780823
0.495172 0.300497 0.769501
0.484020 0.265863 0.769327
0.466917 0.274197 0.780661
0.314245 0.470298 0.803565
0.316543 0.477100 0.778932
0.343620 0.462809 0.778881
0.340197 0.456504 0.803515
0.355604 0.548296 0.829118
0.357902 0.555098 0.804485
0.384978 0.540807 0.804434
0.381556 0.534501 0.829069
0.316660 0.477054 0.778883
0.318962 0.483867 0.754254
0.347167 0.469080 0.754202
0.343737 0.462764 0.778832
0.357790 0.555157 0.804485
0.360092 0.561969 0.779856
0.388297 0.547182 0.779803
0.384867 0.540866 0.804434
0.319063 0.483810 0.754266
0.321357 0.490603 0.729630
0.350686 0.475320 0.729577
0.347268 0.469023 0.754214
0.359997 0.562039 0.779794
0.362291 0.568832 0.755159
0.391620 0.553549 0.755106
0.388202 0.547252 0.779742
0.333754 0.460673 0.803532
0.337177 0.466978 0.778898
0.361360 0.448202 0.778822
0.356917 0.442583 0.803460
0.388049 0.530300 0.829051
0.391471 0.536606 0.804417
0.415655 0.517829 0.804341
0.411211 0.512210 0.828979
0.337282 0.466916 0.778846
0.340712 0.473232 0.754216
0.365919 0.453769 0.754138
0.361465 0.448139 0.778770
0.391374 0.536680 0.804420
0.394805 0.542996 0.779789
0.420011 0.523534 0.779711
0.415558 0.517904 0.804344
0.340801 0.473159 0.754227
0.344219 0.479456 0.729591
0.370447 0.459311 0.729510
0.366007 0.453696 0.754149
0.394724 0.543081 0.779728
0.398142 0.549378 0.755092
0.424370 0.529232 0.755011
0.419931 0.523618 0.779650
0.351295 0.447808 0.803484
0.355739 0.453427 0.778846
0.376295 0.430737 0.778748
0.370964 0.425971 0.803390
0.416877 0.506945 0.828955
0.421321 0.512564 0.804317
0.441877 0.489875 0.804220
0.436546 0.485108 0.828861
0.355831 0.453347 0.778794
0.360284 0.458977 0.754161
0.381728 0.435432 0.754059
0.376387 0.430658 0.778696
0.421238 0.512654 0.804320
0.425692 0.518284 0.779687
0.447135 0.494740 0.779585
0.441794 0.489965 0.804222
0.360359 0.458891 0.754169
0.364798 0.464505 0.729530
0.387128 0.440111 0.729425
0.381802 0.435347 0.754067
0.425627 0.518380 0.779630
0.430066 0.523994 0.754991
0.452397 0.499599 0.754886
0.447071 0.494835 0.779528
0.366336 0.432091 0.803416
0.371666 0.436858 0.778775
0.387972 0.410945 0.778659
0.381915 0.407171 0.803304
0.441211 0.478940 0.828834
0.446541 0.483706 0.804193
0.462846 0.457793 0.804077
0.456789 0.454019 0.828722
0.371743 0.436762 0.778726
0.377084 0.441537 0.754089
0.394115 0.414627 0.753968
0.388048 0.410849 0.778610
0.446476 0.483811 0.804192
0.451817 0.488586 0.779555
0.468847 0.461677 0.779433
0.462781 0.457898 0.804076
0.377143 0.441442 0.754094
0.382469 0.446205 0.729452
0.400224 0.418304 0.729326
0.394173 0.414532 0.753973
0.451770 0.488689 0.779501
0.457096 0.493453 0.754859
0.474851 0.465551 0.754732
0.468800 0.461780 0.779379
0.378419 0.414002 0.803335
0.384476 0.417776 0.778689
0.396034 0.389425 0.778558
0.389435 0.386755 0.803208
0.460312 0.447135 0.828691
0.466369 0.450909 0.804045
0.477927 0.422558 0.803913
0.471328 0.419888 0.828564
0.384534 0.417669 0.778644
0.390600 0.421448 0.754002
0.402700 0.391990 0.753865
0.396092 0.389318 0.778512
0.466324 0.451022 0.804041
0.472390 0.454801 0.779399
0.484490 0.425344 0.779261
0.477882 0.422671 0.803909
0.390642 0.421344 0.754005
0.396692 0.425115 0.729358
0.409334 0.394554 0.729215
0.402741 0.391887 0.753868
0.472362 0.454911 0.779346
0.478412 0.458683 0.754699
0.491053 0.428121 0.754556
0.484461 0.425454 0.779209
0.387178 0.394091 0.803247
0.393777 0.396761 0.778596
0.400234 0.366833 0.778452
0.393297 0.365345 0.803110
0.473603 0.412495 0.828525
0.480202 0.415165 0.803875
0.486660 0.385238 0.803731
0.479722 0.383750 0.828388
0.393815 0.396647 0.778550
0.400423 0.399320 0.753902
0.407222 0.368208 0.753753
0.400272 0.366720 0.778406
0.480178 0.415283 0.803872
0.486786 0.417955 0.779224
0.493585 0.386844 0.779074
0.486636 0.385355 0.803728
0.400448 0.399207 0.753900
0.407040 0.401874 0.729247
0.414185 0.369583 0.729094
0.407247 0.368096 0.753750
0.486774 0.418072 0.779176
0.493366 0.420739 0.754524
0.500511 0.388448 0.754370
0.493573 0.386961 0.779027
0.392347 0.372964 0.803150
0.399285 0.374452 0.778493
0.400447 0.343857 0.778343
0.393378 0.343593 0.803006
0.480679 0.376072 0.828347
0.487617 0.377560 0.803690
0.488779 0.346965 0.803540
0.481710 0.346701 0.828203
0.399304 0.374329 0.778442
0.406253 0.375818 0.753789
0.407549 0.343999 0.753633
0.400466 0.343734 0.778292
0.487612 0.377684 0.803691
0.494561 0.379173 0.779038
0.495858 0.347354 0.778882
0.488775 0.347090 0.803541
0.406260 0.375702 0.753783
0.413197 0.377189 0.729126
0.414627 0.344148 0.728965
0.407556 0.343883 0.753627
0.494569 0.379290 0.778995
0.501507 0.380778 0.754338
0.502937 0.347736 0.754177
0.495865 0.347472 0.778839
0.393768 0.351261 0.803041
0.400837 0.351525 0.778378
0.396670 0.321194 0.778226
0.389680 0.322157 0.802895
0.481317 0.338974 0.828167
0.488386 0.339238 0.803504
0.484219 0.308907 0.803352
0.477229 0.309869 0.828020
0.400835 0.351397 0.778327
0.407918 0.351662 0.753668
0.403670 0.320101 0.753510
0.396667 0.321066 0.778175
0.488403 0.339365 0.803506
0.495487 0.339629 0.778847
0.491239 0.308068 0.778689
0.484236 0.309034 0.803354
0.407903 0.351547 0.753664
0.414975 0.351812 0.729001
0.410645 0.319024 0.728837
0.403656 0.319986 0.753506
0.495515 0.339743 0.778802
0.502586 0.340008 0.754140
0.498256 0.307220 0.753975
0.491267 0.308182 0.778644
0.391395 0.329638 0.802929
0.398386 0.328675 0.778261
0.389013 0.299529 0.778110
0.382316 0.301686 0.802785
0.475500 0.302330 0.827986
0.482490 0.301368 0.803317
0.473118 0.272221 0.803166
0.466421 0.274378 0.827841
0.398361 0.328553 0.778210
0.405364 0.327587 0.753545
0.395698 0.297245 0.753389
0.388989 0.299406 0.778059
0.482528 0.301487 0.803318
0.489531 0.300521 0.778654
0.479865 0.270179 0.778497
0.473156 0.272341 0.803168
0.405329 0.327476 0.753542
0.412318 0.326514 0.728873
0.402361 0.294976 0.728712
0.395663 0.297134 0.753385
0.489579 0.300629 0.778608
0.496568 0.299667 0.753939
0.486611 0.268130 0.753778
0.479913 0.270287 0.778451
0.313347 0.468654 0.828499
0.313355 0.468716 0.816144
0.339307 0.454921 0.816094
0.339299 0.454861 0.828450
0.356482 0.549809 0.828933
0.356491 0.549872 0.816577
0.382443 0.536077 0.816527
0.382434 0.536016 0.828883
0.332606 0.459206 0.828469
0.332614 0.459266 0.816113
0.355776 0.441177 0.816040
0.355768 0.441116 0.828396
0.389177 0.531639 0.828864
0.389185 0.531700 0.816508
0.412347 0.513611 0.816435
0.412339 0.513550 0.828791
0.349930 0.446558 0.828419
0.349938 0.446619 0.816063
0.369608 0.424782 0.815969
0.369599 0.424721 0.828325
0.418220 0.508068 0.828768
0.418228 0.508129 0.816412
0.437898 0.486292 0.816319
0.437889 0.486231 0.828674
0.364795 0.431094 0.828353
0.364803 0.431155 0.815997
0.380382 0.406234 0.815885
0.380374 0.406174 0.828241
0.442729 0.479811 0.828646
0.442737 0.479872 0.816291
0.458316 0.454951 0.816178
0.458307 0.454890 0.828534
0.376750 0.413283 0.828270
0.376758 0.413343 0.815914
0.387774 0.386097 0.815787
0.387764 0.386035 0.828143
0.461958 0.447729 0.828505
0.461966 0.447790 0.816149
0.472983 0.420543 0.816023
0.472972 0.420482 0.828379
0.385430 0.393662 0.828179
0.385440 0.393723 0.815823
0.391560 0.364978 0.815686
0.391551 0.364917 0.828041
0.475323 0.412799 0.828342
0.475334 0.412861 0.815986
0.481453 0.384116 0.815849
0.481444 0.384055 0.828205
0.390575 0.372845 0.828082
0.390584 0.372906 0.815726
0.391615 0.343535 0.815582
0.391606 0.343474 0.827937
0.482427 0.376068 0.828164
0.482435 0.376129 0.815808
0.483466 0.346758 0.815664
0.483457 0.346697 0.828019
0.392023 0.351449 0.827976
0.392032 0.351510 0.815620
0.387944 0.322406 0.815473
0.387934 0.322346 0.827829
0.483037 0.338663 0.827981
0.483046 0.338724 0.815625
0.478958 0.309620 0.815479
0.478948 0.309560 0.827834
0.389728 0.330119 0.827870
0.389738 0.330180 0.815514
0.380659 0.302228 0.815370
0.380650 0.302166 0.827725
0.477141 0.301729 0.827793
0.477151 0.301789 0.815437
0.468072 0.273838 0.815293
0.468063 0.273776 0.827648
0.356613 0.494768 0.942182
0.382841 0.474623 0.942101
0.396556 0.487751 0.953501
0.367831 0.510080 0.953590
0.385532 0.532497 0.863523
0.411760 0.512352 0.863442
0.425475 0.525480 0.874842
0.396750 0.547809 0.874930
0.379851 0.477389 0.942116
0.402182 0.452995 0.942012
0.417981 0.463542 0.953394
0.393566 0.490517 0.953516
0.414801 0.509539 0.863427
0.437132 0.485145 0.863323
0.452931 0.495691 0.874705
0.428516 0.522667 0.874827
0.399715 0.456246 0.942031
0.417470 0.428344 0.941907
0.434871 0.435986 0.953274
0.415514 0.466793 0.953413
0.439641 0.481838 0.863304
0.457396 0.453937 0.863179
0.474797 0.461578 0.874547
0.455440 0.492385 0.874686
0.415606 0.431966 0.941926
0.428248 0.401406 0.941785
0.446723 0.405909 0.953134
0.433008 0.439608 0.953294
0.459291 0.450253 0.863159
0.471933 0.419693 0.863018
0.490408 0.424195 0.874367
0.476693 0.457895 0.874527
0.427044 0.405296 0.941808
0.434188 0.373005 0.941654
0.453176 0.374230 0.952983
0.445519 0.409799 0.953157
0.473158 0.415736 0.862995
0.480302 0.383445 0.862840
0.499290 0.384670 0.874169
0.491633 0.420239 0.874344
0.433675 0.377048 0.941676
0.435103 0.344007 0.941514
0.454026 0.341913 0.952826
0.452663 0.378273 0.953006
0.480824 0.379334 0.862817
0.482252 0.346292 0.862654
0.501175 0.344199 0.873966
0.499812 0.380559 0.874146
0.435298 0.348072 0.941536
0.430968 0.315284 0.941370
0.449251 0.309935 0.952663
0.454221 0.345979 0.952848
0.482054 0.342158 0.862632
0.477724 0.309370 0.862465
0.496007 0.304021 0.873758
0.500977 0.340065 0.873943
0.431868 0.319256 0.941393
0.421909 0.287719 0.941229
0.438996 0.279273 0.952504
0.450151 0.313907 0.952686
0.476809 0.305330 0.862441
0.466851 0.273793 0.862278
0.483938 0.265347 0.873552
0.495092 0.299981 0.873734
0.314221 0.470110 0.841096
0.340173 0.456318 0.841046
0.343561 0.462380 0.865746
0.316483 0.476669 0.865798
0.355611 0.548359 0.816373
0.381563 0.534566 0.816324
0.384950 0.540628 0.841024
0.357872 0.554917 0.841076
0.316598 0.476623 0.865846
0.343676 0.462334 0.865794
0.347070 0.468405 0.890491
0.318866 0.483193 0.890545
0.357763 0.554976 0.841078
0.384840 0.540686 0.841026
0.388234 0.546757 0.865723
0.360030 0.561545 0.865776
0.318965 0.483137 0.890532
0.347169 0.468349 0.890478
0.350552 0.474402 0.915181
0.321223 0.489685 0.915236
0.359936 0.561614 0.865839
0.388141 0.546826 0.865785
0.391523 0.552879 0.890488
0.362195 0.568162 0.890543
0.333728 0.460488 0.841062
0.356891 0.442398 0.840989
0.361300 0.447774 0.865687
0.337116 0.466550 0.865762
0.388058 0.530363 0.816308
0.411220 0.512273 0.816235
0.415629 0.517649 0.840933
0.391446 0.536425 0.841008
0.337221 0.466485 0.865811
0.361405 0.447709 0.865736
0.365823 0.453095 0.890429
0.340615 0.472556 0.890508
0.391348 0.536501 0.841009
0.415532 0.517726 0.840934
0.419950 0.523111 0.865628
0.394742 0.542572 0.865706
0.340703 0.472483 0.890494
0.365911 0.453022 0.890415
0.370313 0.458391 0.915116
0.344085 0.478536 0.915197
0.394662 0.542656 0.865769
0.419870 0.523195 0.865691
0.424271 0.528564 0.890391
0.398044 0.548709 0.890472
0.351269 0.447623 0.841010
0.370938 0.425786 0.840916
0.376234 0.430309 0.865610
0.355678 0.452999 0.865707
0.416886 0.507008 0.816214
0.436555 0.485171 0.816121
0.441851 0.489695 0.840815
0.421295 0.512384 0.840912
0.355768 0.452919 0.865755
0.376325 0.430229 0.865658
0.381629 0.434759 0.890350
0.360186 0.458304 0.890449
0.421214 0.512474 0.840914
0.441770 0.489784 0.840817
0.447075 0.494314 0.865508
0.425632 0.517860 0.865607
0.360261 0.458218 0.890439
0.381703 0.434673 0.890339
0.386994 0.439193 0.915035
0.364663 0.463587 0.915139
0.425568 0.517955 0.865667
0.447010 0.494410 0.865568
0.452300 0.498930 0.890264
0.429969 0.523324 0.890368
0.366308 0.431908 0.840941
0.381887 0.406987 0.840829
0.387908 0.410516 0.865519
0.371604 0.436431 0.865635
0.441221 0.479002 0.816095
0.456800 0.454081 0.815983
0.462821 0.457610 0.840674
0.446517 0.483525 0.840790
0.371681 0.436335 0.865682
0.387984 0.410420 0.865566
0.394015 0.413955 0.890253
0.376985 0.440865 0.890374
0.446452 0.483629 0.840792
0.462755 0.457715 0.840676
0.468787 0.461250 0.865363
0.451756 0.488159 0.865483
0.377044 0.440768 0.890368
0.394075 0.413859 0.890248
0.400090 0.417386 0.914940
0.382335 0.445287 0.915064
0.451708 0.488264 0.865538
0.468739 0.461355 0.865418
0.474754 0.464882 0.890110
0.456999 0.492784 0.890234
0.378392 0.413818 0.840860
0.389406 0.386571 0.840733
0.395970 0.388997 0.865419
0.384412 0.417348 0.865550
0.460322 0.447196 0.815952
0.471337 0.419949 0.815826
0.477900 0.422375 0.840511
0.466343 0.450726 0.840643
0.384471 0.417239 0.865596
0.396028 0.388888 0.865465
0.402602 0.391317 0.890147
0.390502 0.420774 0.890283
0.466297 0.450840 0.840646
0.477855 0.422490 0.840515
0.484428 0.424918 0.865197
0.472328 0.454376 0.865333
0.390544 0.420670 0.890279
0.402643 0.391212 0.890143
0.409201 0.393637 0.914830
0.396559 0.424197 0.914971
0.472299 0.454486 0.865387
0.484399 0.425029 0.865251
0.490956 0.427453 0.889938
0.478314 0.458014 0.890079
0.387150 0.393903 0.840764
0.393270 0.365159 0.840626
0.400172 0.366402 0.865307
0.393713 0.396329 0.865450
0.473611 0.412560 0.815794
0.479731 0.383815 0.815656
0.486633 0.385058 0.840337
0.480175 0.414986 0.840480
0.393752 0.396217 0.865497
0.400210 0.366289 0.865354
0.407124 0.367534 0.890031
0.400325 0.398645 0.890179
0.480150 0.415102 0.840482
0.486608 0.385175 0.840339
0.493523 0.386420 0.865017
0.486723 0.417531 0.865165
0.400349 0.398534 0.890179
0.407149 0.367423 0.890031
0.414051 0.368666 0.914711
0.406907 0.400958 0.914866
0.486712 0.417646 0.865214
0.493512 0.386535 0.865066
0.500413 0.387779 0.889746
0.493269 0.420070 0.889901
0.392320 0.372779 0.840660
0.393351 0.343408 0.840515
0.400385 0.343429 0.865190
0.399222 0.374023 0.865340
0.480689 0.376135 0.815623
0.481719 0.346763 0.815479
0.488753 0.346784 0.840153
0.487590 0.377378 0.840303
0.399240 0.373900 0.865389
0.400404 0.343306 0.865239
0.407450 0.343326 0.889910
