0.340654 0.229722 0.737620
0.404570 0.293940 0.740362
0.354418 0.318268 0.740189
0.314753 0.278278 0.738484
0.340183 0.228955 0.766556
0.404099 0.293174 0.769297
0.353947 0.317502 0.769125
0.314282 0.277511 0.767420
0.418508 0.383470 0.742960
0.362983 0.373946 0.741804
0.418037 0.382704 0.771896
0.362512 0.373179 0.770740
0.377144 0.464115 0.744423
0.337176 0.424035 0.742711
0.376673 0.463349 0.773359
0.336705 0.423268 0.771647
0.296279 0.505072 0.744191
0.286855 0.449408 0.742563
0.295808 0.504305 0.773128
0.286384 0.448641 0.771500
0.206799 0.490695 0.742354
0.231246 0.440369 0.741419
0.206328 0.489929 0.771290
0.230775 0.439602 0.770355
0.142883 0.426477 0.739612
0.191581 0.400375 0.739713
0.142412 0.425710 0.768548
0.191109 0.399608 0.768649
0.128945 0.336946 0.737013
0.183017 0.344697 0.738099
0.128474 0.336180 0.765949
0.182546 0.343930 0.767035
0.170309 0.256301 0.735550
0.208822 0.294608 0.737192
0.169838 0.255535 0.764486
0.208351 0.293841 0.766128
0.251174 0.215345 0.735782
0.259141 0.269239 0.737339
0.250703 0.214579 0.764718
0.258670 0.268472 0.766275
0.285997 0.329472 0.739372
0.254457 0.330532 0.738887
0.258676 0.304444 0.738265
0.285464 0.303038 0.738664
0.285526 0.328706 0.768308
0.253985 0.329766 0.767823
0.258204 0.303677 0.767201
0.284993 0.302272 0.767600
0.222279 0.329591 0.738338
0.227747 0.312972 0.737987
0.221808 0.328824 0.767274
0.227276 0.312205 0.766923
0.239599 0.358374 0.739383
0.239128 0.357608 0.768319
0.224026 0.390239 0.739973
0.223555 0.389473 0.768909
0.256275 0.385153 0.740363
0.235566 0.404776 0.740546
0.255804 0.384386 0.769299
0.235094 0.404010 0.769482
0.302680 0.356248 0.740353
0.302209 0.355482 0.769289
0.287816 0.384087 0.740849
0.287345 0.383320 0.769785
0.271140 0.357311 0.739868
0.272046 0.384620 0.740606
0.270668 0.356545 0.768804
0.271574 0.383853 0.769542
0.270227 0.330002 0.739130
0.269756 0.329236 0.768066
0.285835 0.447748 0.805233
0.255255 0.383493 0.803033
0.286795 0.382427 0.803518
0.336156 0.422375 0.805380
0.230225 0.438709 0.804088
0.234545 0.403116 0.803216
0.190560 0.398715 0.802383
0.223006 0.388579 0.802643
0.238579 0.356714 0.802052
0.181997 0.343037 0.800769
0.221259 0.327931 0.801008
0.253436 0.328872 0.801557
0.226727 0.311312 0.800657
0.257655 0.302784 0.800934
0.207802 0.292948 0.799862
0.258120 0.267579 0.800009
0.313733 0.276618 0.801154
0.284443 0.301378 0.801333
0.353398 0.316608 0.802859
0.284977 0.327812 0.802042
0.361963 0.372286 0.804473
0.301660 0.354588 0.803023
0.271025 0.382959 0.803276
0.270119 0.355651 0.802538
0.269206 0.328342 0.801799
0.285738 0.380705 0.868487
0.269967 0.381238 0.868245
0.269061 0.353930 0.867506
0.300602 0.352867 0.867992
0.268149 0.326621 0.866768
0.283919 0.326091 0.867011
0.237521 0.354993 0.867021
0.252378 0.327151 0.866525
0.254196 0.381772 0.868002
