2.240806 0.860680 -0.952424
2.261879 0.853346 -0.941976
2.280026 0.853060 -0.941605
2.261041 0.860340 -0.951980
2.240763 0.831204 -0.973029
2.261837 0.823869 -0.962580
2.279983 0.823584 -0.962209
2.260998 0.830863 -0.972584
2.261007 0.860253 -0.951857
2.279992 0.852974 -0.941482
2.298139 0.852689 -0.941113
2.281237 0.859900 -0.951214
2.261070 0.830949 -0.972706
2.280055 0.823670 -0.962331
2.298202 0.823385 -0.961961
2.281300 0.830596 -0.972062
2.281352 0.859970 -0.951313
2.298253 0.852759 -0.941212
2.316400 0.852475 -0.940841
2.301589 0.859641 -0.951046
2.281224 0.830525 -0.971962
2.298125 0.823314 -0.961861
2.316272 0.823029 -0.961489
2.301462 0.830195 -0.971695
2.301562 0.859645 -0.951052
2.316373 0.852479 -0.940847
2.334519 0.852195 -0.940475
2.321797 0.859304 -0.950597
2.301527 0.830191 -0.971688
2.316338 0.823024 -0.961483
2.334484 0.822741 -0.961111
2.321762 0.829850 -0.971234
2.321816 0.859301 -0.950593
2.334538 0.852192 -0.940471
2.352685 0.851909 -0.940099
2.342050 0.858959 -0.950137
2.321781 0.829852 -0.971237
2.334504 0.822743 -0.961115
2.352651 0.822460 -0.960743
2.342016 0.829510 -0.970781
2.342069 0.858957 -0.950133
2.352704 0.851906 -0.940095
2.370851 0.851623 -0.939724
2.362303 0.858615 -0.949677
2.342035 0.829513 -0.970784
2.352670 0.822462 -0.960746
2.370817 0.822179 -0.960375
2.362269 0.829171 -0.970328
2.362322 0.858613 -0.949674
2.370870 0.851620 -0.939721
2.389017 0.851337 -0.939349
2.382556 0.858272 -0.949220
2.362287 0.829173 -0.970330
2.370835 0.822180 -0.960377
2.388982 0.821897 -0.960006
2.382521 0.828831 -0.969876
2.382545 0.858234 -0.949167
2.389005 0.851300 -0.939296
2.407152 0.851016 -0.938925
2.402776 0.857885 -0.948594
2.382571 0.828868 -0.969928
2.389032 0.821933 -0.960057
2.407179 0.821650 -0.959686
2.402803 0.828519 -0.969355
2.402853 0.857895 -0.948607
2.407229 0.851025 -0.938939
2.425376 0.850742 -0.938567
2.423090 0.857560 -0.948268
2.402764 0.828509 -0.969341
2.407140 0.821640 -0.959672
2.425287 0.821356 -0.959301
2.423001 0.828174 -0.969001
2.423057 0.857556 -0.948263
2.425344 0.850739 -0.938562
2.443491 0.850455 -0.938192
2.443290 0.857208 -0.947714
2.423071 0.828177 -0.969005
2.425357 0.821359 -0.959305
2.443504 0.821076 -0.958934
2.443303 0.827829 -0.968456
2.443333 0.857188 -0.947686
2.443534 0.850435 -0.938163
2.461681 0.850153 -0.937792
2.463568 0.856848 -0.947243
2.443298 0.827848 -0.968484
2.443499 0.821095 -0.958962
2.461646 0.820812 -0.958590
2.463532 0.827508 -0.968042
2.463605 0.856864 -0.947267
2.461718 0.850169 -0.937815
2.479865 0.849886 -0.937444
2.483840 0.856527 -0.946890
2.463534 0.827490 -0.968017
2.461647 0.820795 -0.958565
2.479794 0.820512 -0.958195
2.483769 0.827153 -0.967641
2.483841 0.856546 -0.946918
2.479865 0.849905 -0.937472
2.498012 0.849623 -0.937101
2.504074 0.856203 -0.946462
2.483807 0.827133 -0.967613
2.479832 0.820492 -0.958167
2.497979 0.820209 -0.957795
2.504041 0.826790 -0.967156
2.504094 0.856201 -0.946458
2.498032 0.849620 -0.937097
2.516178 0.849337 -0.936727
2.524328 0.855859 -0.946004
2.504060 0.826792 -0.967159
2.497998 0.820211 -0.957798
2.516144 0.819928 -0.957428
2.524294 0.826450 -0.966705
2.525167 0.856230 -0.946588
2.517017 0.849707 -0.937311
2.535163 0.849425 -0.936940
2.545390 0.854332 -0.946880
2.523494 0.826078 -0.966120
2.515344 0.819556 -0.956843
2.533491 0.819274 -0.956471
2.543718 0.824181 -0.966412
2.544700 0.855356 -0.948638
2.534473 0.850449 -0.938698
2.552620 0.850165 -0.938328
2.564934 0.854944 -0.948218
2.544446 0.823156 -0.964653
2.534219 0.818249 -0.954713
2.552366 0.817965 -0.954343
2.564680 0.822744 -0.964233
2.564956 0.854999 -0.948330
2.552642 0.850220 -0.938440
2.570789 0.849937 -0.938069
2.585189 0.854587 -0.947910
2.564696 0.822688 -0.964120
2.552383 0.817910 -0.954230
2.570529 0.817627 -0.953860
2.584930 0.822276 -0.963701
2.585211 0.854643 -0.948025
2.570811 0.849993 -0.938184
2.588957 0.849711 -0.937813
2.605445 0.854231 -0.947603
2.584946 0.822220 -0.963585
2.570546 0.817570 -0.953744
2.588692 0.817289 -0.953374
2.605180 0.821808 -0.963164
2.605467 0.854286 -0.947720
2.588979 0.849767 -0.937930
2.607125 0.849485 -0.937557
2.625701 0.853875 -0.947300
2.605197 0.821752 -0.963045
2.588709 0.817232 -0.953255
2.606855 0.816951 -0.952882
2.625430 0.821341 -0.962625
2.625722 0.853931 -0.947420
2.607147 0.849541 -0.937678
2.625293 0.849262 -0.937305
2.645956 0.853520 -0.946995
2.625448 0.821284 -0.962504
2.606872 0.816894 -0.952761
2.625018 0.816614 -0.952389
2.645681 0.820873 -0.962079
2.241260 0.860677 -0.943785
2.240374 0.844854 -0.944787
2.260608 0.844513 -0.944343
2.261411 0.860378 -0.943366
2.242063 0.862877 -0.979672
2.241176 0.847053 -0.980675
2.261411 0.846713 -0.980230
2.262214 0.862577 -0.979253
2.261347 0.860526 -0.943359
2.260544 0.844662 -0.944336
2.280775 0.844309 -0.943692
2.281499 0.860228 -0.942944
2.262318 0.862428 -0.979259
2.261515 0.846563 -0.980236
2.281746 0.846210 -0.979593
2.282470 0.862130 -0.978845
2.281687 0.860266 -0.942938
2.280963 0.844346 -0.943686
2.301201 0.844017 -0.943419
2.301839 0.859967 -0.942523
2.282322 0.862091 -0.978850
2.281598 0.846172 -0.979598
2.301835 0.845842 -0.979331
2.302474 0.861793 -0.978435
2.301775 0.859910 -0.942527
2.301137 0.843959 -0.943423
2.321371 0.843618 -0.942969
2.321927 0.859612 -0.942113
2.302579 0.861850 -0.978430
2.301940 0.845899 -0.979326
2.322174 0.845558 -0.978871
2.322731 0.861551 -0.978015
2.321947 0.859657 -0.942110
2.321391 0.843664 -0.942966
2.341625 0.843323 -0.942510
2.342099 0.859359 -0.941695
2.322751 0.861505 -0.978017
2.322195 0.845512 -0.978873
2.342429 0.845170 -0.978418
2.342902 0.861207 -0.977602
2.342120 0.859406 -0.941692
2.341647 0.843369 -0.942507
2.361880 0.843028 -0.942051
2.362272 0.859108 -0.941279
2.342922 0.861159 -0.977604
2.342448 0.845123 -0.978420
2.362682 0.844781 -0.977963
2.363074 0.860862 -0.977191
2.362294 0.859154 -0.941276
2.361902 0.843074 -0.942048
2.382136 0.842733 -0.941594
2.382446 0.858856 -0.940862
2.363092 0.860815 -0.977193
2.362700 0.844734 -0.977965
2.382934 0.844393 -0.977511
2.383244 0.860517 -0.976779
2.382415 0.858968 -0.940858
2.382105 0.842844 -0.941590
2.402336 0.842495 -0.941017
2.402567 0.858670 -0.940444
2.383316 0.860405 -0.976782
2.383006 0.844281 -0.977514
2.403237 0.843932 -0.976941
2.403468 0.860107 -0.976368
2.402691 0.858715 -0.940439
2.402461 0.842540 -0.941013
2.422698 0.842205 -0.940673
2.422843 0.858417 -0.940025
2.403383 0.860061 -0.976371
2.403153 0.843887 -0.976945
2.423389 0.843552 -0.976605
2.423535 0.859764 -0.975958
2.422771 0.858451 -0.940026
2.422625 0.842239 -0.940673
2.442858 0.841891 -0.940124
2.442923 0.858154 -0.939612
2.423648 0.859728 -0.975956
2.423502 0.843517 -0.976604
2.443734 0.843168 -0.976055
2.443800 0.859431 -0.975543
2.442992 0.858243 -0.939608
2.442927 0.841981 -0.940120
2.463161 0.841641 -0.939678
2.463144 0.857946 -0.939194
2.443771 0.859340 -0.975547
2.443705 0.843078 -0.976059
2.463940 0.842738 -0.975616
2.463923 0.859043 -0.975133
2.463194 0.857941 -0.939193
2.463211 0.841635 -0.939677
2.483446 0.841298 -0.939300
2.483346 0.857643 -0.938781
2.463914 0.859047 -0.975133
2.463931 0.842742 -0.975616
2.484166 0.842404 -0.975240
2.484065 0.858750 -0.974720
2.483330 0.857646 -0.938781
2.483431 0.841300 -0.939300
2.503665 0.840958 -0.938844
2.503482 0.857348 -0.938368
2.484121 0.858746 -0.974719
2.484222 0.842401 -0.975239
2.504456 0.842059 -0.974783
2.504273 0.858449 -0.974306
2.503504 0.857394 -0.938366
2.503687 0.841003 -0.938843
2.523921 0.840662 -0.938388
2.523656 0.857096 -0.937953
2.504291 0.858403 -0.974307
2.504474 0.842012 -0.974784
2.524708 0.841671 -0.974330
2.524443 0.858105 -0.973895
2.523971 0.856777 -0.937961
2.524236 0.840343 -0.938396
2.544459 0.838446 -0.938687
2.544123 0.856480 -0.937548
2.524169 0.858422 -0.973887
2.524434 0.841988 -0.974322
2.544657 0.840090 -0.974613
2.544321 0.858125 -0.973473
2.543853 0.856167 -0.937568
2.544189 0.838133 -0.938708
2.564423 0.837721 -0.938288
2.564004 0.855870 -0.937156
2.544632 0.858436 -0.973452
2.544968 0.840402 -0.974592
2.565202 0.839990 -0.974172
2.564783 0.858139 -0.973040
2.564024 0.855883 -0.937155
2.564443 0.837733 -0.938287
2.584677 0.837322 -0.937867
2.584177 0.855585 -0.936742
2.564803 0.858126 -0.973041
2.565222 0.839977 -0.974172
2.585456 0.839565 -0.973753
2.584956 0.857829 -0.972628
2.584197 0.855599 -0.936741
2.584697 0.837335 -0.937866
2.604930 0.836923 -0.937444
2.604348 0.855302 -0.936330
2.584976 0.857815 -0.972628
2.585476 0.839551 -0.973753
2.605710 0.839139 -0.973331
2.605128 0.857518 -0.972217
2.604369 0.855315 -0.936328
2.604951 0.836937 -0.937443
2.625185 0.836525 -0.937022
2.624521 0.855018 -0.935915
2.605148 0.857504 -0.972217
2.605730 0.839125 -0.973332
2.625964 0.838714 -0.972911
2.625300 0.857207 -0.971804
2.624542 0.855036 -0.935914
2.625206 0.836542 -0.937021
2.645440 0.836131 -0.936596
2.644693 0.854740 -0.935507
2.625319 0.857189 -0.971805
2.625983 0.838696 -0.972912
2.646217 0.838285 -0.972487
2.645470 0.856893 -0.971398
2.625259 0.849246 -0.933045
2.607094 0.849584 -0.933405
2.624467 0.841751 -0.943060
2.644619 0.841455 -0.942653
2.626166 0.877996 -0.954633
2.608001 0.878334 -0.954992
2.625374 0.870500 -0.964648
2.645526 0.870205 -0.964241
2.607072 0.849628 -0.933346
2.588907 0.849967 -0.933705
2.604294 0.842092 -0.943415
2.624445 0.841795 -0.943002
2.607985 0.878290 -0.955051
2.589820 0.878629 -0.955410
2.605206 0.870753 -0.965120
2.625358 0.870457 -0.964707
2.588888 0.850013 -0.933646
2.570723 0.850352 -0.934006
2.584122 0.842434 -0.943768
2.604274 0.842137 -0.943356
2.589801 0.878584 -0.955470
2.571636 0.878923 -0.955830
2.585036 0.871005 -0.965591
2.605187 0.870708 -0.965179
2.570703 0.850397 -0.933949
2.552538 0.850736 -0.934308
2.563950 0.842776 -0.944123
2.584102 0.842479 -0.943710
2.571618 0.878878 -0.955888
2.553453 0.879218 -0.956247
2.564865 0.871258 -0.966062
2.585017 0.870961 -0.965649
2.552519 0.850781 -0.934250
2.534353 0.851120 -0.934611
2.543779 0.843119 -0.944477
2.563930 0.842821 -0.944065
2.553435 0.879173 -0.956305
2.535269 0.879513 -0.956666
2.544695 0.871511 -0.966532
2.564846 0.871214 -0.966120
2.534333 0.851165 -0.934554
2.516169 0.851505 -0.934914
2.523607 0.843461 -0.944834
2.543759 0.843163 -0.944420
2.535251 0.879468 -0.956723
2.517087 0.879808 -0.957083
2.524524 0.871764 -0.967003
2.544676 0.871467 -0.966590
2.516149 0.851549 -0.934858
2.497984 0.851889 -0.935218
2.503435 0.843803 -0.945190
2.523587 0.843506 -0.944777
2.517068 0.879764 -0.957140
2.498903 0.880103 -0.957500
2.504354 0.872018 -0.967473
2.524506 0.871720 -0.967060
2.497964 0.851934 -0.935162
2.479799 0.852273 -0.935523
2.483264 0.844145 -0.945548
2.503415 0.843848 -0.945134
2.498884 0.880059 -0.957557
2.480719 0.880399 -0.957917
2.484183 0.872271 -0.967942
2.504335 0.871973 -0.967529
2.479780 0.852318 -0.935468
2.461615 0.852658 -0.935828
2.463092 0.844488 -0.945906
2.483244 0.844190 -0.945493
2.480700 0.880355 -0.957973
2.462536 0.880695 -0.958333
2.464013 0.872525 -0.968411
2.484165 0.872227 -0.967998
2.461596 0.852702 -0.935774
2.443431 0.853042 -0.936135
2.442920 0.844830 -0.946265
2.463072 0.844532 -0.945851
2.462518 0.880651 -0.958388
2.444353 0.880991 -0.958749
2.443842 0.872779 -0.968879
2.463994 0.872481 -0.968466
2.443411 0.853086 -0.936081
2.425246 0.853426 -0.936442
2.422749 0.845172 -0.946624
2.442901 0.844874 -0.946211
2.444334 0.880947 -0.958804
2.426169 0.881287 -0.959165
2.423672 0.873033 -0.969347
2.443824 0.872735 -0.968934
2.425226 0.853470 -0.936389
2.407062 0.853811 -0.936750
2.402577 0.845514 -0.946985
2.422729 0.845216 -0.946571
2.426150 0.881244 -0.959219
2.407986 0.881584 -0.959580
2.403501 0.873287 -0.969815
2.423653 0.872989 -0.969401
2.407042 0.853855 -0.936697
2.388877 0.854195 -0.937058
2.382405 0.845856 -0.947346
2.402557 0.845558 -0.946932
2.407967 0.881540 -0.959633
2.389802 0.881880 -0.959994
2.383331 0.873541 -0.970282
2.403483 0.873244 -0.969868
2.388858 0.854239 -0.937006
2.370693 0.854579 -0.937368
2.362234 0.846198 -0.947708
2.382386 0.845900 -0.947294
2.389784 0.881837 -0.960047
2.371619 0.882178 -0.960409
2.363160 0.873796 -0.970749
2.383312 0.873498 -0.970335
2.370674 0.854623 -0.937316
2.352509 0.854963 -0.937678
2.342063 0.846539 -0.948070
2.362215 0.846241 -0.947657
2.371600 0.882134 -0.960461
2.353435 0.882475 -0.960822
2.342989 0.874051 -0.971215
2.363141 0.873753 -0.970801
2.352489 0.855007 -0.937627
2.334324 0.855347 -0.937988
2.321891 0.846881 -0.948434
2.342043 0.846583 -0.948019
2.353417 0.882431 -0.960874
2.335252 0.882772 -0.961236
2.322819 0.874306 -0.971682
2.342971 0.874008 -0.971267
2.334304 0.855391 -0.937938
2.316139 0.855731 -0.938300
2.301719 0.847223 -0.948798
2.321871 0.846925 -0.948384
2.335233 0.882729 -0.961287
2.317069 0.883070 -0.961649
2.302649 0.874561 -0.972147
2.322801 0.874263 -0.971733
2.316120 0.855775 -0.938251
2.297955 0.856115 -0.938613
2.281548 0.847565 -0.949164
2.301700 0.847266 -0.948749
2.317050 0.883027 -0.961700
2.298885 0.883368 -0.962062
2.282478 0.874817 -0.972613
2.302630 0.874518 -0.972198
2.297936 0.856158 -0.938564
2.279771 0.856499 -0.938926
2.261376 0.847906 -0.949529
2.281528 0.847608 -0.949115
2.298866 0.883325 -0.962112
2.280702 0.883666 -0.962474
2.262307 0.875073 -0.973077
2.282459 0.874774 -0.972663
2.279749 0.856543 -0.938876
2.261584 0.856885 -0.939239
2.241204 0.848249 -0.949898
2.261355 0.847950 -0.949479
2.280685 0.883623 -0.962525
2.262520 0.883964 -0.962888
2.242139 0.875329 -0.973547
2.262290 0.875029 -0.973128
2.262462 0.876986 -0.932666
2.261684 0.869421 -0.933108
2.279849 0.869079 -0.932746
2.280653 0.876703 -0.932298
2.263218 0.879009 -0.968565
2.262440 0.871445 -0.969007
2.280605 0.871103 -0.968645
2.281409 0.878726 -0.968197
2.280672 0.876701 -0.932298
2.279868 0.869078 -0.932745
2.298033 0.868737 -0.932383
2.298863 0.876419 -0.931931
2.281426 0.878727 -0.968197
2.280623 0.871104 -0.968644
2.298788 0.870763 -0.968282
2.299618 0.878445 -0.967830
2.298881 0.876416 -0.931931
2.298051 0.868734 -0.932382
2.316216 0.868394 -0.932020
2.317073 0.876134 -0.931564
2.299636 0.878447 -0.967830
2.298806 0.870765 -0.968281
2.316971 0.870424 -0.967919
2.317828 0.878165 -0.967462
2.317091 0.876132 -0.931564
2.316234 0.868391 -0.932020
2.334398 0.868051 -0.931658
2.335283 0.875850 -0.931197
2.317846 0.878167 -0.967462
2.316989 0.870426 -0.967919
2.335153 0.870085 -0.967556
2.336037 0.877885 -0.967095
2.335301 0.875848 -0.931197
2.334417 0.868049 -0.931657
2.352582 0.867708 -0.931296
2.353493 0.875566 -0.930830
2.336055 0.877886 -0.967095
2.335171 0.870087 -0.967556
2.353336 0.869746 -0.967194
2.354247 0.877604 -0.966728
2.353511 0.875563 -0.930830
2.352600 0.867705 -0.931296
2.370765 0.867365 -0.930934
2.371703 0.875282 -0.930463
2.354265 0.877607 -0.966728
2.353354 0.869749 -0.967194
2.371519 0.869408 -0.966832
2.372456 0.877325 -0.966361
2.371721 0.875280 -0.930463
2.370783 0.867363 -0.930934
2.388948 0.867022 -0.930572
2.389913 0.874998 -0.930097
2.372474 0.877327 -0.966361
2.371537 0.869410 -0.966832
2.389702 0.869070 -0.966470
2.390666 0.877045 -0.965995
2.389931 0.874996 -0.930097
2.388966 0.867021 -0.930572
2.407131 0.866681 -0.930211
2.408122 0.874715 -0.929731
2.390684 0.877046 -0.965994
2.389720 0.869071 -0.966470
2.407884 0.868731 -0.966108
2.408875 0.876765 -0.965628
2.408141 0.874712 -0.929731
2.407150 0.866678 -0.930211
2.425314 0.866338 -0.929850
2.426332 0.874431 -0.929365
2.408894 0.876766 -0.965628
2.407902 0.868732 -0.966108
2.426067 0.868392 -0.965747
2.427085 0.876485 -0.965262
2.426351 0.874429 -0.929364
2.425333 0.866336 -0.929849
2.443497 0.865996 -0.929488
2.444543 0.874147 -0.928999
2.427103 0.876487 -0.965262
2.426085 0.868394 -0.965747
2.444250 0.868054 -0.965385
2.445295 0.876205 -0.964896
2.444561 0.874145 -0.928999
2.443516 0.865994 -0.929488
2.461681 0.865654 -0.929127
2.462752 0.873864 -0.928633
2.445313 0.876207 -0.964896
2.444268 0.868055 -0.965385
2.462433 0.867715 -0.965024
2.463504 0.875925 -0.964530
2.462771 0.873862 -0.928633
2.461699 0.865652 -0.929127
2.479864 0.865313 -0.928766
2.480962 0.873581 -0.928268
2.463522 0.875927 -0.964530
2.462451 0.867717 -0.965024
2.480615 0.867377 -0.964663
2.481714 0.875646 -0.964165
2.480981 0.873580 -0.928267
2.479882 0.865311 -0.928766
2.498047 0.864971 -0.928406
2.499172 0.873298 -0.927902
2.481732 0.875647 -0.964164
2.480633 0.867378 -0.964663
2.498798 0.867038 -0.964303
2.499924 0.875366 -0.963799
2.499191 0.873297 -0.927902
2.498065 0.864969 -0.928406
2.516230 0.864630 -0.928045
2.517382 0.873016 -0.927538
2.499942 0.875367 -0.963799
2.498816 0.867039 -0.964302
2.516981 0.866700 -0.963942
2.518133 0.875086 -0.963434
2.517401 0.873015 -0.927537
2.516249 0.864628 -0.928045
2.534413 0.864289 -0.927685
2.535592 0.872734 -0.927173
2.518152 0.875087 -0.963434
2.516999 0.866701 -0.963941
2.535164 0.866361 -0.963581
2.536343 0.874806 -0.963069
2.535611 0.872733 -0.927172
2.534431 0.864288 -0.927685
2.552597 0.863949 -0.927325
2.553802 0.872452 -0.926808
2.536361 0.874806 -0.963069
2.535182 0.866361 -0.963581
2.553347 0.866022 -0.963221
2.554553 0.874525 -0.962705
2.553821 0.872450 -0.926808
2.552615 0.863947 -0.927324
2.570780 0.863608 -0.926965
2.572012 0.872170 -0.926443
2.554570 0.874526 -0.962704
2.553365 0.866023 -0.963220
2.571530 0.865684 -0.962861
2.572762 0.874246 -0.962340
2.572031 0.872168 -0.926443
2.570798 0.863606 -0.926965
2.588963 0.863267 -0.926605
2.590222 0.871888 -0.926080
2.572780 0.874247 -0.962339
2.571548 0.865685 -0.962861
2.589713 0.865346 -0.962501
2.590972 0.873966 -0.961976
2.590240 0.871886 -0.926079
2.588981 0.863266 -0.926605
2.607146 0.862927 -0.926246
2.608432 0.871606 -0.925715
2.590990 0.873967 -0.961975
2.589731 0.865347 -0.962500
2.607896 0.865008 -0.962142
2.609181 0.873687 -0.961611
2.608450 0.871604 -0.925715
2.607164 0.862924 -0.926245
2.625329 0.862586 -0.925886
2.626641 0.871325 -0.925351
2.609200 0.873689 -0.961610
2.607914 0.865010 -0.962141
2.626079 0.864672 -0.961782
2.627391 0.873410 -0.961246
2.647663 0.894831 -0.938232
2.627431 0.895234 -0.939332
2.608528 0.884451 -0.930097
2.626719 0.884172 -0.929733
2.648278 0.871240 -0.965371
2.628046 0.871643 -0.966471
2.609143 0.860861 -0.957236
2.627334 0.860582 -0.956872
2.627583 0.895320 -0.939405
2.607349 0.895746 -0.940051
2.590489 0.884818 -0.930535
2.608680 0.884538 -0.930170
2.627855 0.871557 -0.966399
2.607621 0.871983 -0.967044
2.590761 0.861055 -0.957529
2.608952 0.860775 -0.957164
2.607393 0.895723 -0.940030
2.587132 0.896115 -0.940462
2.572342 0.885075 -0.930877
2.590533 0.884795 -0.930514
2.607538 0.872008 -0.967066
2.587276 0.872400 -0.967499
2.572486 0.861360 -0.957914
2.590678 0.861079 -0.957551
2.587111 0.896089 -0.940439
2.566849 0.896480 -0.940870
2.554129 0.885329 -0.931218
2.572321 0.885048 -0.930854
2.587258 0.872428 -0.967523
2.566997 0.872819 -0.967955
2.554277 0.861668 -0.958303
2.572469 0.861387 -0.957938
2.566829 0.896453 -0.940847
2.546567 0.896846 -0.941280
2.535918 0.885582 -0.931559
2.554109 0.885302 -0.931195
2.566978 0.872847 -0.967979
2.546717 0.873240 -0.968412
2.536067 0.861976 -0.958691
2.554258 0.861696 -0.958327
2.546547 0.896819 -0.941257
2.526286 0.897212 -0.941690
2.517706 0.885836 -0.931901
2.535897 0.885555 -0.931536
2.546698 0.873267 -0.968436
2.526437 0.873660 -0.968869
2.517857 0.862285 -0.959080
2.536049 0.862004 -0.958715
2.526265 0.897186 -0.941668
2.506003 0.897578 -0.942102
2.499493 0.886092 -0.932243
2.517685 0.885811 -0.931879
2.526419 0.873686 -0.968892
2.506158 0.874078 -0.969326
2.499648 0.862592 -0.959467
2.517840 0.862311 -0.959102
2.505983 0.897552 -0.942080
2.485722 0.897945 -0.942515
2.481282 0.886347 -0.932586
2.499473 0.886066 -0.932221
2.506139 0.874104 -0.969349
2.485877 0.874497 -0.969783
2.481437 0.862899 -0.959855
2.499629 0.862618 -0.959490
2.485701 0.897920 -0.942493
2.465440 0.898313 -0.942928
2.463070 0.886603 -0.932930
2.481261 0.886322 -0.932565
2.485860 0.874523 -0.969805
2.465598 0.874916 -0.970241
2.463228 0.863206 -0.960242
2.481419 0.862925 -0.959877
2.465419 0.898288 -0.942907
2.445157 0.898680 -0.943343
2.444858 0.886859 -0.933274
2.463049 0.886578 -0.932909
2.465580 0.874941 -0.970262
2.445319 0.875333 -0.970698
2.445019 0.863512 -0.960629
2.463210 0.863231 -0.960264
2.445404 0.898404 -0.943113
2.425168 0.898752 -0.942751
2.426912 0.886865 -0.933410
2.445104 0.886584 -0.933045
2.445033 0.875609 -0.970928
2.424797 0.875957 -0.970566
2.426542 0.864070 -0.961225
2.444734 0.863789 -0.960859
2.424526 0.898735 -0.942743
2.404232 0.899182 -0.944180
2.408079 0.887130 -0.933768
2.426271 0.886848 -0.933402
2.425400 0.875974 -0.970574
2.405106 0.876421 -0.972012
2.408953 0.864369 -0.961600
2.427145 0.864088 -0.961234
2.404393 0.899654 -0.944577
2.384153 0.900010 -0.945500
2.390049 0.887884 -0.934530
2.408240 0.887603 -0.934165
2.404906 0.875949 -0.971617
2.384667 0.876305 -0.972540
2.390563 0.864178 -0.961571
2.408754 0.863897 -0.961205
2.384504 0.900085 -0.945564
2.364245 0.900514 -0.945502
2.372209 0.888241 -0.934961
2.390400 0.887959 -0.934595
2.384277 0.876230 -0.972477
2.364018 0.876659 -0.972415
2.371981 0.864386 -0.961874
2.390173 0.864104 -0.961507
2.364151 0.900202 -0.945232
2.343869 0.900584 -0.945320
2.353922 0.888210 -0.935056
2.372114 0.887929 -0.934690
2.364074 0.876972 -0.972686
2.343793 0.877354 -0.972774
2.353846 0.864980 -0.962511
2.372037 0.864698 -0.962145
2.343722 0.900394 -0.945161
2.323461 0.900788 -0.945598
2.335584 0.888302 -0.935265
2.353775 0.888020 -0.934898
2.343901 0.877545 -0.972933
2.323639 0.877939 -0.973370
2.335763 0.865453 -0.963037
2.353954 0.865171 -0.962670
2.323440 0.900765 -0.945579
2.303179 0.901157 -0.946017
2.317371 0.888561 -0.935612
2.335563 0.888279 -0.935246
2.323622 0.877963 -0.973390
2.303361 0.878355 -0.973828
2.317554 0.865758 -0.963423
2.335745 0.865477 -0.963057
2.303346 0.901098 -0.945969
2.283111 0.901444 -0.945849
2.299347 0.888784 -0.935932
2.317539 0.888502 -0.935564
2.303155 0.878414 -0.973876
2.282920 0.878760 -0.973756
2.299156 0.866100 -0.963839
2.317348 0.865818 -0.963472
2.282785 0.901107 -0.945583
2.262519 0.901499 -0.946309
2.280830 0.888729 -0.936033
2.299022 0.888447 -0.935666
2.283207 0.879098 -0.974023
2.262941 0.879490 -0.974748
2.281252 0.866720 -0.964472
2.299443 0.866437 -0.964106
2.262221 0.901665 -0.946446
2.241954 0.902077 -0.947966
2.262341 0.889178 -0.936537
2.280532 0.888895 -0.936170
2.263200 0.879325 -0.974612
2.242933 0.879736 -0.976133
2.263320 0.866837 -0.964704
2.281511 0.866554 -0.964336
2.647936 0.898863 -0.932740
2.627694 0.899216 -0.933143
2.627055 0.881916 -0.935003
2.647287 0.881514 -0.933902
2.649323 0.901935 -0.968545
2.629081 0.902288 -0.968949
2.628442 0.884988 -0.970808
2.648675 0.884586 -0.969708
2.627864 0.898723 -0.933186
2.607622 0.899078 -0.933593
2.606991 0.881850 -0.935691
2.627225 0.881424 -0.935046
2.628870 0.902781 -0.968906
2.608629 0.903135 -0.969313
2.607997 0.885908 -0.971411
2.628232 0.885481 -0.970766
2.607696 0.898932 -0.933608
2.587454 0.899286 -0.934014
2.586803 0.882097 -0.936139
2.607065 0.881705 -0.935706
2.608514 0.903281 -0.969299
2.588273 0.903635 -0.969704
2.587621 0.886446 -0.971829
2.607883 0.886054 -0.971397
2.587432 0.899257 -0.934018
2.567190 0.899612 -0.934426
2.566519 0.882459 -0.936575
2.586781 0.882068 -0.936143
2.588254 0.903665 -0.969701
2.568012 0.904020 -0.970110
2.567341 0.886868 -0.972258
2.587603 0.886477 -0.971826
2.567169 0.899583 -0.934430
2.546927 0.899938 -0.934839
2.546236 0.882823 -0.937012
2.566498 0.882431 -0.936579
2.567993 0.904049 -0.970107
2.547750 0.904404 -0.970515
2.547060 0.887290 -0.972688
2.567322 0.886897 -0.972255
2.546906 0.899908 -0.934843
2.526664 0.900263 -0.935252
2.525954 0.883187 -0.937449
2.546215 0.882794 -0.937016
2.547731 0.904434 -0.970511
2.527489 0.904789 -0.970920
2.526779 0.887713 -0.973118
2.547040 0.887320 -0.972685
2.526643 0.900234 -0.935256
2.506401 0.900589 -0.935665
2.505671 0.883549 -0.937887
2.525933 0.883158 -0.937453
2.527470 0.904819 -0.970917
2.507228 0.905174 -0.971326
2.506498 0.888135 -0.973548
2.526760 0.887743 -0.973114
2.506380 0.900559 -0.935669
2.486138 0.900914 -0.936079
2.485388 0.883912 -0.938326
2.505650 0.883519 -0.937892
2.507209 0.905205 -0.971322
2.486967 0.905560 -0.971732
2.486217 0.888558 -0.973979
2.506479 0.888165 -0.973545
2.486117 0.900884 -0.936083
2.465875 0.901239 -0.936493
2.465106 0.884275 -0.938766
2.485367 0.883882 -0.938331
2.486947 0.905591 -0.971728
2.466705 0.905946 -0.972138
2.465936 0.888982 -0.974411
2.486198 0.888589 -0.973976
2.465854 0.901208 -0.936497
2.445612 0.901563 -0.936907
2.444823 0.884636 -0.939206
2.465085 0.884245 -0.938770
2.466686 0.905977 -0.972134
2.446444 0.906332 -0.972544
2.445655 0.889405 -0.974843
2.465917 0.889013 -0.974407
2.445952 0.901933 -0.936857
2.425710 0.902288 -0.937268
2.424927 0.885354 -0.938793
2.445163 0.885006 -0.939156
2.446064 0.905963 -0.972595
2.425822 0.906319 -0.973005
2.425039 0.889384 -0.974531
2.445275 0.889036 -0.974893
2.424890 0.902192 -0.937300
2.404649 0.902547 -0.937711
2.403812 0.885704 -0.940263
2.424107 0.885257 -0.938825
2.426601 0.906416 -0.972974
2.406360 0.906771 -0.973385
2.405523 0.889928 -0.975937
2.425818 0.889481 -0.974499
2.404848 0.901735 -0.937818
2.384606 0.902091 -0.938229
2.383772 0.885248 -0.941293
2.404012 0.884892 -0.940370
2.406120 0.907584 -0.973280
2.385877 0.907939 -0.973691
2.385043 0.891096 -0.976755
2.405283 0.890740 -0.975832
2.385010 0.902043 -0.938227
2.364768 0.902399 -0.938639
2.363917 0.885629 -0.941229
2.384177 0.885200 -0.941291
2.385432 0.907988 -0.973694
2.365190 0.908343 -0.974106
2.364339 0.891573 -0.976696
2.384598 0.891145 -0.976758
2.364693 0.902806 -0.938577
2.344451 0.903162 -0.938989
2.343560 0.886419 -0.941255
2.363842 0.886036 -0.941167
2.365226 0.907936 -0.974169
2.344984 0.908292 -0.974581
2.344093 0.891549 -0.976847
2.364375 0.891166 -0.976759
2.344279 0.903323 -0.938970
2.324037 0.903679 -0.939382
2.323127 0.886974 -0.941672
2.343389 0.886580 -0.941236
2.345115 0.908132 -0.974601
2.324873 0.908488 -0.975013
2.323963 0.891783 -0.977304
2.344224 0.891389 -0.976867
2.324016 0.903648 -0.939387
2.303775 0.904004 -0.939799
2.302845 0.887336 -0.942115
2.323106 0.886943 -0.941677
2.324854 0.908519 -0.975010
2.304612 0.908874 -0.975422
2.303682 0.892206 -0.977738
2.323943 0.891814 -0.977300
2.304005 0.904256 -0.939762
2.283763 0.904612 -0.940177
2.282840 0.887933 -0.941958
2.303075 0.887588 -0.942078
2.304341 0.908623 -0.975459
2.284099 0.908979 -0.975873
2.283176 0.892300 -0.977655
2.303411 0.891955 -0.977775
2.283371 0.904750 -0.940169
2.263129 0.905107 -0.940583
2.262181 0.888464 -0.942676
2.282448 0.888071 -0.941950
2.284451 0.908842 -0.975883
2.264210 0.909198 -0.976297
2.263262 0.892555 -0.978390
2.283528 0.892163 -0.977664
2.262748 0.904381 -0.940697
2.242507 0.904738 -0.941113
2.241533 0.888149 -0.944309
2.261800 0.887738 -0.942789
2.264550 0.909924 -0.976185
2.244309 0.910281 -0.976602
2.243335 0.893693 -0.979798
2.263602 0.893281 -0.978278
2.626275 0.889537 -0.932943
2.608150 0.889829 -0.933358
2.627939 0.884546 -0.943283
2.648181 0.884193 -0.942880
2.627151 0.921971 -0.948456
2.609027 0.922263 -0.948871
2.628816 0.916980 -0.958797
2.649057 0.916627 -0.958393
2.608130 0.889828 -0.933360
2.590006 0.890121 -0.933771
2.607677 0.884900 -0.943692
2.627919 0.884546 -0.943285
2.609008 0.922264 -0.948871
2.590884 0.922557 -0.949282
2.608555 0.917335 -0.959203
2.628797 0.916981 -0.958796
2.589986 0.890121 -0.933773
2.571861 0.890415 -0.934191
2.587415 0.885254 -0.944099
2.607657 0.884900 -0.943693
2.590866 0.922558 -0.949282
2.572742 0.922851 -0.949700
2.588295 0.917690 -0.959608
2.608537 0.917336 -0.959202
2.571842 0.890416 -0.934190
2.553718 0.890710 -0.934605
2.567153 0.885610 -0.944506
2.587395 0.885255 -0.944098
2.572723 0.922851 -0.949701
2.554599 0.923145 -0.950116
2.568035 0.918045 -0.960018
2.588277 0.917690 -0.959609
2.553699 0.890711 -0.934605
2.535575 0.891004 -0.935020
2.546892 0.885965 -0.944915
2.567134 0.885610 -0.944506
2.554580 0.923145 -0.950117
2.536456 0.923439 -0.950532
2.547773 0.918399 -0.960427
2.568016 0.918045 -0.960018
2.535555 0.891005 -0.935021
2.517431 0.891297 -0.935439
2.526631 0.886320 -0.945324
2.546873 0.885965 -0.944915
2.536437 0.923440 -0.950532
2.518313 0.923732 -0.950950
2.527513 0.918755 -0.960835
2.547754 0.918400 -0.960427
2.517412 0.891297 -0.935440
2.499288 0.891590 -0.935856
2.506370 0.886675 -0.945734
2.526612 0.886320 -0.945325
2.518294 0.923733 -0.950950
2.500169 0.924026 -0.951366
2.507252 0.919110 -0.961244
2.527493 0.918755 -0.960835
2.499268 0.891590 -0.935858
2.481144 0.891882 -0.936277
2.486109 0.887029 -0.946145
2.506351 0.886674 -0.945736
2.500150 0.924027 -0.951365
2.482026 0.924319 -0.951784
2.486991 0.919466 -0.961653
2.507232 0.919111 -0.961243
2.481125 0.891881 -0.936279
2.463002 0.892174 -0.936695
2.465848 0.887384 -0.946557
2.486090 0.887029 -0.946148
2.482007 0.924320 -0.951783
2.463883 0.924612 -0.952199
2.466729 0.919823 -0.962061
2.486971 0.919467 -0.961652
2.462982 0.892173 -0.936698
2.444858 0.892464 -0.937117
2.445587 0.887738 -0.946970
2.465828 0.887383 -0.946560
2.463864 0.924614 -0.952197
2.445740 0.924905 -0.952616
2.446469 0.920179 -0.962469
2.466710 0.919824 -0.962059
2.444839 0.892463 -0.937121
2.426715 0.892755 -0.937538
2.425326 0.888093 -0.947384
2.445568 0.887737 -0.946973
2.445721 0.924907 -0.952614
2.427597 0.925199 -0.953032
2.426208 0.920536 -0.962877
2.446450 0.920181 -0.962467
2.426695 0.892754 -0.937542
2.408571 0.893046 -0.937960
2.405065 0.888447 -0.947799
2.425306 0.888091 -0.947388
2.427577 0.925201 -0.953029
2.409453 0.925493 -0.953447
2.405947 0.920894 -0.963286
2.426188 0.920538 -0.962874
2.408552 0.893044 -0.937964
2.390428 0.893336 -0.938385
2.384803 0.888801 -0.948214
2.405045 0.888445 -0.947803
2.409434 0.925495 -0.953444
2.391310 0.925786 -0.953864
2.385685 0.921251 -0.963694
2.405928 0.920896 -0.963283
2.390409 0.893334 -0.938390
2.372285 0.893625 -0.938808
2.364542 0.889154 -0.948631
2.384784 0.888799 -0.948219
2.391291 0.925788 -0.953860
2.373167 0.926079 -0.954278
2.365424 0.921609 -0.964102
2.385666 0.921253 -0.963690
2.372265 0.893623 -0.938813
2.354142 0.893913 -0.939234
2.344281 0.889508 -0.949048
2.364523 0.889153 -0.948636
2.373148 0.926082 -0.954274
2.355024 0.926372 -0.954695
2.345164 0.921967 -0.964509
2.365405 0.921612 -0.964097
2.354123 0.893911 -0.939240
2.335998 0.894202 -0.939659
2.324020 0.889862 -0.949467
2.344262 0.889506 -0.949054
2.355005 0.926375 -0.954690
2.336880 0.926666 -0.955110
2.324902 0.922326 -0.964917
2.345144 0.921970 -0.964504
2.335980 0.894199 -0.939666
2.317856 0.894489 -0.940086
2.303760 0.890214 -0.949886
2.324002 0.889859 -0.949474
2.336861 0.926669 -0.955103
2.318737 0.926959 -0.955523
2.304641 0.922685 -0.965323
2.324882 0.922329 -0.964911
2.317836 0.894486 -0.940092
2.299712 0.894776 -0.940514
2.283498 0.890568 -0.950307
2.303740 0.890212 -0.949892
2.318718 0.926962 -0.955517
2.300594 0.927252 -0.955938
2.284381 0.923044 -0.965732
2.304622 0.922688 -0.965317
2.299692 0.894773 -0.940521
2.281568 0.895064 -0.940943
2.263237 0.890922 -0.950728
2.283478 0.890565 -0.950314
2.300576 0.927255 -0.955933
2.282451 0.927546 -0.956355
2.264120 0.923404 -0.966140
2.284362 0.923047 -0.965726
2.281547 0.895061 -0.940948
2.263423 0.895352 -0.941372
2.242975 0.891276 -0.951151
2.263216 0.890919 -0.950734
2.282433 0.927549 -0.956350
2.264309 0.927839 -0.956773
2.243861 0.923764 -0.966552
2.264102 0.923407 -0.966135
