3.731551 0.921701 -0.909676
3.788186 0.916970 -0.905601
3.782833 0.879745 -0.917359
3.727615 0.884031 -0.921461
3.730059 0.917073 -0.894366
3.786693 0.912342 -0.890291
3.781341 0.875118 -0.902049
3.726123 0.879403 -0.906150
3.788241 0.916964 -0.905598
3.844994 0.912166 -0.901515
3.838135 0.875449 -0.913277
3.782888 0.879739 -0.917356
3.786750 0.912340 -0.890286
3.843503 0.907542 -0.886204
3.836644 0.870825 -0.897966
3.781398 0.875115 -0.902044
3.845167 0.912131 -0.901507
3.898179 0.905749 -0.897463
3.890653 0.869079 -0.909215
3.838307 0.875414 -0.913270
3.843439 0.907566 -0.886203
3.896451 0.901184 -0.882158
3.888926 0.864514 -0.893911
3.836580 0.870849 -0.897965
3.898396 0.905682 -0.897455
3.955456 0.896225 -0.892634
3.947853 0.858606 -0.904511
3.890870 0.869013 -0.909208
3.896344 0.901234 -0.882157
3.953404 0.891777 -0.877335
3.945801 0.854157 -0.889212
3.888818 0.864565 -0.893909
3.506663 0.888414 -0.936633
3.561723 0.888009 -0.933005
3.562459 0.848799 -0.940387
3.508432 0.848666 -0.943737
3.505647 0.885489 -0.920870
3.560707 0.885085 -0.917242
3.561443 0.845875 -0.924624
3.507417 0.845742 -0.927974
3.561776 0.888069 -0.932990
3.616879 0.887657 -0.929369
3.616547 0.848982 -0.937024
3.562512 0.848859 -0.940372
3.560763 0.885025 -0.917250
3.615866 0.884613 -0.913629
3.615534 0.845938 -0.921284
3.561499 0.845815 -0.924632
3.616932 0.887716 -0.929354
3.672096 0.887278 -0.925751
3.670627 0.849175 -0.933658
3.616600 0.849041 -0.937009
3.615923 0.884554 -0.913637
3.671086 0.884116 -0.910034
3.669617 0.846013 -0.917941
3.615590 0.845879 -0.921292
3.672335 0.887305 -0.925727
3.727499 0.883293 -0.921658
3.724594 0.845786 -0.929663
3.670865 0.849202 -0.933635
3.670957 0.884085 -0.910050
3.726122 0.880074 -0.905981
3.723217 0.842566 -0.913986
3.669488 0.845982 -0.917957
3.727566 0.883307 -0.921649
3.782784 0.879022 -0.917548
3.778523 0.842183 -0.925633
3.724661 0.845800 -0.929654
3.726164 0.880052 -0.905982
3.781382 0.875766 -0.901880
3.777120 0.838927 -0.909965
3.723259 0.842544 -0.913986
3.782838 0.879036 -0.917540
3.838084 0.874746 -0.913462
3.832443 0.838568 -0.921605
3.778577 0.842196 -0.925625
3.781437 0.875745 -0.901880
3.836683 0.871455 -0.897801
3.831042 0.835277 -0.905945
3.777176 0.838905 -0.909965
3.838262 0.874693 -0.913456
3.890607 0.868358 -0.909401
3.883873 0.832567 -0.917247
3.832620 0.838515 -0.921599
3.836612 0.871498 -0.897799
3.888958 0.865163 -0.893745
3.882224 0.829372 -0.901590
3.830971 0.835320 -0.905943
3.890814 0.868175 -0.909412
3.947797 0.857768 -0.904715
3.939468 0.821980 -0.911728
3.884080 0.832384 -0.917258
3.888859 0.865329 -0.893724
3.945842 0.854922 -0.889026
3.937513 0.819134 -0.896040
3.882125 0.829539 -0.901569
3.503772 1.078157 -0.887126
3.564651 1.072803 -0.884400
3.562369 1.020320 -0.900921
3.503412 1.024459 -0.904110
3.502637 1.073360 -0.871837
3.563516 1.068007 -0.869111
3.561235 1.015524 -0.885632
3.502277 1.019662 -0.888821
3.564708 1.072768 -0.884407
3.625579 1.067424 -0.881687
3.621403 1.016124 -0.897744
3.562427 1.020285 -0.900928
3.563579 1.068032 -0.869098
3.624449 1.062688 -0.866378
3.620273 1.011389 -0.882436
3.561297 1.015550 -0.885619
3.625637 1.067386 -0.881694
3.686515 1.062034 -0.878971
3.680438 1.011915 -0.894563
3.621461 1.016086 -0.897751
3.624510 1.062716 -0.866365
3.685388 1.057364 -0.863643
3.679311 1.007245 -0.879234
3.620334 1.011417 -0.882422
3.686698 1.061982 -0.878972
3.747481 1.055810 -0.875471
3.740194 1.006061 -0.890879
3.680620 1.011863 -0.894563
3.685326 1.057405 -0.863635
3.746110 1.051233 -0.860134
3.738823 1.001484 -0.875542
3.679249 1.007286 -0.879227
3.747545 1.055777 -0.875475
3.808300 1.049574 -0.871947
3.799701 1.000134 -0.887186
3.740257 1.006028 -0.890883
3.746167 1.051254 -0.860123
3.806922 1.045051 -0.856595
3.798323 0.995611 -0.871834
3.738879 1.001505 -0.875531
3.808358 1.049540 -0.871952
3.869108 1.043342 -0.868426
3.859220 0.994184 -0.883492
3.799759 1.000100 -0.887191
3.806984 1.045074 -0.856583
3.867734 1.038876 -0.853057
3.857846 0.989718 -0.868123
3.798386 0.995633 -0.871822
3.869241 1.043305 -0.868424
3.929566 1.036275 -0.864466
3.916011 0.988412 -0.879526
3.859353 0.994147 -0.883490
3.867719 1.038900 -0.853052
3.928044 1.031869 -0.849093
3.914489 0.984006 -0.864153
3.857831 0.989742 -0.868117
3.929693 1.036248 -0.864460
3.990395 1.028516 -0.860111
3.975938 0.982247 -0.874807
3.916139 0.988385 -0.879520
3.928035 1.031882 -0.849090
3.988736 1.024150 -0.844741
3.974279 0.977882 -0.859436
3.914481 0.984020 -0.864150
3.503414 1.023921 -0.904260
3.562372 1.019783 -0.901071
3.560895 0.965971 -0.914304
3.503221 0.968270 -0.918088
3.502272 1.020092 -0.888701
3.561230 1.015954 -0.885512
3.559754 0.962142 -0.898744
3.502079 0.964441 -0.902529
3.562429 1.019747 -0.901076
3.621404 1.015586 -0.897892
3.618618 0.963646 -0.910524
3.560952 0.965935 -0.914308
3.561290 1.015983 -0.885501
3.620266 1.011822 -0.882317
3.617480 0.959883 -0.894948
3.559814 0.962172 -0.898733
3.621460 1.015549 -0.897897
3.680437 1.011378 -0.894708
3.676349 0.961318 -0.906766
3.618674 0.963610 -0.910528
3.620327 1.011852 -0.882305
3.679303 1.007680 -0.879117
3.675215 0.957620 -0.891174
3.617540 0.959912 -0.894937
3.680602 1.011331 -0.894706
3.740175 1.005529 -0.891021
3.734338 0.957597 -0.902515
3.676514 0.961271 -0.906764
3.679256 1.007719 -0.879111
3.738830 1.001917 -0.875427
3.732993 0.953985 -0.886921
3.675168 0.957659 -0.891169
3.740238 1.005487 -0.891026
3.799682 0.999593 -0.887329
3.791962 0.953771 -0.898256
3.734401 0.957555 -0.902519
3.738884 1.001949 -0.875415
3.798328 0.996056 -0.871718
3.790607 0.950233 -0.882645
3.733047 0.954018 -0.886908
3.799736 0.999551 -0.887333
3.859197 0.993635 -0.883634
3.849575 0.949960 -0.894030
3.792016 0.953729 -0.898261
3.798391 0.996088 -0.871705
3.857851 0.990172 -0.868006
3.848229 0.946497 -0.878402
3.790670 0.950266 -0.882632
3.859319 0.993569 -0.883638
3.915977 0.987833 -0.879674
3.903827 0.944072 -0.890009
3.849697 0.949894 -0.894034
3.857843 0.990228 -0.867995
3.914501 0.984492 -0.864031
3.902351 0.940730 -0.874365
3.848221 0.946553 -0.878391
3.916108 0.987737 -0.879681
3.975907 0.981599 -0.874967
3.963770 0.934268 -0.885540
3.903958 0.943976 -0.890016
3.914485 0.984575 -0.864015
3.974284 0.978437 -0.859301
3.962148 0.931105 -0.869874
3.902335 0.940813 -0.874350
3.506045 1.090025 -0.879251
3.566844 1.084851 -0.876302
3.564784 1.074955 -0.883347
3.503905 1.080309 -0.886073
3.504648 1.080986 -0.866045
3.565446 1.075813 -0.863096
3.563386 1.065917 -0.870140
3.502508 1.071271 -0.872867
3.566907 1.084896 -0.876265
3.627715 1.079720 -0.873315
3.625718 1.069656 -0.880589
3.564847 1.075000 -0.883309
3.565505 1.075758 -0.863128
3.626313 1.070581 -0.860178
3.624315 1.060518 -0.867452
3.563445 1.065862 -0.870172
3.627778 1.079760 -0.873280
3.688578 1.074593 -0.870343
3.686658 1.064345 -0.877831
3.625780 1.069697 -0.880554
3.626372 1.070530 -0.860208
3.687172 1.065363 -0.857270
3.685252 1.055115 -0.864759
3.624374 1.060467 -0.867482
3.688786 1.074599 -0.870314
3.749386 1.068082 -0.866992
3.747649 1.058178 -0.874301
3.686866 1.064350 -0.877803
3.687086 1.065346 -0.857293
3.747687 1.058829 -0.853971
3.745950 1.048925 -0.861280
3.685167 1.055097 -0.864782
3.749451 1.068103 -0.866969
3.810103 1.061575 -0.863648
3.808469 1.051996 -0.870751
3.747715 1.058198 -0.874278
3.747743 1.058796 -0.853987
3.808395 1.052269 -0.850667
3.806761 1.042689 -0.857769
3.746006 1.048892 -0.861297
3.810165 1.061588 -0.863630
3.870821 1.055059 -0.860306
3.869281 1.045811 -0.867207
3.808531 1.052009 -0.870733
3.808455 1.052243 -0.850677
3.869110 1.045713 -0.847353
3.867571 1.036465 -0.854254
3.806821 1.042663 -0.857780
3.870999 1.055061 -0.860280
3.931061 1.047550 -0.856630
3.929785 1.038782 -0.863222
3.869460 1.045813 -0.867181
3.869053 1.045698 -0.847373
3.929114 1.038187 -0.843722
3.927838 1.029419 -0.850315
3.867513 1.036450 -0.854273
3.931215 1.047574 -0.856588
3.992280 1.039143 -0.852570
3.990640 1.031074 -0.858831
3.929938 1.038806 -0.863180
3.929082 1.038148 -0.843756
3.990147 1.029716 -0.839738
3.988507 1.021648 -0.845999
3.927805 1.029380 -0.850348
3.506962 1.095303 -0.880990
3.567604 1.089411 -0.878173
3.566494 1.079976 -0.877712
3.505695 1.085150 -0.880661
3.506268 1.096035 -0.864958
3.566909 1.090143 -0.862141
3.565799 1.080708 -0.861680
3.505001 1.085881 -0.864628
3.567651 1.089264 -0.878163
3.628282 1.083375 -0.875357
3.627349 1.074653 -0.874752
3.566541 1.079829 -0.877702
3.566984 1.090279 -0.862145
3.627615 1.084390 -0.859339
3.626682 1.075668 -0.858734
3.565874 1.080844 -0.861684
3.628326 1.083202 -0.875342
3.688984 1.077313 -0.872539
3.688193 1.069312 -0.871800
3.627393 1.074480 -0.874738
3.627693 1.084552 -0.859348
3.688351 1.078662 -0.856544
3.687560 1.070662 -0.855806
3.626760 1.075830 -0.858743
3.689089 1.077231 -0.872527
3.749597 1.070422 -0.869136
3.748898 1.062715 -0.868467
3.688298 1.069231 -0.871789
3.688368 1.078731 -0.856550
3.748876 1.071922 -0.853158
3.748178 1.064215 -0.852489
3.687577 1.070731 -0.855811
3.749663 1.070468 -0.869137
3.810176 1.063659 -0.865742
3.809617 1.056233 -0.865147
3.748965 1.062760 -0.868468
3.748931 1.071863 -0.853150
3.809443 1.065054 -0.849755
3.808884 1.057628 -0.849161
3.748232 1.064156 -0.852482
3.810243 1.063707 -0.865743
3.870751 1.056900 -0.862356
3.870339 1.049752 -0.861824
3.809683 1.056281 -0.865148
3.809498 1.064993 -0.849748
3.870007 1.058185 -0.846361
3.869594 1.051037 -0.845829
3.808939 1.057567 -0.849153
3.870864 1.056980 -0.862356
3.930081 1.049512 -0.858639
3.930513 1.042321 -0.858174
3.870451 1.049832 -0.861825
3.870015 1.058091 -0.846353
3.929232 1.050623 -0.842636
3.929664 1.043432 -0.842171
3.869602 1.050943 -0.845822
3.930193 1.049637 -0.858640
3.991601 1.041325 -0.854489
3.991691 1.034015 -0.854158
3.930625 1.042446 -0.858176
3.929240 1.050482 -0.842627
3.990648 1.042170 -0.838476
3.990738 1.034860 -0.838144
3.929672 1.043291 -0.842162
4.242961 0.943573 -0.822944
4.238963 0.883508 -0.828190
4.219337 0.887983 -0.835899
4.224143 0.946830 -0.830955
4.236750 0.942765 -0.808151
4.232752 0.882701 -0.813397
4.213126 0.887175 -0.821106
4.217932 0.946022 -0.816162
4.228689 0.946023 -0.825940
4.223883 0.887176 -0.830884
4.218578 0.889716 -0.848978
4.224207 0.949328 -0.840505
4.213361 0.946836 -0.821201
4.208556 0.887989 -0.826145
4.203251 0.890529 -0.844239
4.208879 0.950141 -0.835766
4.212303 0.891011 -0.854478
4.149509 0.900962 -0.863881
4.196646 0.954554 -0.850151
4.217932 0.950623 -0.846004
4.209479 0.889245 -0.838763
4.146685 0.899196 -0.848166
4.193822 0.952788 -0.834436
4.215108 0.948857 -0.830289
4.249079 0.999287 -0.764542
4.254844 1.031750 -0.769338
4.193186 1.049340 -0.772447
4.187350 1.016073 -0.767775
4.249250 0.996967 -0.780436
4.255015 1.029431 -0.785232
4.193357 1.047021 -0.788341
4.187521 1.013753 -0.783670
4.187219 1.016059 -0.767776
4.193055 1.049327 -0.772447
4.131511 1.065434 -0.775875
4.124957 1.031505 -0.771237
4.187528 1.013799 -0.783677
4.193364 1.047067 -0.788348
4.131820 1.063174 -0.791776
4.125266 1.029245 -0.787138
4.124787 1.031535 -0.771246
4.131342 1.065465 -0.775884
4.069024 1.078528 -0.779863
4.062150 1.045769 -0.775326
4.125311 1.029243 -0.787137
4.131866 1.063173 -0.791775
4.069548 1.076236 -0.795754
4.062674 1.043478 -0.791216
4.062091 1.045763 -0.775327
4.068964 1.078522 -0.779864
4.004970 1.090162 -0.783485
3.999714 1.057055 -0.779075
4.062608 1.043509 -0.791223
4.069482 1.076267 -0.795760
4.005488 1.087907 -0.799381
4.000232 1.054800 -0.794972
4.240548 0.967060 -0.824717
4.275903 0.968666 -0.815856
4.270307 0.956627 -0.818089
4.245819 0.954873 -0.820731
4.237460 0.968239 -0.808997
4.272815 0.969846 -0.800136
4.267219 0.957807 -0.802369
4.242731 0.956053 -0.805010
4.243633 0.965516 -0.830880
4.278665 0.963366 -0.818322
4.275073 0.961675 -0.810535
4.239718 0.960069 -0.819396
4.242208 0.980693 -0.825814
4.277240 0.978543 -0.813255
4.273648 0.976853 -0.805468
4.238293 0.975246 -0.814329
4.242491 0.967767 -0.824087
4.247763 0.955581 -0.820100
4.246227 0.952274 -0.822534
4.229164 0.961181 -0.829032
4.235479 0.967525 -0.809637
4.240750 0.955339 -0.805650
4.239215 0.952032 -0.808084
4.222152 0.960939 -0.814581
4.244120 0.975141 -0.836033
4.225129 0.970566 -0.841082
4.181791 1.003534 -0.838585
4.243172 0.990266 -0.832980
4.241648 0.971093 -0.820685
4.222656 0.966519 -0.825734
4.179318 0.999486 -0.823238
4.240700 0.986219 -0.817632
4.217869 0.951786 -0.845800
4.196584 0.955717 -0.849947
4.181875 1.003497 -0.838581
4.225213 0.970529 -0.841077
4.215193 0.947783 -0.830474
4.193907 0.951714 -0.834621
4.179198 0.999494 -0.823256
4.222536 0.966527 -0.825752
4.227189 0.962004 -0.836744
4.246181 0.966578 -0.831696
4.242266 0.961131 -0.820211
4.228939 0.954545 -0.825156
4.220617 0.975051 -0.830063
4.239609 0.979625 -0.825014
4.235694 0.974178 -0.813530
4.222367 0.967592 -0.818474
4.228574 0.960753 -0.829285
4.245637 0.951847 -0.822787
4.242781 0.942906 -0.823020
4.223963 0.946164 -0.831031
4.222731 0.961350 -0.814333
4.239794 0.952443 -0.807836
4.236938 0.943503 -0.808069
4.218119 0.946760 -0.816079
4.231189 0.966405 -0.836016
4.232940 0.958946 -0.824427
4.228328 0.944356 -0.826173
4.223846 0.947662 -0.840738
4.216594 0.970627 -0.830800
4.218345 0.963168 -0.819211
4.213733 0.948579 -0.820958
4.209251 0.951884 -0.835522
3.999649 1.066141 -0.765129
4.063446 1.054581 -0.762744
4.063806 1.052485 -0.783990
4.001429 1.063777 -0.787739
3.996730 1.050412 -0.763672
4.060527 1.038852 -0.761287
4.060886 1.036756 -0.782533
3.998509 1.048048 -0.786282
4.063791 1.054480 -0.763016
4.126720 1.041577 -0.759410
4.126788 1.038150 -0.780183
4.064151 1.052384 -0.784262
4.060307 1.038928 -0.761008
4.123235 1.026024 -0.757402
4.123304 1.022598 -0.778175
4.060667 1.036832 -0.782254
4.127125 1.041490 -0.759295
4.189719 1.024011 -0.755346
4.189455 1.022619 -0.776606
4.127193 1.038064 -0.780068
4.122955 1.026080 -0.757509
4.185549 1.008601 -0.753560
4.185285 1.007209 -0.774820
4.123023 1.022654 -0.778282
4.189942 1.023999 -0.754570
4.252116 1.004820 -0.750651
4.251407 1.005821 -0.772596
4.189678 1.022607 -0.775830
4.185451 1.008578 -0.754329
4.247626 0.989398 -0.750411
4.246917 0.990400 -0.772356
4.185187 1.007186 -0.775589
3.321004 0.785774 -0.954101
3.302123 0.762483 -0.953772
3.239058 0.807676 -0.949075
3.259937 0.840928 -0.946606
3.321695 0.784683 -0.938089
3.302813 0.761392 -0.937760
3.239749 0.806585 -0.933063
3.260627 0.839837 -0.930594
3.260505 0.840932 -0.946608
3.239626 0.807680 -0.949077
3.181990 0.852958 -0.948648
3.195364 0.902711 -0.944740
3.259936 0.839936 -0.930585
3.239057 0.806684 -0.933054
3.181421 0.851961 -0.932625
3.194795 0.901715 -0.928717
3.195260 0.903021 -0.944719
3.181886 0.853268 -0.948627
3.124519 0.899132 -0.947242
3.123911 0.968329 -0.939548
3.194773 0.901514 -0.928733
3.181399 0.851761 -0.932641
3.124032 0.897625 -0.931257
3.123424 0.966822 -0.923562
3.302172 0.762179 -0.953789
3.285053 0.737219 -0.953052
3.221190 0.771865 -0.950660
3.239107 0.807372 -0.949092
3.302727 0.761637 -0.937744
3.285608 0.736677 -0.937007
3.221745 0.771322 -0.934615
3.239662 0.806830 -0.933047
3.239445 0.807396 -0.949095
3.221528 0.771888 -0.950663
3.173382 0.799920 -0.950305
3.181808 0.852673 -0.948666
3.239209 0.806883 -0.933041
3.221291 0.771375 -0.934609
3.173146 0.799407 -0.934251
3.181572 0.852160 -0.932612
3.181808 0.852785 -0.948662
3.173381 0.800032 -0.950301
3.122004 0.829420 -0.950900
3.124440 0.898649 -0.947277
3.181466 0.852123 -0.932615
3.173039 0.799370 -0.934255
3.121662 0.828759 -0.934854
3.124098 0.897987 -0.931230
3.285088 0.736883 -0.953058
3.270755 0.710543 -0.951815
3.208489 0.731322 -0.950864
3.221225 0.771528 -0.950666
3.285543 0.736950 -0.937001
3.271210 0.710610 -0.935758
3.208944 0.731389 -0.934807
3.221680 0.771595 -0.934609
3.221310 0.771606 -0.950668
3.208575 0.731400 -0.950866
3.164684 0.745535 -0.950119
3.173165 0.799638 -0.950311
3.221485 0.771566 -0.934605
3.208749 0.731360 -0.934803
3.164858 0.745495 -0.934057
3.173339 0.799598 -0.934248
3.173341 0.799634 -0.950310
3.164860 0.745531 -0.950119
3.116961 0.759764 -0.951245
3.121964 0.829023 -0.950909
3.173067 0.799645 -0.934248
3.164586 0.745542 -0.934057
3.116687 0.759775 -0.935183
3.121690 0.829034 -0.934847
3.270799 0.710287 -0.951812
3.257829 0.683728 -0.950408
3.202186 0.687872 -0.949629
3.208533 0.731066 -0.950861
3.271143 0.710798 -0.935760
3.258172 0.684239 -0.934356
3.202529 0.688384 -0.933577
3.208877 0.731577 -0.934809
3.208382 0.731082 -0.950857
3.202034 0.687889 -0.949625
3.178272 0.689173 -0.948517
3.164490 0.745217 -0.950111
3.208935 0.731581 -0.934811
3.202588 0.688387 -0.933578
3.178825 0.689671 -0.932470
3.165044 0.745716 -0.934064
3.164764 0.745201 -0.950114
3.178545 0.689157 -0.948520
3.109313 0.689990 -0.948533
3.116865 0.759434 -0.951240
3.164678 0.745747 -0.934060
3.178460 0.689703 -0.932466
3.109227 0.690536 -0.932478
3.116779 0.759981 -0.935186
3.124081 0.968668 -0.939503
3.187166 0.971130 -0.936028
3.248592 0.907782 -0.941663
3.195430 0.903360 -0.944674
3.123319 0.966546 -0.923598
3.186404 0.969008 -0.920123
3.247830 0.905659 -0.925758
3.194668 0.901238 -0.928769
3.187233 0.971172 -0.936019
3.250886 0.972550 -0.932583
3.301988 0.911728 -0.938624
3.248659 0.907824 -0.941654
3.186454 0.968972 -0.920125
3.250107 0.970349 -0.916689
3.301209 0.909528 -0.922731
3.247879 0.905623 -0.925761
3.250949 0.972608 -0.932571
3.314088 0.971674 -0.929295
3.352434 0.918408 -0.935406
3.302052 0.911786 -0.938613
3.250159 0.970297 -0.916694
3.313297 0.969362 -0.913418
3.351643 0.916097 -0.919529
3.301261 0.909475 -0.922736
3.314193 0.971771 -0.929275
3.377324 0.970344 -0.925811
3.405554 0.923065 -0.931865
3.352539 0.918506 -0.935386
3.313308 0.969269 -0.913432
3.376439 0.967841 -0.909968
3.404669 0.920562 -0.916021
3.351653 0.916003 -0.919543
3.377409 0.970416 -0.925795
3.440514 0.968979 -0.922112
3.455422 0.925894 -0.928607
3.405638 0.923137 -0.931848
3.376470 0.967772 -0.909978
3.439575 0.966335 -0.906296
3.454483 0.923250 -0.912790
3.404699 0.920493 -0.916031
3.440591 0.969060 -0.922094
3.503084 0.967711 -0.918216
3.504753 0.927630 -0.925470
3.455499 0.925975 -0.928588
3.439610 0.966255 -0.906307
3.502103 0.964906 -0.902429
3.503772 0.924825 -0.909683
3.454518 0.923170 -0.912802
3.195413 0.902884 -0.944726
3.248575 0.907305 -0.941715
3.295971 0.858581 -0.944488
3.260554 0.841105 -0.946594
3.194808 0.901595 -0.928725
3.247969 0.906016 -0.925714
3.295365 0.857293 -0.928487
3.259948 0.839816 -0.930593
3.248543 0.907525 -0.941695
3.301873 0.911430 -0.938665
3.335146 0.872511 -0.942996
3.295939 0.858802 -0.944468
3.248092 0.905816 -0.925729
3.301422 0.909720 -0.922699
3.334695 0.870801 -0.927030
3.295487 0.857092 -0.928502
3.301880 0.911827 -0.938613
3.352262 0.918449 -0.935406
3.376429 0.883927 -0.941232
3.335153 0.872908 -0.942944
3.301507 0.909341 -0.922747
3.351889 0.915963 -0.919540
3.376056 0.881441 -0.925366
3.334780 0.870422 -0.927078
3.352387 0.918895 -0.935320
3.405403 0.923454 -0.931799
3.420995 0.890306 -0.939135
3.376555 0.884373 -0.941145
3.351858 0.915530 -0.919621
3.404874 0.920089 -0.916100
3.420466 0.886942 -0.923437
3.376026 0.881009 -0.925447
3.405514 0.923754 -0.931724
3.455297 0.926511 -0.928483
3.463805 0.890781 -0.937657
3.421106 0.890606 -0.939061
3.404858 0.919796 -0.916169
3.454641 0.922553 -0.912928
3.463149 0.886823 -0.922102
3.420450 0.886648 -0.923506
3.455377 0.926681 -0.928435
3.504630 0.928336 -0.925316
3.506465 0.889139 -0.936477
3.463885 0.890951 -0.937608
3.454654 0.922385 -0.912973
3.503907 0.924040 -0.909854
3.505742 0.884843 -0.921015
3.463162 0.886655 -0.922146
3.260100 0.841386 -0.946568
3.295516 0.858863 -0.944462
3.347429 0.807071 -0.953064
3.321167 0.786232 -0.954063
3.260515 0.839426 -0.930629
3.295932 0.856902 -0.928524
3.347844 0.805111 -0.937126
3.321583 0.784272 -0.938124
3.295621 0.859095 -0.944433
3.334829 0.872804 -0.942961
3.376966 0.823045 -0.951244
3.347534 0.807304 -0.953035
3.295892 0.856704 -0.928550
3.335099 0.870414 -0.927078
3.377236 0.820655 -0.935361
3.347804 0.804913 -0.937152
3.335005 0.872925 -0.942943
3.376281 0.883945 -0.941231
3.408969 0.834109 -0.949275
3.377142 0.823166 -0.951226
3.334994 0.870318 -0.927092
3.376270 0.881337 -0.925380
3.408958 0.831502 -0.933424
3.377131 0.820559 -0.935375
3.376464 0.884044 -0.941212
3.420905 0.889977 -0.939202
3.441760 0.841848 -0.947403
3.409152 0.834208 -0.949256
3.376162 0.881256 -0.925395
3.420603 0.887189 -0.923385
3.441458 0.839060 -0.931585
3.408850 0.831420 -0.933439
3.421060 0.890036 -0.939187
3.463759 0.890211 -0.937783
3.475225 0.845307 -0.945557
3.441915 0.841907 -0.947388
3.420524 0.887138 -0.923396
3.463223 0.887313 -0.921992
3.474689 0.842409 -0.929766
3.441379 0.839009 -0.931597
3.463807 0.890195 -0.937784
3.506387 0.888383 -0.936653
3.508156 0.848636 -0.943756
3.475273 0.845291 -0.945558
3.463251 0.887332 -0.921988
3.505831 0.885520 -0.920856
3.507600 0.845772 -0.927959
3.474717 0.842428 -0.929761
3.109195 0.684794 -0.946416
3.178428 0.683961 -0.946403
3.180022 0.675550 -0.938841
3.109604 0.674743 -0.937047
3.109348 0.695660 -0.934585
3.178581 0.694826 -0.934572
3.180175 0.686415 -0.927011
3.109757 0.685608 -0.925216
3.331475 0.778274 -0.917113
3.314376 0.755414 -0.916358
3.308742 0.757016 -0.947018
3.327624 0.780307 -0.947347
3.318994 0.788065 -0.914584
3.301894 0.765204 -0.913829
3.296261 0.766807 -0.944489
3.315142 0.790098 -0.944818
3.314607 0.755767 -0.916500
3.298607 0.732660 -0.915653
3.291855 0.732410 -0.946424
3.308974 0.757370 -0.947161
3.301627 0.764803 -0.913685
3.285627 0.741696 -0.912837
3.278876 0.741446 -0.943608
3.295994 0.766406 -0.944345
3.298955 0.733176 -0.915556
3.284333 0.708810 -0.914349
3.277871 0.706586 -0.945084
3.292204 0.732926 -0.946328
3.285247 0.741130 -0.912932
3.270625 0.716764 -0.911725
3.264164 0.714541 -0.942460
3.278496 0.740880 -0.943703
3.284570 0.709224 -0.914271
3.271993 0.683154 -0.911914
3.265138 0.680442 -0.943602
3.278108 0.707001 -0.945006
3.270361 0.716298 -0.911800
3.257784 0.690228 -0.909442
3.250929 0.687516 -0.941131
3.263899 0.714075 -0.942535
3.509856 0.835124 -0.909670
3.477006 0.832130 -0.911170
3.475820 0.835934 -0.938828
3.508704 0.839278 -0.937026
3.508214 0.850929 -0.907314
3.475364 0.847935 -0.908814
3.474177 0.851739 -0.936472
3.507061 0.855083 -0.934669
3.476970 0.832110 -0.911058
3.444109 0.829127 -0.912559
3.442474 0.832514 -0.940547
3.475783 0.835914 -0.938716
3.475335 0.847948 -0.908929
3.442474 0.844965 -0.910429
3.440839 0.848352 -0.938417
3.474148 0.851752 -0.936587
3.445122 0.829297 -0.912530
3.412883 0.821770 -0.913931
3.410879 0.825044 -0.942372
3.443486 0.832684 -0.940518
3.441396 0.844785 -0.910461
3.409157 0.837258 -0.911862
3.407152 0.840532 -0.940303
3.439760 0.848172 -0.938450
3.413580 0.821966 -0.913881
3.382732 0.811800 -0.915300
3.379748 0.814298 -0.944274
3.411575 0.825240 -0.942322
3.408397 0.837043 -0.911915
3.377549 0.826877 -0.913334
3.374565 0.829375 -0.942308
3.406392 0.840317 -0.940356
3.383807 0.812246 -0.915165
3.354469 0.797677 -0.916471
3.351390 0.799002 -0.945930
3.380822 0.814743 -0.944139
3.376414 0.826406 -0.913472
3.347076 0.811838 -0.914778
3.343998 0.813163 -0.944236
3.373430 0.828904 -0.942446
3.355813 0.798579 -0.916561
3.330325 0.777031 -0.916783
3.326473 0.779064 -0.947017
3.352734 0.799903 -0.946019
3.345677 0.810900 -0.914691
3.320188 0.789352 -0.914913
3.316337 0.791385 -0.945148
3.342598 0.812224 -0.944149
3.156153 1.160391 -0.807567
3.215543 1.158144 -0.807134
3.216863 1.164241 -0.820598
3.157655 1.171720 -0.823014
3.155231 1.146696 -0.815912
3.214620 1.144449 -0.815478
3.215940 1.150546 -0.828942
3.156732 1.158024 -0.831358
3.215858 1.158792 -0.808524
3.274404 1.153287 -0.805442
3.276794 1.157270 -0.820132
3.217178 1.164889 -0.821988
3.214424 1.143790 -0.814084
3.272970 1.138284 -0.811003
3.275360 1.142268 -0.825693
3.215744 1.149886 -0.827548
3.274499 1.153583 -0.806478
3.332972 1.147961 -0.802343
3.336115 1.150255 -0.818166
3.276888 1.157567 -0.821167
3.272994 1.137974 -0.809962
3.331468 1.132352 -0.805827
3.334611 1.134645 -0.821650
3.275384 1.141958 -0.824651
3.333110 1.148097 -0.803263
3.391441 1.142394 -0.797472
3.395880 1.142909 -0.816630
3.336253 1.150390 -0.819086
3.331448 1.132203 -0.804900
3.389779 1.126501 -0.799108
3.394218 1.127016 -0.818266
3.334591 1.134496 -0.820723
3.391450 1.142433 -0.798096
3.450064 1.137141 -0.795834
3.455505 1.136571 -0.814916
3.395890 1.142948 -0.817255
3.389887 1.126450 -0.798477
3.448501 1.121158 -0.796214
3.453942 1.120587 -0.815297
3.394327 1.126965 -0.817635
3.450099 1.137138 -0.796185
3.508131 1.131986 -0.795014
3.508101 1.131280 -0.813236
3.455540 1.136568 -0.815268
3.448580 1.121149 -0.795859
3.506612 1.115997 -0.794688
3.506582 1.115292 -0.812910
3.454021 1.120579 -0.814942
3.094587 1.196352 -0.827939
3.156978 1.166599 -0.819351
3.216187 1.159121 -0.816935
3.163625 1.190032 -0.824294
3.094961 1.192936 -0.843631
3.157353 1.163183 -0.835043
3.216561 1.155705 -0.832627
3.163999 1.186616 -0.839986
3.163703 1.189704 -0.824228
3.216265 1.158793 -0.816869
3.275881 1.151174 -0.815013
3.233505 1.183441 -0.820814
3.164050 1.186930 -0.840046
3.216611 1.156019 -0.832688
3.276227 1.148400 -0.830832
3.233852 1.180667 -0.836633
3.233503 1.183199 -0.820776
3.275879 1.150933 -0.814975
3.335106 1.143620 -0.811974
3.302623 1.177474 -0.818018
3.233982 1.180895 -0.836666
3.276358 1.148628 -0.830865
3.335585 1.141316 -0.827864
3.303102 1.175169 -0.833909
3.302727 1.177504 -0.818020
3.335211 1.143650 -0.811975
3.394838 1.136169 -0.809519
3.371953 1.170837 -0.815122
3.303126 1.175126 -0.833902
3.335609 1.141272 -0.827857
3.395237 1.133792 -0.825401
3.372352 1.168460 -0.831004
3.371996 1.170736 -0.815107
3.394881 1.136069 -0.809503
3.454496 1.129691 -0.807165
3.440973 1.164387 -0.812121
3.372438 1.168547 -0.831014
3.395323 1.133879 -0.825411
3.454938 1.127501 -0.823073
3.441415 1.162197 -0.828029
3.441009 1.164269 -0.812105
3.454531 1.129573 -0.807149
3.507092 1.124286 -0.805117
3.509238 1.157284 -0.808868
3.441504 1.162303 -0.828040
3.455027 1.127607 -0.823084
3.507587 1.122319 -0.821052
3.509733 1.155318 -0.824804
3.503675 1.078177 -0.887127
3.503315 1.024479 -0.904111
3.437997 1.028115 -0.907527
3.438497 1.082473 -0.890309
3.502609 1.073348 -0.871843
3.502249 1.019650 -0.888827
3.436931 1.023285 -0.892244
3.437431 1.077644 -0.875025
3.438406 1.082477 -0.890314
3.437906 1.028119 -0.907532
3.372791 1.030749 -0.911010
3.372941 1.086681 -0.893340
3.437392 1.077647 -0.875027
3.436892 1.023289 -0.892245
3.371777 1.025919 -0.895723
3.371926 1.081851 -0.878053
3.372844 1.086688 -0.893344
3.372694 1.030756 -0.911014
3.308098 1.032552 -0.914498
3.307678 1.090828 -0.896053
3.371893 1.081851 -0.878055
3.371743 1.025919 -0.895725
3.307147 1.027715 -0.899209
3.306727 1.085991 -0.880764
3.307568 1.090870 -0.896046
3.307989 1.032594 -0.914491
3.245068 1.034792 -0.917621
3.242362 1.095617 -0.897908
3.306707 1.085955 -0.880777
3.307127 1.027680 -0.899222
3.244206 1.029878 -0.902352
3.241500 1.090703 -0.882639
3.242278 1.095683 -0.897891
3.244984 1.034858 -0.917604
3.181899 1.036525 -0.920721
3.176538 1.099913 -0.899775
3.241456 1.090644 -0.882660
3.244162 1.029819 -0.902373
3.181077 1.031486 -0.905490
3.175716 1.094874 -0.884544
3.176464 1.099968 -0.899761
3.181825 1.036580 -0.920707
3.120228 1.037974 -0.923708
3.111966 1.103866 -0.901624
3.175662 1.094825 -0.884564
3.181023 1.031437 -0.905509
3.119426 1.032831 -0.908511
3.111164 1.098723 -0.886427
3.503302 1.023946 -0.904262
3.503108 0.968294 -0.918090
3.440615 0.969643 -0.921968
3.437984 1.027581 -0.907679
3.502263 1.020073 -0.888707
3.502069 0.964422 -0.902535
3.439576 0.965770 -0.906412
3.436945 1.023708 -0.892123
3.437897 1.027590 -0.907682
3.440528 0.969652 -0.921971
3.377422 0.971089 -0.925654
3.372781 1.030220 -0.911160
3.436905 1.023704 -0.892127
3.439536 0.965766 -0.906416
3.376431 0.967203 -0.910099
3.371789 1.026334 -0.895605
3.372693 1.030221 -0.911165
3.377335 0.971090 -0.925659
3.314203 0.972517 -0.929122
3.308097 1.032018 -0.914649
3.371749 1.026337 -0.895607
3.376390 0.967205 -0.910100
3.313259 0.968633 -0.913563
3.307153 1.028133 -0.899091
3.308005 1.032005 -0.914658
3.314111 0.972504 -0.929131
3.250972 0.973439 -0.932407
3.245084 1.034202 -0.917788
3.307118 1.028150 -0.899089
3.313224 0.968649 -0.913561
3.250085 0.969584 -0.916838
3.244197 1.030348 -0.902218
3.244985 1.034162 -0.917803
3.250873 0.973399 -0.932422
3.187220 0.972021 -0.935858
3.181900 1.035830 -0.920920
3.244170 1.030389 -0.902210
3.250058 0.969625 -0.916829
3.186405 0.968248 -0.920265
3.181085 1.032057 -0.905327
3.181820 1.035774 -0.920937
3.187139 0.971964 -0.935876
3.124054 0.969502 -0.939351
3.120222 1.037168 -0.923939
3.181039 1.032113 -0.905316
3.186359 0.968304 -0.920254
3.123274 0.965842 -0.923729
3.119442 1.033507 -0.908317
3.505903 1.090024 -0.879266
3.503763 1.080308 -0.886088
3.438585 1.084604 -0.889270
3.440141 1.094752 -0.882193
3.504664 1.080997 -0.866036
3.502524 1.071281 -0.872858
3.437345 1.075577 -0.876040
3.438901 1.085725 -0.868963
3.440051 1.094766 -0.882192
3.438495 1.084619 -0.889268
3.373030 1.088823 -0.892294
3.374756 1.099267 -0.884983
3.438860 1.085719 -0.868971
3.437304 1.075572 -0.876048
3.371839 1.079775 -0.879074
3.373566 1.090220 -0.871763
3.374658 1.099280 -0.884983
3.372931 1.088836 -0.892294
3.307765 1.092975 -0.895003
3.308776 1.103646 -0.887596
3.373533 1.090216 -0.871769
3.371806 1.079771 -0.879079
3.306640 1.083911 -0.881789
3.307651 1.094581 -0.874382
3.308673 1.103622 -0.887621
3.307662 1.092952 -0.895028
3.242456 1.097699 -0.896889
3.242891 1.108432 -0.889640
3.307623 1.094614 -0.874362
3.306612 1.083943 -0.881769
3.241405 1.088691 -0.883631
3.241841 1.099424 -0.876381
3.242791 1.108343 -0.889708
3.242355 1.097610 -0.896957
3.176615 1.101840 -0.898841
3.176621 1.112612 -0.891892
3.241810 1.099522 -0.876318
3.241374 1.088789 -0.883567
3.175634 1.093020 -0.885451
3.175639 1.103792 -0.878502
3.176537 1.112474 -0.891987
3.176532 1.101702 -0.898936
3.112033 1.105600 -0.900799
3.110619 1.116430 -0.894262
3.175592 1.103938 -0.878412
3.175587 1.093166 -0.885360
3.111089 1.097064 -0.887224
3.109674 1.107894 -0.880687
3.506886 1.095385 -0.880997
3.505619 1.085232 -0.880667
3.439857 1.089959 -0.883595
3.440500 1.100067 -0.883915
3.506217 1.095963 -0.864957
3.504950 1.085809 -0.864628
3.439188 1.090537 -0.867555
3.439831 1.100645 -0.867876
3.440421 1.100121 -0.883920
3.439778 1.090013 -0.883600
3.374483 1.094514 -0.886391
3.374646 1.104353 -0.886635
3.439778 1.100601 -0.867876
3.439135 1.090493 -0.867556
3.373841 1.094994 -0.870347
3.374004 1.104833 -0.870591
3.374560 1.104434 -0.886641
3.374398 1.094595 -0.886397
3.308515 1.098960 -0.889010
3.308213 1.108230 -0.889160
3.373957 1.104760 -0.870591
3.373795 1.094921 -0.870347
3.307912 1.099286 -0.872961
3.307610 1.108556 -0.873110
3.308106 1.107930 -0.889151
3.308408 1.098661 -0.889002
3.242627 1.103471 -0.891021
3.241652 1.111792 -0.891939
3.307584 1.108864 -0.873123
3.307887 1.099594 -0.872974
3.242105 1.104405 -0.874993
3.241131 1.112726 -0.875910
3.241537 1.111358 -0.891905
3.242511 1.103037 -0.890988
3.176341 1.107306 -0.893172
3.174486 1.115646 -0.894220
3.241114 1.113169 -0.875949
3.242088 1.104847 -0.875032
3.175918 1.109117 -0.877216
3.174064 1.117456 -0.878264
3.174419 1.115715 -0.894230
3.176273 1.107376 -0.893182
3.110356 1.111331 -0.895457
3.107694 1.120177 -0.896336
3.173998 1.117395 -0.878260
3.175852 1.109056 -0.877211
3.109935 1.113012 -0.879487
3.107273 1.121857 -0.880366
3.192828 0.629648 -0.943881
3.157916 0.631346 -0.944888
3.161263 0.648430 -0.933380
3.199978 0.637794 -0.937976
3.191993 0.620772 -0.930518
3.157080 0.622471 -0.931525
3.160428 0.639554 -0.920017
3.199143 0.628918 -0.924613
3.159824 0.643326 -0.934632
3.179110 0.680263 -0.940857
3.218016 0.681765 -0.945572
3.198539 0.632690 -0.939228
3.161891 0.644713 -0.918762
3.181177 0.681651 -0.924987
3.220083 0.683153 -0.929703
3.200606 0.634078 -0.923358
3.218065 0.681895 -0.945589
3.256970 0.683377 -0.950323
3.237299 0.622198 -0.943866
3.198588 0.632820 -0.939245
3.220112 0.683014 -0.929695
3.259018 0.684495 -0.934429
3.239346 0.623317 -0.927973
3.200635 0.633938 -0.923351
3.218531 0.677002 -0.943491
3.179625 0.675500 -0.938775
3.178031 0.683912 -0.946337
3.201793 0.682628 -0.947445
3.219579 0.687966 -0.931797
3.180673 0.686464 -0.927081
3.179079 0.694876 -0.934643
3.202842 0.693591 -0.935751
3.238731 0.627187 -0.942585
3.192870 0.629663 -0.943868
3.200020 0.637809 -0.937963
3.237876 0.618271 -0.929250
3.192016 0.620746 -0.930533
3.199166 0.628893 -0.924628
3.257498 0.678423 -0.948173
3.218593 0.676942 -0.943439
3.201855 0.682567 -0.947394
3.258486 0.689507 -0.936587
3.219580 0.688025 -0.931853
3.202843 0.693651 -0.935808
3.936365 0.812876 -0.905008
3.965851 0.803111 -0.901410
3.963732 0.800302 -0.872540
3.934891 0.808030 -0.875657
3.940692 0.828178 -0.902729
3.970178 0.818412 -0.899131
3.968059 0.815603 -0.870261
3.939218 0.823331 -0.873378
3.965027 0.803361 -0.901167
3.993576 0.791161 -0.897940
3.990764 0.789024 -0.869677
3.962908 0.800553 -0.872297
3.971059 0.818141 -0.899367
3.999607 0.805940 -0.896140
3.996795 0.803803 -0.867877
3.968939 0.815332 -0.870498
3.992755 0.791541 -0.897836
4.019415 0.776014 -0.894850
4.016239 0.775044 -0.866973
3.989943 0.789404 -0.869573
4.000483 0.805533 -0.896238
4.027143 0.790006 -0.893252
4.023967 0.789036 -0.865374
3.997671 0.803396 -0.867975
4.017918 0.777078 -0.894778
4.040549 0.755687 -0.891834
4.036331 0.756446 -0.863439
4.014743 0.776108 -0.866900
4.028689 0.788907 -0.893318
4.051320 0.767516 -0.890374
4.047101 0.768275 -0.861979
4.025513 0.787937 -0.865441
3.964064 0.933756 -0.885593
4.026064 0.922426 -0.879502
4.004012 0.883079 -0.887447
3.955552 0.895151 -0.892852
3.961948 0.931512 -0.869828
4.023948 0.920182 -0.863737
4.001896 0.880834 -0.871682
3.953436 0.892906 -0.877087
4.026165 0.922176 -0.879520
4.088172 0.910893 -0.872600
4.054920 0.869492 -0.881396
4.004113 0.882828 -0.887465
4.023959 0.920408 -0.863707
4.085965 0.909126 -0.856787
4.052713 0.867725 -0.865583
4.001907 0.881061 -0.871652
4.088358 0.910689 -0.872593
4.149236 0.900730 -0.863949
4.102505 0.858521 -0.874945
4.055106 0.869289 -0.881389
4.085890 0.909307 -0.856780
4.146768 0.899348 -0.848136
4.100037 0.857138 -0.859132
4.052638 0.867906 -0.865576
4.149349 0.900644 -0.863938
4.212143 0.890693 -0.854535
4.156466 0.847676 -0.866894
4.102618 0.858434 -0.874934
4.146767 0.899414 -0.848131
4.209561 0.889463 -0.838728
4.153883 0.846447 -0.851087
4.100036 0.857205 -0.859127
3.955892 0.896058 -0.892611
4.004352 0.883986 -0.887206
3.988694 0.854272 -0.897859
3.948289 0.858439 -0.904488
3.953070 0.891926 -0.877347
4.001530 0.879854 -0.871942
3.985872 0.850139 -0.882595
3.945467 0.854306 -0.889223
4.004472 0.883723 -0.887250
4.055279 0.870388 -0.881181
4.031223 0.844212 -0.891400
3.988815 0.854009 -0.897903
4.001500 0.880097 -0.871886
4.052307 0.866762 -0.865817
4.028251 0.840586 -0.876036
3.985843 0.850383 -0.882539
4.055355 0.869922 -0.881262
4.102754 0.859154 -0.874818
4.067133 0.829355 -0.886059
4.031299 0.843746 -0.891481
4.052318 0.867203 -0.865724
4.099717 0.856435 -0.859280
4.064096 0.826636 -0.870521
4.028262 0.841027 -0.875943
4.102774 0.858692 -0.874881
4.156622 0.847934 -0.866842
4.102393 0.808179 -0.880827
4.067153 0.828893 -0.886122
4.099784 0.856869 -0.859204
4.153631 0.846111 -0.851164
4.099402 0.806356 -0.865149
4.064162 0.827070 -0.870445
3.948254 0.857567 -0.904680
3.988659 0.853400 -0.898052
3.969411 0.812013 -0.908095
3.939925 0.821779 -0.911694
3.945476 0.855105 -0.889051
3.985881 0.850938 -0.882422
3.966633 0.809552 -0.892466
3.937147 0.819317 -0.896064
3.988761 0.853405 -0.898032
4.031169 0.843608 -0.891529
3.998061 0.799818 -0.904849
3.969513 0.812018 -0.908076
3.985850 0.850915 -0.882432
4.028258 0.841119 -0.875929
3.995150 0.797328 -0.889248
3.966602 0.809529 -0.892476
4.031359 0.843531 -0.891504
4.067192 0.829139 -0.886082
4.024911 0.784213 -0.901837
3.998251 0.799740 -0.904824
4.028135 0.841170 -0.875945
4.063969 0.826779 -0.870523
4.021688 0.781853 -0.886278
3.995027 0.797380 -0.889264
4.067418 0.828906 -0.886064
4.102658 0.808192 -0.880769
4.047768 0.762589 -0.898876
4.025137 0.783980 -0.901820
4.063803 0.826976 -0.870532
4.099043 0.806263 -0.865237
4.044153 0.760660 -0.883343
4.021522 0.782051 -0.886287
3.990564 1.028389 -0.860126
4.060239 1.017391 -0.855197
4.052224 0.968923 -0.868611
3.976107 0.982120 -0.874822
3.988700 1.024258 -0.844715
4.058376 1.013260 -0.839786
4.050361 0.964792 -0.853199
3.974243 0.977989 -0.859411
4.060524 1.017246 -0.855196
4.130128 1.007621 -0.847369
4.130796 0.955518 -0.860252
4.052509 0.968779 -0.868610
4.058238 1.013381 -0.839773
4.127842 1.003755 -0.831946
4.128509 0.951652 -0.844829
4.050223 0.964913 -0.853187
4.130363 1.007741 -0.847300
4.181803 1.003566 -0.838575
4.196512 0.955786 -0.849941
4.131031 0.955638 -0.860183
4.127739 1.003622 -0.831997
4.179179 0.999446 -0.823272
4.193887 0.951666 -0.834637
4.128407 0.951519 -0.844880
3.976109 0.981414 -0.874979
4.052226 0.968217 -0.868768
4.025972 0.922753 -0.879461
3.963972 0.934083 -0.885552
3.974211 0.978601 -0.859278
4.050328 0.965404 -0.853067
4.024074 0.919940 -0.863760
3.962074 0.931270 -0.869851
4.052413 0.967994 -0.868781
4.130700 0.954733 -0.860423
4.088166 0.911247 -0.872554
4.026159 0.922529 -0.879475
4.050280 0.965603 -0.853040
4.128567 0.952343 -0.844682
4.086033 0.908857 -0.856813
4.024027 0.920139 -0.863733
4.130951 0.954472 -0.860422
4.196432 0.954620 -0.850179
4.149295 0.901028 -0.863909
4.088417 0.910987 -0.872553
4.128450 0.952586 -0.844666
4.193930 0.952733 -0.834424
4.146794 0.899141 -0.848154
4.085916 0.909100 -0.856797
3.991760 1.041719 -0.854490
4.055286 1.032345 -0.849611
4.054873 1.024760 -0.849929
3.991850 1.034409 -0.854158
3.990613 1.041758 -0.838467
4.054138 1.032384 -0.833588
4.053726 1.024799 -0.833906
3.990703 1.034448 -0.838135
3.992441 1.039024 -0.852628
4.055464 1.029375 -0.848399
4.060476 1.019957 -0.853960
3.990800 1.030955 -0.858889
3.990114 1.029816 -0.839672
4.053137 1.020168 -0.835443
4.058149 1.010750 -0.841003
3.988473 1.021748 -0.845933
4.055127 1.025214 -0.849896
4.055540 1.032800 -0.849577
4.118869 1.022161 -0.843963
4.117869 1.014516 -0.844628
4.053598 1.024325 -0.833930
4.054011 1.031910 -0.833611
4.117340 1.021272 -0.827996
4.116340 1.013626 -0.828662
4.118439 1.018492 -0.843214
4.130312 1.010148 -0.846215
4.060708 1.019773 -0.854043
4.055697 1.029191 -0.848482
4.115779 1.009633 -0.830081
4.127652 1.001288 -0.833082
4.058049 1.010913 -0.840909
4.053037 1.020332 -0.835348
4.181335 1.002178 -0.838876
4.118021 1.014698 -0.844600
4.119021 1.022344 -0.843935
4.182182 1.007056 -0.838338
4.179628 1.000899 -0.822955
4.116315 1.013419 -0.828679
4.117315 1.021065 -0.828013
4.180476 1.005778 -0.822416
3.095492 1.201638 -0.839695
3.164530 1.195318 -0.836049
3.168362 1.181153 -0.862514
3.099493 1.185473 -0.866175
3.094002 1.187665 -0.831911
3.163040 1.181345 -0.828265
3.166872 1.167180 -0.854730
3.098003 1.171500 -0.858391
3.164606 1.195490 -0.835707
3.234408 1.189227 -0.832294
3.237573 1.176436 -0.858688
3.168438 1.181325 -0.862172
3.163103 1.181162 -0.828600
3.232905 1.174899 -0.825187
3.236071 1.162109 -0.851581
3.166935 1.166998 -0.855064
3.234487 1.189261 -0.832206
3.303607 1.183536 -0.829449
3.305075 1.170537 -0.855584
3.237653 1.176471 -0.858601
3.232963 1.174853 -0.825268
3.302083 1.169128 -0.822510
3.303551 1.156129 -0.848645
3.236129 1.162063 -0.851662
3.303703 1.183551 -0.829395
3.372929 1.176884 -0.826498
3.374021 1.164749 -0.852896
3.305171 1.170552 -0.855530
3.302124 1.169101 -0.822559
3.371350 1.162434 -0.819661
3.372441 1.150298 -0.846059
3.303592 1.156102 -0.848693
3.373004 1.176944 -0.826350
3.441981 1.170595 -0.823365
3.442274 1.158758 -0.850025
3.374095 1.164809 -0.852748
3.371413 1.162362 -0.819803
3.440390 1.156012 -0.816818
3.440683 1.144176 -0.843477
3.372504 1.150226 -0.846201
3.442118 1.170633 -0.823241
3.510347 1.163648 -0.820005
3.510403 1.152389 -0.846987
3.442410 1.158797 -0.849901
3.440390 1.155961 -0.816935
3.508619 1.148976 -0.813698
3.508676 1.137716 -0.840680
3.440683 1.144124 -0.843595
3.099303 1.182364 -0.869304
3.168172 1.178044 -0.865643
3.171644 1.150789 -0.881196
3.104051 1.154287 -0.883922
3.098201 1.174566 -0.855303
3.167070 1.170246 -0.851642
3.170542 1.142991 -0.867195
3.102949 1.146489 -0.869922
3.168273 1.178269 -0.865504
3.237409 1.173381 -0.862021
3.239733 1.146929 -0.878272
3.171746 1.151014 -0.881057
3.167105 1.170013 -0.851774
3.236241 1.165124 -0.848291
3.238565 1.138672 -0.864542
3.170578 1.142757 -0.867327
3.237535 1.173551 -0.861904
3.304957 1.167617 -0.858887
3.306516 1.141884 -0.875530
3.239859 1.147099 -0.878155
3.236251 1.164944 -0.848401
3.303673 1.159010 -0.845385
3.305232 1.133277 -0.862027
3.238575 1.138492 -0.864652
3.304981 1.167741 -0.858805
3.373831 1.161937 -0.856170
3.374614 1.137456 -0.872681
3.306540 1.142008 -0.875447
3.303785 1.158876 -0.845462
3.372634 1.153072 -0.842827
3.373417 1.128590 -0.859339
3.305344 1.133143 -0.862104
3.373935 1.162053 -0.856082
3.442113 1.156002 -0.853359
3.441655 1.132741 -0.869823
3.374718 1.137571 -0.872593
3.372666 1.152946 -0.842910
3.440844 1.146896 -0.840186
3.440386 1.123635 -0.856650
3.373449 1.128464 -0.859421
3.442229 1.156131 -0.853257
3.510222 1.149722 -0.850342
3.508587 1.127603 -0.866887
3.441770 1.132870 -0.869721
3.440864 1.146757 -0.840283
3.508857 1.140348 -0.837368
3.507222 1.118229 -0.853914
3.440405 1.123495 -0.856747
3.103949 1.153340 -0.884381
3.171542 1.149841 -0.881654
3.174650 1.119555 -0.893684
3.107925 1.124017 -0.895791
3.103060 1.147379 -0.869490
3.170653 1.143880 -0.866764
3.173761 1.113594 -0.878794
3.107036 1.118055 -0.880900
3.171633 1.149893 -0.881628
3.239620 1.145808 -0.878842
3.241792 1.115319 -0.891342
3.174742 1.119607 -0.893658
3.170696 1.143821 -0.866785
3.238683 1.139735 -0.864000
3.240855 1.109247 -0.876500
3.173804 1.113534 -0.878816
3.239731 1.145880 -0.878805
3.306389 1.140665 -0.876179
3.308356 1.111529 -0.888518
3.241903 1.115391 -0.891305
3.238706 1.139655 -0.864032
3.305363 1.134440 -0.861406
3.307331 1.105304 -0.873745
3.240878 1.109166 -0.876532
3.306431 1.140752 -0.876139
3.374505 1.136199 -0.873374
3.374746 1.107820 -0.885959
3.308398 1.111615 -0.888478
3.305455 1.134345 -0.861441
3.373529 1.129793 -0.858675
3.373770 1.101413 -0.871261
3.307423 1.105208 -0.873779
3.374610 1.136270 -0.873335
3.441546 1.131441 -0.870565
3.440626 1.103658 -0.883206
3.374851 1.107891 -0.885921
3.373557 1.129713 -0.858708
3.440494 1.124884 -0.855938
3.439574 1.097101 -0.868579
3.373799 1.101333 -0.871294
3.441650 1.131476 -0.870541
3.508466 1.126210 -0.867708
3.507115 1.099012 -0.880264
3.440729 1.103694 -0.883182
3.440524 1.124839 -0.855956
3.507341 1.119572 -0.853123
3.505990 1.092374 -0.865679
3.439604 1.097056 -0.868597
3.510543 1.163686 -0.819857
3.572571 1.156328 -0.816756
3.571908 1.145628 -0.843860
3.510600 1.152426 -0.846838
3.508553 1.148924 -0.813841
3.570580 1.141567 -0.810740
3.569917 1.130866 -0.837845
3.508609 1.137665 -0.840822
3.572635 1.156368 -0.816634
3.634671 1.149000 -0.813529
3.633265 1.138846 -0.840750
3.571972 1.145668 -0.843739
3.570640 1.141513 -0.810856
3.632677 1.134144 -0.807751
3.631271 1.123991 -0.834971
3.569977 1.130812 -0.837960
3.634737 1.149037 -0.813409
3.696751 1.141635 -0.810310
3.694643 1.132023 -0.837637
3.633331 1.138883 -0.840629
3.632735 1.134093 -0.807865
3.694749 1.126691 -0.804767
3.692641 1.117079 -0.832093
3.631329 1.123940 -0.835085
3.696962 1.141626 -0.810251
3.758866 1.133195 -0.807198
3.756427 1.123780 -0.834151
3.694855 1.132014 -0.837577
3.694661 1.126684 -0.804820
3.756564 1.118253 -0.801768
3.754125 1.108838 -0.828720
3.692553 1.117072 -0.832147
3.758926 1.133188 -0.807191
3.820824 1.124765 -0.804144
3.818072 1.115554 -0.830718
3.756487 1.123773 -0.834144
3.756628 1.118243 -0.801768
3.818526 1.109820 -0.798721
3.815774 1.100609 -0.825295
3.754189 1.108828 -0.828721
3.820888 1.124758 -0.804137
3.882787 1.116325 -0.801085
3.879720 1.107319 -0.827267
3.818136 1.115547 -0.830711
3.818586 1.109810 -0.798722
3.880485 1.101378 -0.795670
3.877418 1.092371 -0.821852
3.815834 1.100600 -0.825295
3.882997 1.116301 -0.801056
3.946878 1.106324 -0.797548
3.942511 1.098047 -0.823021
3.879929 1.107295 -0.827238
3.880401 1.101384 -0.795691
3.944282 1.091407 -0.792183
3.939916 1.083129 -0.817656
3.877334 1.092377 -0.821873
3.947006 1.106323 -0.797486
4.006533 1.096525 -0.794076
4.003767 1.088575 -0.818485
3.942640 1.098046 -0.822959
3.944278 1.091388 -0.792237
4.003805 1.081590 -0.788827
4.001039 1.073640 -0.813236
3.939911 1.083111 -0.817710
3.510416 1.149829 -0.850240
3.571724 1.143031 -0.847262
3.570031 1.121026 -0.864300
3.508782 1.127710 -0.866786
3.508791 1.140228 -0.837464
3.570099 1.133430 -0.834487
3.568405 1.111425 -0.851524
3.507156 1.118109 -0.854010
3.571794 1.143132 -0.847176
3.633088 1.136310 -0.844187
3.631363 1.114452 -0.861741
3.570101 1.121127 -0.864214
3.570151 1.133316 -0.834567
3.631445 1.126494 -0.831578
3.629721 1.104636 -0.849132
3.568458 1.111311 -0.851604
3.633161 1.136412 -0.844097
3.694473 1.129552 -0.841105
3.692697 1.107862 -0.859161
3.631436 1.114554 -0.861651
3.631495 1.126379 -0.831663
3.692808 1.119518 -0.828671
3.691032 1.097828 -0.846727
3.629771 1.104521 -0.849217
3.694686 1.129647 -0.840995
3.756258 1.121413 -0.837568
3.753665 1.100785 -0.855672
3.692910 1.107957 -0.859051
3.692717 1.119409 -0.828774
3.754289 1.111175 -0.825348
3.751696 1.090546 -0.843452
3.690941 1.097718 -0.846831
3.756330 1.121539 -0.837449
3.817916 1.113320 -0.834023
3.814483 1.093729 -0.852163
3.753737 1.100911 -0.855553
3.754340 1.111034 -0.825460
3.815925 1.102815 -0.822034
3.812493 1.083223 -0.840174
3.751746 1.090406 -0.843564
3.817987 1.113451 -0.833894
3.879571 1.105222 -0.830450
3.875309 1.086687 -0.848656
3.814555 1.093860 -0.852033
3.815976 1.102668 -0.822157
3.877559 1.094440 -0.818713
3.873298 1.075905 -0.836920
3.812544 1.083077 -0.840297
3.879786 1.105325 -0.830313
3.942369 1.096077 -0.826096
3.936774 1.078370 -0.844654
3.875525 1.086790 -0.848519
3.877468 1.094320 -0.818843
3.940050 1.085072 -0.814626
3.934456 1.067365 -0.833184
3.873206 1.075785 -0.837049
3.942516 1.096175 -0.825969
4.003644 1.086704 -0.821495
3.999853 1.069119 -0.840294
3.936922 1.078468 -0.844527
3.940027 1.084956 -0.814745
4.001154 1.075485 -0.810270
3.997364 1.057900 -0.829069
3.934432 1.067249 -0.833303
3.508627 1.126211 -0.867694
3.569876 1.119527 -0.865208
3.567918 1.093121 -0.877432
3.507276 1.099013 -0.880250
3.507308 1.119560 -0.853131
3.568556 1.112876 -0.850645
3.566598 1.086470 -0.862870
3.505956 1.092362 -0.865687
3.569935 1.119514 -0.865208
3.631198 1.112839 -0.862736
3.628608 1.087219 -0.874626
3.567976 1.093108 -0.877433
3.568620 1.112876 -0.850639
3.629882 1.106201 -0.848167
3.627293 1.080581 -0.860057
3.566661 1.086470 -0.862864
3.631259 1.112829 -0.862735
3.692521 1.106136 -0.860245
3.689328 1.081319 -0.871822
3.628670 1.087209 -0.874626
3.629943 1.106199 -0.848162
3.691204 1.099507 -0.845672
3.688011 1.074689 -0.857249
3.627353 1.080579 -0.860053
3.692711 1.106126 -0.860231
3.753465 1.098954 -0.856852
3.750026 1.074499 -0.868417
3.689519 1.081309 -0.871808
3.691135 1.099504 -0.845680
3.751890 1.092332 -0.842301
3.748451 1.067877 -0.853866
3.687943 1.074687 -0.857258
3.753530 1.098979 -0.856833
3.814277 1.091797 -0.853443
3.810604 1.067715 -0.865003
3.750091 1.074524 -0.868398
3.751946 1.092293 -0.842313
3.812693 1.085111 -0.838923
3.809020 1.061029 -0.850483
3.748507 1.067838 -0.853878
3.814339 1.091823 -0.853424
3.875093 1.084651 -0.850047
3.871174 1.060935 -0.861597
3.810666 1.067742 -0.864984
3.812752 1.085070 -0.838935
3.873506 1.077898 -0.835558
3.869588 1.054182 -0.847108
3.809079 1.060989 -0.850495
3.875265 1.084682 -0.850012
3.936514 1.076263 -0.846147
3.930563 1.053499 -0.857845
3.871346 1.060966 -0.861562
3.873456 1.077851 -0.835586
3.934706 1.069432 -0.831721
3.928754 1.046667 -0.843419
3.869537 1.054135 -0.847136
3.936650 1.076326 -0.846099
3.999582 1.066977 -0.841866
3.992106 1.045250 -0.853646
3.930699 1.053562 -0.857797
3.934692 1.069351 -0.831761
3.997624 1.060002 -0.827528
