3.678740 0.892628 0.839063
3.678334 0.900241 0.796724
3.678364 0.912961 0.794075
3.678227 0.906210 0.783893
3.621922 0.906367 0.786424
3.621872 0.913359 0.797793
3.678721 0.901240 0.801549
3.678583 0.894488 0.791366
3.622279 0.894645 0.793897
3.622228 0.901637 0.805267
3.621635 0.913449 0.797955
3.621686 0.906457 0.786586
3.565477 0.904903 0.789363
3.565205 0.911945 0.801372
3.622352 0.901546 0.805110
3.622402 0.894554 0.793741
3.566194 0.893001 0.796518
3.565922 0.900043 0.808527
3.564729 0.911902 0.801376
3.565001 0.904860 0.789367
3.509011 0.899323 0.792710
3.508440 0.906369 0.804168
3.566286 0.900079 0.808530
3.566557 0.893037 0.796520
3.510567 0.887500 0.799863
3.509996 0.894546 0.811322
3.507970 0.906255 0.804110
3.508541 0.899209 0.792652
3.453112 0.890069 0.796257
3.452248 0.897218 0.807918
3.510354 0.894646 0.811386
3.510925 0.887600 0.799928
3.455496 0.878460 0.803533
3.454632 0.885610 0.815194
3.451593 0.896982 0.807818
3.452457 0.889832 0.796158
3.398359 0.874714 0.800108
3.397384 0.881146 0.809589
3.455177 0.885822 0.815300
3.456042 0.878672 0.803639
3.401944 0.863554 0.807589
3.400969 0.869986 0.817071
3.678478 0.907154 0.789034
3.621742 0.909939 0.778940
3.622174 0.907311 0.791566
3.678313 0.893539 0.786206
3.621577 0.896324 0.776112
3.622008 0.893696 0.788737
3.621915 0.907316 0.791533
3.621484 0.909945 0.778907
3.564569 0.909968 0.773139
3.565706 0.905763 0.794310
3.622172 0.893691 0.788766
3.621741 0.896319 0.776140
3.564826 0.896343 0.770372
3.565964 0.892137 0.791543
3.565177 0.905740 0.794281
3.564039 0.909946 0.773110
3.506731 0.904150 0.776284
3.509187 0.900204 0.797624
3.566380 0.892154 0.791573
3.565243 0.896359 0.770403
3.507935 0.890564 0.773577
3.510390 0.886617 0.794916
3.508599 0.900167 0.797416
3.506144 0.904114 0.776077
3.449600 0.893525 0.778239
3.453170 0.891027 0.801021
3.510865 0.886638 0.795130
3.508410 0.890585 0.773791
3.451866 0.879997 0.775953
3.455436 0.877498 0.798735
3.452314 0.890889 0.800601
3.448744 0.893388 0.777819
3.393747 0.876168 0.779035
3.398216 0.875771 0.804551
3.456182 0.877610 0.799161
3.452612 0.880108 0.776379
3.397616 0.862888 0.777595
3.402084 0.862492 0.803111
3.677262 0.907008 0.789232
3.676142 0.910989 0.770992
3.627392 0.907311 0.752915
3.627774 0.903134 0.769107
3.679553 0.893684 0.785975
3.678433 0.897665 0.767735
3.629683 0.893987 0.749658
3.630064 0.889810 0.765850
3.627459 0.903058 0.769168
3.627078 0.907235 0.752976
3.578751 0.901591 0.734611
3.578056 0.897670 0.749407
3.630280 0.889877 0.765752
3.629899 0.894054 0.749559
3.581572 0.888410 0.731195
3.580877 0.884488 0.745991
3.577277 0.897483 0.749305
3.577973 0.901405 0.734508
3.530727 0.890539 0.715373
3.528300 0.885694 0.731074
3.581559 0.884658 0.746056
3.582254 0.888579 0.731260
3.535008 0.877714 0.712124
3.532582 0.872868 0.727825
3.527727 0.885500 0.730977
3.530153 0.890345 0.715276
3.484148 0.875495 0.696143
3.480266 0.869765 0.712194
3.533060 0.873035 0.727885
3.535487 0.877881 0.712184
3.489481 0.863030 0.693051
3.485599 0.857300 0.709102
3.479688 0.869571 0.711827
3.483570 0.875301 0.695775
3.439456 0.855247 0.676813
3.433636 0.849401 0.693384
3.486085 0.857458 0.709431
3.489967 0.863188 0.693380
3.445853 0.843134 0.674418
3.440033 0.837288 0.690989
3.433542 0.849456 0.692604
3.439362 0.855302 0.676033
3.396497 0.832347 0.657266
3.387756 0.828057 0.674849
3.440037 0.837191 0.691733
3.445858 0.843037 0.675162
3.402993 0.820082 0.656396
3.394251 0.815792 0.673978
3.163057 0.544030 0.819548
3.162585 0.552809 0.862222
3.176412 0.605630 0.864133
3.176221 0.597096 0.819256
3.176511 0.540589 0.820272
3.176039 0.549368 0.862946
3.189866 0.602189 0.864857
3.189676 0.593655 0.819979
3.176391 0.597678 0.819339
3.176582 0.606212 0.864217
3.194999 0.657695 0.864891
3.193361 0.649665 0.819312
3.189537 0.593178 0.819897
3.189728 0.601712 0.864775
3.208145 0.653195 0.865449
3.206507 0.645166 0.819870
3.193544 0.650155 0.819381
3.195183 0.658184 0.864960
3.216545 0.708535 0.864711
3.214509 0.700645 0.818696
3.206362 0.644778 0.819801
3.208001 0.652808 0.865380
3.229362 0.703158 0.865131
3.227327 0.695268 0.819116
3.214724 0.701113 0.818695
3.216760 0.709003 0.864710
3.241407 0.757590 0.864368
3.238821 0.749983 0.818179
3.227157 0.694899 0.819116
3.229193 0.702789 0.865131
3.253840 0.751375 0.864789
3.251253 0.743768 0.818601
3.239217 0.750676 0.818128
3.241803 0.758284 0.864317
3.271528 0.804189 0.863813
3.268596 0.796792 0.817911
3.250911 0.743169 0.818651
3.253497 0.750777 0.864839
3.283223 0.796682 0.864335
3.280290 0.789286 0.818433
3.270036 0.798409 0.817714
3.272969 0.805805 0.863616
3.315099 0.839462 0.858533
3.311326 0.833700 0.816032
3.278921 0.787750 0.818626
3.281853 0.795146 0.864529
3.323983 0.828802 0.859445
3.320210 0.823041 0.816945
3.311597 0.833930 0.816243
3.315370 0.839691 0.858744
3.359082 0.871749 0.853076
3.354591 0.867662 0.814370
3.320024 0.822879 0.816726
3.323797 0.828640 0.859227
3.367509 0.860697 0.853558
3.363018 0.856610 0.814852
3.162611 0.552917 0.862255
3.162204 0.561684 0.904936
3.176675 0.614259 0.909036
3.176439 0.605738 0.864167
3.176012 0.549277 0.863000
3.175605 0.558044 0.905681
3.190075 0.610619 0.909781
3.189839 0.602098 0.864912
3.176648 0.606399 0.864226
3.176884 0.614920 0.909095
3.196635 0.665948 0.910476
3.195066 0.657883 0.864900
3.189663 0.601541 0.864857
3.189899 0.610062 0.909726
3.209650 0.661090 0.911107
3.208080 0.653024 0.865531
3.195208 0.658245 0.864987
3.196777 0.666311 0.910563
3.218568 0.716485 0.910765
3.216570 0.708596 0.864738
3.207979 0.652763 0.865445
3.209549 0.660828 0.911020
3.231339 0.711002 0.911222
3.229341 0.703113 0.865195
3.216800 0.709085 0.864741
3.218798 0.716974 0.910768
3.244054 0.765278 0.910577
3.241447 0.757671 0.864398
3.229157 0.702723 0.865193
3.231155 0.710612 0.911220
3.256411 0.758916 0.911029
3.253804 0.751309 0.864850
3.241832 0.758331 0.864355
3.244439 0.765937 0.910533
3.274478 0.811649 0.909749
3.271557 0.804236 0.863851
3.253474 0.750744 0.864893
3.256081 0.758351 0.911071
3.286120 0.804062 0.910287
3.283199 0.796649 0.864390
3.273124 0.805931 0.863622
3.276045 0.813344 0.909520
3.318972 0.845415 0.900996
3.315254 0.839588 0.858539
3.281705 0.795033 0.864611
3.284625 0.802445 0.910508
3.327552 0.834516 0.901985
3.323834 0.828689 0.859528
3.315543 0.839819 0.858743
3.319261 0.845646 0.901201
3.363739 0.875984 0.891782
3.359255 0.871876 0.853075
3.323632 0.828522 0.859309
3.327350 0.834349 0.901766
3.371828 0.864688 0.892347
3.367345 0.860580 0.853640
3.356469 0.860928 0.801880
3.314750 0.826949 0.801809
3.312018 0.833048 0.812945
3.355013 0.866780 0.811071
3.364051 0.851630 0.808910
3.322332 0.817650 0.808839
3.319600 0.823749 0.819974
3.362595 0.857481 0.818100
3.314515 0.826708 0.801758
3.274841 0.790897 0.801964
3.270494 0.797516 0.814575
3.311783 0.832807 0.812893
3.322484 0.817822 0.808893
3.282811 0.782012 0.809098
3.278463 0.788630 0.821709
3.319753 0.823921 0.820028
3.273736 0.789566 0.801946
3.244787 0.744243 0.803584
3.240010 0.750068 0.814775
3.269389 0.796184 0.814557
3.283846 0.783262 0.809118
3.254897 0.737940 0.810756
3.250120 0.743764 0.821946
3.279499 0.789880 0.821729
3.244546 0.743550 0.803389
3.221450 0.695201 0.804210
3.215673 0.700505 0.815095
3.239770 0.749374 0.814579
3.255084 0.738539 0.810953
3.231988 0.690189 0.811775
3.226211 0.695494 0.822659
3.250307 0.744363 0.822144
3.221387 0.694776 0.804042
3.201246 0.644870 0.804456
3.194646 0.649591 0.815611
3.215611 0.700081 0.814926
3.232007 0.690515 0.811944
3.211866 0.640608 0.812359
3.205265 0.645329 0.823514
3.226230 0.695819 0.822828
3.200963 0.644594 0.804713
3.184847 0.593367 0.801364
3.177393 0.597327 0.815895
3.194363 0.649315 0.815868
3.212111 0.640782 0.812101
3.195995 0.589555 0.808751
3.188541 0.593516 0.823283
3.205511 0.645503 0.823256
3.184777 0.592594 0.801152
3.176191 0.539499 0.800002
3.164159 0.543488 0.815975
3.177324 0.596554 0.815683
3.196036 0.590224 0.808961
3.187450 0.537129 0.807812
3.175418 0.541118 0.823785
3.188583 0.594184 0.823493
3.423485 0.797457 0.568675
3.442155 0.759771 0.532425
3.407923 0.727605 0.512705
3.390392 0.766529 0.543613
3.424644 0.788635 0.579363
3.443313 0.750949 0.543112
3.409082 0.718783 0.523392
3.391550 0.757707 0.554300
3.442320 0.759127 0.531935
3.461914 0.716927 0.501626
3.422529 0.684060 0.484146
3.408088 0.726961 0.512215
3.443183 0.751512 0.543539
3.462777 0.709312 0.513230
3.423392 0.676446 0.495750
3.408952 0.719346 0.523819
3.461787 0.716922 0.501634
3.483518 0.675143 0.472112
3.432362 0.639714 0.453059
3.422402 0.684056 0.484154
3.462937 0.709231 0.513162
3.484667 0.667451 0.483640
3.433512 0.632023 0.464587
3.423552 0.676365 0.495683
3.390557 0.766038 0.543227
3.408089 0.727114 0.512319
3.377221 0.697695 0.496805
3.359706 0.732454 0.519246
3.391320 0.758135 0.554643
3.408851 0.719211 0.523735
3.377983 0.689791 0.508222
3.360469 0.724550 0.530662
3.407837 0.726547 0.511984
3.422278 0.683646 0.483916
3.387799 0.652025 0.471720
3.376969 0.697127 0.496471
3.409133 0.719697 0.524017
3.423574 0.676797 0.495948
3.389095 0.645175 0.483753
3.378265 0.690278 0.508503
3.421432 0.683609 0.484048
3.431393 0.639268 0.452952
3.400891 0.586019 0.432020
3.386954 0.651988 0.471852
3.424443 0.676734 0.495754
3.434404 0.632393 0.464659
3.403902 0.579144 0.443727
3.389965 0.645113 0.483559
3.359669 0.732013 0.518966
3.377183 0.697254 0.496525
3.353163 0.678341 0.487556
3.333010 0.693419 0.497137
3.360449 0.724930 0.530907
3.377964 0.690171 0.508467
3.353943 0.671258 0.499498
3.333790 0.686336 0.509079
3.377083 0.696758 0.496263
3.387913 0.651655 0.471513
3.349487 0.642933 0.471835
3.353063 0.677845 0.487294
3.378086 0.690603 0.508692
3.388916 0.645500 0.483942
3.350490 0.636778 0.484265
3.354066 0.671690 0.499724
3.386909 0.651445 0.471574
3.400847 0.585476 0.431742
3.346196 0.590538 0.452622
3.348482 0.642723 0.471897
3.389930 0.645611 0.483831
3.403868 0.579643 0.443998
3.349217 0.584704 0.464879
3.351504 0.636889 0.484153
3.332854 0.692808 0.496824
3.353007 0.677731 0.487243
3.349431 0.642819 0.471784
3.309760 0.650494 0.477992
3.333907 0.686879 0.509359
3.354060 0.671802 0.499778
3.350484 0.636890 0.484319
3.310813 0.644564 0.490526
3.309852 0.649978 0.477765
3.349522 0.642304 0.471557
3.347236 0.590119 0.452283
3.290842 0.604851 0.460977
3.310698 0.644993 0.490719
3.350369 0.637318 0.484511
3.348082 0.585133 0.465237
3.291689 0.599865 0.473931
3.665191 0.885484 0.625666
3.664587 0.845283 0.584745
3.615377 0.840647 0.586748
3.610246 0.884501 0.634641
3.666736 0.875486 0.635207
3.666132 0.835285 0.594287
3.616922 0.830649 0.596289
3.611791 0.874504 0.644182
3.610267 0.884567 0.634708
3.615398 0.840712 0.586815
3.567396 0.830472 0.582783
3.557666 0.873694 0.630965
3.611668 0.874424 0.644117
3.616799 0.830570 0.596224
3.568797 0.820329 0.592193
3.559067 0.863551 0.640374
3.557654 0.873655 0.630925
3.567385 0.830434 0.582744
3.522206 0.812926 0.571158
3.508671 0.853256 0.615293
3.558981 0.863560 0.640396
3.568711 0.820338 0.592215
3.523533 0.802831 0.580629
3.509998 0.843161 0.624765
3.508629 0.853140 0.615178
3.522164 0.812809 0.571042
3.481094 0.789095 0.553322
3.465828 0.825962 0.592218
3.509951 0.843233 0.624847
3.523486 0.802903 0.580711
3.482416 0.779188 0.562991
3.467149 0.816055 0.601887
3.465803 0.825749 0.592011
3.481069 0.788882 0.553115
3.442127 0.760157 0.532770
3.423457 0.797843 0.569021
3.467092 0.816215 0.602052
3.482358 0.779348 0.563156
3.443416 0.750623 0.542811
3.424746 0.788309 0.579062
3.664761 0.844872 0.584322
3.663545 0.802006 0.546372
3.621873 0.796779 0.546101
3.615551 0.840235 0.586325
3.665963 0.835611 0.594626
3.664746 0.792746 0.556677
3.623074 0.787518 0.556405
3.616753 0.830975 0.596629
3.615527 0.840247 0.586339
3.621848 0.796791 0.546114
3.577387 0.787260 0.542674
3.567525 0.830007 0.582307
3.616685 0.830948 0.596612
3.623006 0.787491 0.556388
3.578546 0.777960 0.552948
3.568683 0.820707 0.592581
3.567509 0.829925 0.582235
3.577371 0.787177 0.542602
3.534169 0.771790 0.534576
3.522330 0.812417 0.570649
3.568609 0.820764 0.592639
3.578472 0.778016 0.553006
3.535270 0.762629 0.544980
3.523431 0.803256 0.581054
3.522399 0.812242 0.570493
3.534238 0.771615 0.534420
3.496035 0.750250 0.521350
3.481329 0.788527 0.552773
3.523279 0.803392 0.581184
3.535118 0.762766 0.545110
3.496915 0.741400 0.532041
3.482209 0.779678 0.563464
3.481308 0.788186 0.552508
3.496013 0.749908 0.521085
3.461959 0.717261 0.501855
3.442365 0.759461 0.532164
3.482154 0.779966 0.563694
3.496860 0.741689 0.532271
3.462806 0.709041 0.513040
3.443212 0.751242 0.543349
3.663686 0.801523 0.545959
3.662249 0.755693 0.511539
3.633471 0.751826 0.510811
3.622014 0.796296 0.545687
3.664612 0.793141 0.557016
3.663174 0.747310 0.522596
3.634397 0.743443 0.521868
3.622940 0.787913 0.556744
3.621972 0.796312 0.545703
3.633429 0.751842 0.510827
3.588569 0.744285 0.508746
3.577511 0.786780 0.542263
3.622902 0.787884 0.556725
3.634359 0.743414 0.521849
3.589500 0.735857 0.519768
3.578442 0.778353 0.553285
3.577423 0.786738 0.542238
3.588481 0.744243 0.508721
3.542742 0.732569 0.504468
3.534221 0.771351 0.534212
3.578440 0.778373 0.553300
3.589499 0.735878 0.519783
3.543760 0.724204 0.515531
3.535239 0.762986 0.545274
3.534190 0.771204 0.534106
3.542712 0.732422 0.504363
3.507445 0.719294 0.499120
3.495988 0.749839 0.521037
3.535188 0.763102 0.545364
3.543710 0.724320 0.515621
3.508443 0.711192 0.510378
3.496985 0.741737 0.532295
3.495935 0.749619 0.520889
3.507393 0.719074 0.498972
3.483611 0.675192 0.472136
3.461881 0.716972 0.501658
3.496972 0.741901 0.532410
3.508429 0.711356 0.510493
3.484648 0.667474 0.483657
3.462918 0.709254 0.513179
3.662366 0.755189 0.511179
3.662235 0.706765 0.480408
3.633589 0.751321 0.510452
3.663071 0.747739 0.522900
3.662940 0.699315 0.492129
3.634294 0.743871 0.522173
3.633618 0.751395 0.510498
3.662264 0.706838 0.480454
3.601695 0.702151 0.479799
3.588759 0.743838 0.508416
3.634202 0.743774 0.522115
3.662848 0.699218 0.492071
3.602278 0.694530 0.491416
3.589342 0.736218 0.520034
3.588566 0.743865 0.508446
3.601502 0.702178 0.479829
3.541618 0.692393 0.477682
3.542828 0.732192 0.504194
3.589429 0.736173 0.519999
3.602365 0.694486 0.491382
3.542481 0.684701 0.489235
3.543691 0.724500 0.515746
3.542625 0.732181 0.504204
3.541415 0.692382 0.477692
3.483576 0.675171 0.472125
3.507358 0.719052 0.498961
3.543794 0.724485 0.515727
3.542585 0.684686 0.489216
3.484746 0.667475 0.483648
3.508528 0.711357 0.510484
3.287828 0.606599 0.463138
3.277085 0.575248 0.450830
3.230056 0.581458 0.483457
3.258151 0.611257 0.501205
3.294586 0.598057 0.471784
3.283843 0.566706 0.459476
3.236814 0.572917 0.492103
3.264909 0.602715 0.509851
3.277797 0.574613 0.449858
3.267553 0.543243 0.437895
3.216580 0.543160 0.458736
3.230769 0.580824 0.482485
3.283098 0.567276 0.460415
3.272854 0.535906 0.448452
3.221880 0.535823 0.469292
3.236070 0.573486 0.493042
3.228811 0.580834 0.484061
3.214621 0.543171 0.460312
3.177658 0.531200 0.497701
3.199018 0.577711 0.513479
3.237946 0.573471 0.491526
3.223756 0.535808 0.467776
3.186793 0.523837 0.505165
3.208153 0.570348 0.520943
3.346367 0.590228 0.452443
3.401018 0.585167 0.431563
3.390349 0.546830 0.424734
3.329669 0.537385 0.426503
3.349038 0.584909 0.465012
3.403688 0.579848 0.444131
3.393019 0.541511 0.437302
3.332339 0.532066 0.439071
3.356637 0.868737 0.814163
3.361128 0.872824 0.852869
3.396921 0.882135 0.812911
3.361041 0.855576 0.815042
3.365532 0.859663 0.853748
3.401326 0.868974 0.813789
3.360415 0.872513 0.852584
3.364898 0.876621 0.891291
3.401109 0.891469 0.852164
3.396208 0.881824 0.812626
3.366265 0.859987 0.854084
3.370749 0.864095 0.892791
3.406959 0.878943 0.853664
3.402059 0.869298 0.814126
3.398182 0.874584 0.800005
3.358378 0.861767 0.801548
3.356922 0.867619 0.810739
3.397206 0.881016 0.809487
3.402028 0.863655 0.807696
3.362224 0.850838 0.809239
3.360768 0.856690 0.818430
3.401052 0.870088 0.817178
3.397829 0.875683 0.804069
3.393361 0.876080 0.778553
3.356870 0.862533 0.775265
3.358026 0.862866 0.805612
3.402378 0.862550 0.803596
3.397909 0.862947 0.778080
3.361418 0.849400 0.774792
3.362575 0.849733 0.805139
3.357071 0.862129 0.772548
3.393562 0.875675 0.775836
3.387451 0.857094 0.734098
3.369212 0.850299 0.732466
3.361217 0.849789 0.777440
3.397708 0.863336 0.780727
3.391597 0.844755 0.738989
3.373359 0.837960 0.737358
3.369209 0.850284 0.732432
3.387447 0.857080 0.734064
3.381341 0.838478 0.692339
3.373367 0.837949 0.737323
3.391606 0.844744 0.738955
3.385499 0.826143 0.697229
3.662165 0.706706 0.480376
3.662296 0.755130 0.511147
3.708662 0.752075 0.505086
3.711441 0.708699 0.478362
3.663077 0.699360 0.492148
3.663208 0.747783 0.522919
3.709574 0.744729 0.516858
3.712353 0.701352 0.490134
3.711603 0.708580 0.478279
3.708824 0.751956 0.505003
3.753881 0.746834 0.498665
3.760884 0.708034 0.475842
3.712286 0.701468 0.490209
3.709507 0.744844 0.516933
3.754564 0.739722 0.510595
3.761567 0.700922 0.487772
3.760964 0.707863 0.475738
3.753961 0.746662 0.498561
3.795514 0.739578 0.491709
3.809934 0.704145 0.471962
3.761579 0.701085 0.487866
3.754576 0.739885 0.510689
3.796129 0.732801 0.503837
3.810549 0.697368 0.484089
3.810037 0.703976 0.471866
3.795617 0.739409 0.491613
3.827361 0.732129 0.485930
3.858650 0.696940 0.466819
3.810531 0.697524 0.484175
3.796111 0.732957 0.503922
3.827855 0.725677 0.498238
3.859144 0.690488 0.479128
3.662184 0.755604 0.511478
3.663621 0.801434 0.545899
3.707631 0.794863 0.535697
3.708550 0.752550 0.505418
3.663320 0.747399 0.522648
3.664757 0.793229 0.557069
3.708767 0.786658 0.546866
3.709686 0.744344 0.516588
3.708652 0.752361 0.505275
3.707733 0.794675 0.535553
3.750584 0.785680 0.524368
3.753708 0.747239 0.498937
3.709673 0.744521 0.516714
3.708754 0.786834 0.546993
3.751605 0.777840 0.535808
3.754729 0.739398 0.510376
3.753706 0.746949 0.498748
3.750581 0.785390 0.524180
3.790852 0.774028 0.511952
3.795259 0.739864 0.491896
3.754817 0.739672 0.510546
3.751692 0.778114 0.535978
3.791962 0.766752 0.523750
3.796369 0.732588 0.503694
3.795416 0.739599 0.491727
3.791009 0.773763 0.511783
3.827721 0.759634 0.500590
3.827160 0.732319 0.486043
3.796287 0.732833 0.503845
3.791880 0.766997 0.523901
3.828593 0.752869 0.512707
3.828031 0.725553 0.498161
3.827205 0.732045 0.485895
3.827766 0.759360 0.500441
3.863316 0.740183 0.487528
3.858494 0.696856 0.466784
3.828054 0.725790 0.498286
3.828616 0.753105 0.512832
3.864165 0.733928 0.499919
3.859343 0.690601 0.479175
3.663510 0.801891 0.546276
3.664726 0.844757 0.584225
3.708692 0.835720 0.569559
3.707519 0.795320 0.536073
3.664871 0.792858 0.556760
3.666087 0.835723 0.594710
3.710053 0.826686 0.580043
3.708880 0.786287 0.546558
3.707591 0.795127 0.535903
3.708764 0.835526 0.569389
3.750752 0.822703 0.552823
3.750442 0.786132 0.524719
3.708895 0.786461 0.546701
3.710068 0.826861 0.580186
3.752055 0.814038 0.563621
3.751745 0.777467 0.535516
3.750378 0.785857 0.524517
3.750688 0.822428 0.552622
3.790641 0.807219 0.534629
3.790649 0.774496 0.512289
3.751891 0.777717 0.535689
3.752201 0.814288 0.563794
3.792154 0.799078 0.545802
3.792162 0.766355 0.523461
3.791024 0.774230 0.512065
3.791016 0.806953 0.534406
3.829785 0.790275 0.519826
3.827736 0.760101 0.500872
3.791865 0.766593 0.523656
3.791857 0.799315 0.545997
3.830626 0.782638 0.531417
3.828577 0.752464 0.512463
3.827870 0.759879 0.500723
3.829919 0.790053 0.519677
3.869412 0.781946 0.511883
3.863419 0.740702 0.487810
3.828519 0.752657 0.512589
3.830567 0.782831 0.531543
3.870061 0.774724 0.523749
3.864068 0.733480 0.499676
3.664625 0.845138 0.584592
3.665229 0.885339 0.625512
3.712582 0.876083 0.607533
3.708591 0.836100 0.569925
3.666192 0.835424 0.594419
3.666796 0.875625 0.635339
3.714149 0.866369 0.617360
3.710158 0.826387 0.579752
3.708723 0.835935 0.569747
3.712714 0.875917 0.607356
3.753912 0.857579 0.583624
3.750710 0.823112 0.553182
3.710113 0.826527 0.579893
3.714104 0.866509 0.617501
3.755302 0.848171 0.593770
3.752101 0.813704 0.563328
3.750662 0.822908 0.553006
3.753864 0.857375 0.583449
3.792921 0.835764 0.557777
3.790615 0.807698 0.535014
3.752230 0.813874 0.563461
3.755432 0.848341 0.593904
3.794489 0.826730 0.568232
3.792183 0.798664 0.545469
3.791216 0.807507 0.534798
3.793522 0.835572 0.557560
3.831564 0.809495 0.534737
3.829984 0.790829 0.520218
3.791660 0.798816 0.545644
3.793966 0.826881 0.568407
3.832008 0.800804 0.545584
3.830429 0.782139 0.531065
3.830036 0.790745 0.520149
3.831615 0.809411 0.534669
3.869530 0.782639 0.512356
3.830442 0.782189 0.531104
3.832021 0.800855 0.545624
3.869935 0.774083 0.523310
3.563827 0.909842 0.770027
3.530142 0.900864 0.749659
3.491526 0.895580 0.748036
3.506519 0.904047 0.773201
3.565428 0.896458 0.773443
3.531743 0.887480 0.753076
3.493127 0.882195 0.751452
3.508121 0.890662 0.776617
3.505742 0.903881 0.773093
3.490748 0.895414 0.747929
3.440038 0.879845 0.741832
3.449198 0.893293 0.775255
3.508797 0.890810 0.776723
3.493803 0.882342 0.751559
3.443093 0.866774 0.745462
3.452253 0.880221 0.778886
3.448491 0.892963 0.774860
3.439331 0.879515 0.741436
3.387384 0.857162 0.734338
3.393495 0.875743 0.776076
3.452853 0.880519 0.779276
3.443693 0.867071 0.745853
3.391745 0.844718 0.738755
3.397856 0.863299 0.780493
3.530158 0.900547 0.748699
3.478601 0.886546 0.729810
3.491542 0.895262 0.747076
3.531682 0.887782 0.754001
3.480125 0.873781 0.735112
3.493066 0.882497 0.752378
3.490447 0.895183 0.747448
3.477506 0.886467 0.730183
3.428580 0.864516 0.711623
3.439737 0.879614 0.741352
3.494081 0.882551 0.751986
3.481140 0.873835 0.734721
3.432213 0.851884 0.716161
3.443371 0.866982 0.745889
3.439134 0.879391 0.741297
3.427977 0.864293 0.711568
3.381080 0.838436 0.692473
3.387187 0.857038 0.734198
3.443874 0.867162 0.745919
3.432717 0.852064 0.716190
3.385820 0.826207 0.697095
3.391926 0.844809 0.738821
3.389646 0.827567 0.670596
3.382099 0.837946 0.690919
3.428996 0.863803 0.710014
3.435432 0.848967 0.688351
3.392347 0.816289 0.678269
3.384799 0.826667 0.698592
3.431696 0.852524 0.717687
3.438132 0.837688 0.696024
3.436014 0.848852 0.688034
3.429578 0.863689 0.709698
3.478505 0.885640 0.728258
3.482066 0.869022 0.706476
3.437644 0.837847 0.696377
3.431208 0.852684 0.718041
3.480135 0.874635 0.736601
3.483697 0.858017 0.714819
3.482788 0.869171 0.706593
3.479226 0.885788 0.728374
3.530783 0.899789 0.747263
3.530249 0.884906 0.725376
3.483072 0.857904 0.714740
3.479510 0.874522 0.736521
3.531067 0.888523 0.755410
3.530533 0.873640 0.733523
3.530557 0.885297 0.725977
3.531091 0.900180 0.747864
3.564776 0.909157 0.768231
3.579534 0.897086 0.744207
3.530316 0.873274 0.732961
3.530850 0.888157 0.754848
3.564535 0.897135 0.775215
3.579293 0.885064 0.751192
3.579899 0.897277 0.744591
3.565140 0.909348 0.768614
3.622055 0.909325 0.774382
3.629302 0.902666 0.764351
3.579023 0.884886 0.750840
3.564265 0.896957 0.774864
3.621180 0.896933 0.780632
3.628427 0.890274 0.770601
3.629801 0.902496 0.764133
3.622555 0.909155 0.774164
3.679290 0.906370 0.784258
3.628016 0.890447 0.770842
3.620769 0.897106 0.780873
3.677505 0.894321 0.790967
3.355838 0.861641 0.805412
3.354682 0.861308 0.775065
3.313033 0.826583 0.773449
3.314119 0.827661 0.805341
3.364683 0.850910 0.805337
3.363526 0.850578 0.774990
3.321878 0.815852 0.773374
3.322964 0.816931 0.805266
3.313762 0.827345 0.805107
3.312675 0.826266 0.773215
3.272605 0.787688 0.771446
3.274088 0.791534 0.805313
3.323240 0.817176 0.805498
3.322153 0.816097 0.773606
3.282083 0.777520 0.771837
3.283566 0.781366 0.805704
3.272954 0.790183 0.805401
3.271471 0.786337 0.771534
3.241671 0.740748 0.768346
3.244005 0.744861 0.807039
3.284631 0.782634 0.805615
3.283148 0.778788 0.771748
3.253348 0.733198 0.768560
3.255681 0.737312 0.807253
3.243524 0.743996 0.807148
3.241190 0.739883 0.768455
3.218224 0.690199 0.764187
3.220427 0.695647 0.807970
3.256110 0.738082 0.807141
3.253776 0.733969 0.768448
3.230810 0.684286 0.764181
3.233013 0.689733 0.807963
3.220247 0.695233 0.807954
3.218044 0.689786 0.764172
3.197980 0.639632 0.758818
3.200106 0.645326 0.808368
3.233150 0.690048 0.807975
3.230947 0.684600 0.764192
3.210883 0.634447 0.758839
3.213009 0.640141 0.808389
3.199894 0.644727 0.808377
3.197768 0.639033 0.758827
3.182421 0.587996 0.752153
3.183778 0.593500 0.805028
3.213186 0.640639 0.808373
3.211060 0.634945 0.758823
3.195713 0.583907 0.752148
3.197069 0.589412 0.805023
3.183549 0.592522 0.805091
3.182192 0.587017 0.752216
3.173615 0.535240 0.745875
3.174962 0.539427 0.803941
3.197273 0.590286 0.804952
3.195917 0.584781 0.752077
3.187339 0.533004 0.745736
3.188687 0.537191 0.803802
3.354923 0.861044 0.772810
3.318127 0.820129 0.747549
3.313275 0.826318 0.771193
3.363273 0.850826 0.777198
3.326476 0.809911 0.751937
3.321624 0.816100 0.775582
3.312916 0.826111 0.771444
3.317769 0.819922 0.747800
3.278037 0.780992 0.737513
3.272846 0.787534 0.769675
3.321916 0.816243 0.775315
3.326769 0.810054 0.751671
3.287037 0.771123 0.741384
3.281846 0.777665 0.773546
3.271753 0.786490 0.770192
3.276944 0.779948 0.738030
3.245724 0.734984 0.729226
3.241953 0.740900 0.767005
3.282869 0.778625 0.773017
3.288059 0.772084 0.740855
3.256839 0.727119 0.732051
3.253069 0.733036 0.769830
3.241335 0.740070 0.767619
3.245106 0.734153 0.729839
3.219546 0.685661 0.720437
3.218369 0.690386 0.763351
3.253632 0.733772 0.769203
3.257402 0.727855 0.731424
3.231842 0.679362 0.722022
3.230665 0.684088 0.764935
3.218105 0.689912 0.763817
3.219282 0.685186 0.720904
3.197616 0.635596 0.710301
3.198042 0.639759 0.758464
3.230884 0.684464 0.764454
3.232061 0.679738 0.721541
3.210395 0.630148 0.710938
3.210820 0.634311 0.759101
3.197758 0.638994 0.758651
3.197332 0.634831 0.710489
3.182186 0.583794 0.699047
3.182411 0.587956 0.751977
3.211068 0.634974 0.758897
3.210643 0.630811 0.710734
3.195497 0.579774 0.699292
3.195721 0.583936 0.752223
3.182200 0.587062 0.752055
3.181975 0.582900 0.699124
3.173081 0.531519 0.687654
3.173622 0.535284 0.745714
3.195908 0.584728 0.752127
3.195684 0.580566 0.699196
3.186790 0.529185 0.687726
3.187330 0.532950 0.745786
3.355253 0.861136 0.772451
3.367394 0.849306 0.732369
3.325616 0.812432 0.717545
3.318456 0.820221 0.747191
3.362969 0.850733 0.777514
3.375110 0.838903 0.737432
3.333332 0.802030 0.722608
3.326172 0.809819 0.752253
3.318023 0.820041 0.747548
3.325182 0.812253 0.717902
3.284414 0.774409 0.706785
3.278291 0.781111 0.737261
3.326526 0.809921 0.751866
3.333686 0.802132 0.722220
3.292918 0.764289 0.711103
3.286795 0.770991 0.741579
3.277217 0.780127 0.737563
3.283340 0.773424 0.707087
3.252385 0.728585 0.693754
3.245997 0.735162 0.728758
3.287797 0.771892 0.741255
3.293920 0.765189 0.710778
3.262965 0.720350 0.697446
3.256577 0.726928 0.732450
3.245450 0.734522 0.729112
3.251838 0.727944 0.694107
3.225385 0.680497 0.679289
3.219890 0.686029 0.719710
3.257067 0.727476 0.732073
3.263455 0.720898 0.697069
3.237002 0.673451 0.682251
3.231507 0.678983 0.722671
3.219529 0.685540 0.720135
3.225025 0.680008 0.679714
3.202034 0.631515 0.663521
3.197864 0.635949 0.709533
3.231819 0.679375 0.722220
3.237314 0.673843 0.681799
3.214323 0.625350 0.665606
3.210153 0.629784 0.711618
3.197432 0.635024 0.709873
3.201602 0.630590 0.663861
3.185628 0.580225 0.646588
3.182286 0.583987 0.698431
3.210547 0.630610 0.711250
3.214717 0.626176 0.665237
3.198742 0.575810 0.647964
3.195400 0.579573 0.699808
3.182043 0.583205 0.698789
3.185385 0.579443 0.646946
3.173445 0.528781 0.629164
3.173149 0.531825 0.687319
3.195617 0.580253 0.699421
3.198959 0.576490 0.647577
3.187019 0.525828 0.629796
3.186723 0.528872 0.687950
3.367596 0.849438 0.732345
3.379727 0.837632 0.692251
3.332252 0.804795 0.689121
3.325817 0.812564 0.717521
3.374928 0.838752 0.737387
3.387060 0.826946 0.697293
3.339584 0.794109 0.694163
3.333150 0.801878 0.722563
3.325343 0.812359 0.717845
3.331777 0.804590 0.689446
3.289172 0.768368 0.681536
3.284574 0.774516 0.706728
3.333538 0.802011 0.722220
3.339972 0.794242 0.693820
3.297367 0.758019 0.685910
3.292769 0.764167 0.711102
3.283428 0.773520 0.707053
3.288025 0.767371 0.681861
3.258199 0.722325 0.661298
3.252473 0.728680 0.693720
3.293844 0.765082 0.710751
3.298441 0.758933 0.685559
3.268616 0.713887 0.664996
3.262889 0.720242 0.697418
3.252010 0.728205 0.694085
3.257737 0.721850 0.661663
3.230466 0.675451 0.640661
3.225557 0.680758 0.679266
3.263294 0.720625 0.697019
3.269021 0.714270 0.664597
3.241749 0.667872 0.643595
3.236841 0.673178 0.682200
3.225172 0.680293 0.679741
3.230080 0.674986 0.641136
3.205374 0.627595 0.619260
3.202181 0.631800 0.663547
3.237176 0.673548 0.681688
3.242084 0.668242 0.643083
3.217379 0.620850 0.621208
3.214185 0.625056 0.665494
3.185444 0.579704 0.647029
3.189406 0.587717 0.601140
3.173605 0.526046 0.571090
3.173504 0.529042 0.629248
3.198904 0.576228 0.647387
3.202866 0.584241 0.601498
3.187065 0.522569 0.571448
3.186964 0.525566 0.629606
3.421371 0.798541 0.570696
3.388277 0.767613 0.545633
3.374072 0.781156 0.580097
3.407793 0.817219 0.610832
3.426726 0.787605 0.577413
3.393632 0.756677 0.552350
3.379427 0.770220 0.586815
3.413148 0.806284 0.617550
3.387813 0.767355 0.545622
3.356962 0.733770 0.521641
3.341071 0.743896 0.552300
3.373608 0.780898 0.580086
3.394032 0.756867 0.552308
3.363181 0.723282 0.528327
3.347290 0.733408 0.558986
3.379827 0.770409 0.586772
3.356234 0.733122 0.521441
3.329575 0.694528 0.499612
3.309562 0.702821 0.532034
3.340343 0.743248 0.552100
3.363848 0.723856 0.528480
3.337188 0.685261 0.506651
3.317176 0.693554 0.539073
3.347957 0.733981 0.559139
3.329003 0.693841 0.499436
3.305910 0.651526 0.480604
3.281991 0.657561 0.515727
3.308991 0.702134 0.531858
3.337705 0.685865 0.506788
3.314612 0.643551 0.487956
3.290693 0.649586 0.523078
3.317693 0.694158 0.539210
3.305641 0.650985 0.480388
3.286631 0.605858 0.463600
3.256954 0.610516 0.501667
3.281722 0.657021 0.515510
3.314834 0.644002 0.488140
3.295824 0.598874 0.471353
3.266147 0.603533 0.509419
3.290915 0.650037 0.523262
3.407298 0.817286 0.611420
3.373577 0.781223 0.580685
3.360127 0.796122 0.622883
3.396556 0.831700 0.653965
3.413617 0.806248 0.617042
3.379896 0.770184 0.586307
3.366445 0.785084 0.628505
3.402874 0.820662 0.659587
3.373564 0.781030 0.580345
3.341028 0.744028 0.552558
3.323703 0.759328 0.593176
3.360114 0.795929 0.622543
3.379839 0.770304 0.586588
3.347302 0.733303 0.558801
3.329977 0.748602 0.599419
3.366389 0.785204 0.628786
3.340143 0.743234 0.552309
3.309362 0.702807 0.532243
3.286603 0.714194 0.576126
3.322818 0.758534 0.592927
3.348119 0.734018 0.559003
3.317338 0.693591 0.538937
3.294580 0.704978 0.582820
3.330794 0.749318 0.599621
3.308776 0.702160 0.532158
3.281776 0.657588 0.516027
3.256999 0.664975 0.557426
3.286018 0.713548 0.576041
3.317862 0.694148 0.538986
3.290862 0.649576 0.522855
3.266085 0.656963 0.564255
3.295104 0.705536 0.582869
3.281494 0.657136 0.515910
3.256726 0.610632 0.502067
3.229621 0.613652 0.542162
3.256717 0.664523 0.557310
3.291090 0.649932 0.522939
3.266322 0.603428 0.509096
3.239217 0.606449 0.549191
3.266313 0.657319 0.564339
3.627981 0.907483 0.750095
3.620670 0.898208 0.691697
3.573953 0.892115 0.681593
3.579654 0.901839 0.731731
3.628989 0.893801 0.752370
3.621679 0.884526 0.693972
3.574961 0.878433 0.683867
3.580663 0.888157 0.734005
3.578982 0.901732 0.731584
3.573280 0.892008 0.681446
3.538979 0.883393 0.669892
3.531736 0.890866 0.712448
3.581247 0.888248 0.734123
3.575546 0.878524 0.683985
3.541244 0.869910 0.672431
3.534001 0.877383 0.714987
3.531249 0.890715 0.712197
3.538492 0.883242 0.669641
3.494529 0.868347 0.652490
3.485244 0.875864 0.693064
3.534402 0.877509 0.715205
3.541645 0.870037 0.672649
3.497682 0.855141 0.655498
3.488397 0.862658 0.696072
3.484553 0.875575 0.692730
3.493838 0.868058 0.652156
3.450083 0.846048 0.632062
3.440439 0.855522 0.673768
3.488999 0.862911 0.696368
3.498284 0.855394 0.655794
3.454529 0.833383 0.635700
3.444885 0.842857 0.677406
3.440053 0.855194 0.673238
3.449697 0.845720 0.631532
3.407931 0.817826 0.611926
3.397188 0.832239 0.654472
3.445184 0.843138 0.677897
3.454828 0.833664 0.636192
3.413062 0.805770 0.616586
3.402319 0.820184 0.659131
3.620253 0.898045 0.691124
3.610059 0.886215 0.637803
3.557457 0.875342 0.634060
3.573536 0.891952 0.681019
3.622076 0.884664 0.694441
3.611882 0.872834 0.641120
3.559281 0.861961 0.637377
3.575359 0.878571 0.684336
3.573431 0.891846 0.680684
3.557353 0.875235 0.633725
3.539129 0.883231 0.669131
3.575397 0.878669 0.684672
3.559318 0.862059 0.637713
3.541095 0.870055 0.673119
3.538618 0.882907 0.668497
3.556841 0.874910 0.633091
3.507858 0.854511 0.617459
3.494655 0.868011 0.651345
3.541543 0.870354 0.673717
3.559766 0.862358 0.638312
3.510783 0.841959 0.622680
3.497580 0.855459 0.656566
3.494391 0.867584 0.650612
3.507594 0.854084 0.616726
3.464792 0.826906 0.593766
3.450635 0.845574 0.630518
3.497755 0.855844 0.657262
3.510958 0.842344 0.623375
3.468157 0.815166 0.600415
3.454000 0.833833 0.637168
3.450271 0.845353 0.630342
3.464428 0.826686 0.593589
3.422083 0.798780 0.570599
3.408505 0.817459 0.610736
3.454278 0.834001 0.637301
3.468435 0.815333 0.600549
3.426090 0.787427 0.577559
3.412512 0.806106 0.617696
3.671056 0.901171 0.698360
3.668993 0.895772 0.663540
3.642386 0.894385 0.664219
3.645987 0.899799 0.695014
3.671675 0.887455 0.700567
3.669611 0.882056 0.665747
3.643004 0.880669 0.666426
3.646605 0.886083 0.697221
3.645798 0.899749 0.694790
3.642197 0.894334 0.663996
3.610539 0.886342 0.638153
3.620733 0.898172 0.691474
3.646740 0.886128 0.697428
3.643139 0.880713 0.666634
3.611480 0.872721 0.640791
3.621675 0.884551 0.694112
3.668904 0.895658 0.662994
3.665584 0.887261 0.628855
3.610639 0.886279 0.637831
3.642297 0.894271 0.663673
3.669680 0.882156 0.666231
3.666359 0.873760 0.632092
3.611414 0.872777 0.641067
3.643073 0.880769 0.666910
3.649423 0.904549 0.727253
3.628367 0.907528 0.750266
3.677117 0.911206 0.768343
3.674135 0.906249 0.733432
3.649772 0.890791 0.729247
3.628716 0.893770 0.752260
3.677466 0.897448 0.770337
3.674484 0.892491 0.735426
3.620977 0.898241 0.691801
3.628287 0.907516 0.750199
3.649343 0.904537 0.727186
3.646042 0.899817 0.695117
3.621443 0.884498 0.693872
3.628754 0.893773 0.752270
3.649810 0.890794 0.729257
3.646508 0.886074 0.697188
3.646062 0.899826 0.695169
3.649364 0.904545 0.727238
3.674075 0.906245 0.733417
3.671132 0.901198 0.698516
3.646536 0.886067 0.697131
3.649837 0.890786 0.729200
3.674549 0.892486 0.735379
3.671605 0.887439 0.700478
3.679142 0.913914 0.799097
3.679548 0.906301 0.841437
3.718171 0.903100 0.840434
3.717569 0.911653 0.795901
3.678038 0.900283 0.796574
3.678444 0.892671 0.838913
3.717067 0.889470 0.837910
3.716465 0.898023 0.793378
3.717708 0.911631 0.795954
3.718310 0.903078 0.840486
3.756872 0.899469 0.839326
3.756104 0.908577 0.793374
3.716403 0.898039 0.793321
3.717005 0.889486 0.837853
3.755567 0.885877 0.836693
3.754799 0.894985 0.790741
3.756355 0.908536 0.793438
3.757122 0.899428 0.839390
3.795540 0.894465 0.837716
3.794720 0.904373 0.791697
3.754626 0.895018 0.790673
3.755393 0.885910 0.836625
3.793811 0.880947 0.834951
3.792990 0.890855 0.788932
3.795096 0.904316 0.791694
3.795917 0.894408 0.837713
3.834124 0.888068 0.836599
3.833007 0.897900 0.788455
3.792690 0.890901 0.788931
3.793511 0.880993 0.834950
3.831718 0.874653 0.833837
3.830601 0.884485 0.785692
3.833147 0.897905 0.788297
3.834264 0.888072 0.836442
3.872481 0.881629 0.835609
3.870858 0.890466 0.784390
3.830537 0.884468 0.785845
3.831654 0.874636 0.833989
3.869871 0.868192 0.833157
3.868248 0.877029 0.781937
3.678503 0.906065 0.783669
3.678641 0.912816 0.793852
3.717067 0.910556 0.790656
3.716511 0.903584 0.781002
3.678401 0.894631 0.791583
3.678539 0.901382 0.801766
3.716965 0.899121 0.798570
3.716409 0.892150 0.788916
3.716679 0.903475 0.780853
3.717235 0.910446 0.790507
3.755632 0.907392 0.787927
3.754644 0.900461 0.778503
3.716318 0.892254 0.789059
3.716874 0.899225 0.798713
3.755270 0.896171 0.796133
3.754282 0.889241 0.786709
3.754897 0.900481 0.778548
3.755885 0.907412 0.787972
3.794250 0.903249 0.786231
3.792840 0.896671 0.776658
3.754106 0.889214 0.786660
3.755094 0.896145 0.796084
3.793459 0.891982 0.794343
3.792049 0.885404 0.784770
3.793113 0.896641 0.776652
3.794523 0.903219 0.786224
3.832434 0.896803 0.782985
3.830603 0.890243 0.773903
3.791852 0.885423 0.784772
3.793261 0.892001 0.794344
3.831172 0.885585 0.791105
3.829341 0.879025 0.782023
3.830695 0.890035 0.773644
3.832525 0.896596 0.782726
3.870236 0.889158 0.778819
3.867953 0.882330 0.770470
3.829325 0.879219 0.782276
3.831156 0.885779 0.791357
3.868867 0.878341 0.787450
3.866583 0.871514 0.779102
3.868879 0.883610 0.775768
3.866533 0.886479 0.754878
3.829830 0.895423 0.759666
3.831621 0.891315 0.778941
3.865653 0.870231 0.773776
3.863306 0.873100 0.752886
3.826604 0.882044 0.757674
3.828395 0.877936 0.776950
3.831307 0.891295 0.779423
3.829517 0.895403 0.760147
3.792437 0.902426 0.764360
3.793817 0.897693 0.782171
3.828634 0.877971 0.776475
3.826843 0.882079 0.757200
3.789764 0.889101 0.761412
3.791144 0.884369 0.779224
3.793225 0.897716 0.782464
3.791845 0.902449 0.764652
3.754091 0.906157 0.767842
3.755282 0.901527 0.784354
3.791661 0.884356 0.778937
3.790281 0.889088 0.761125
3.752527 0.892797 0.764314
3.753718 0.888166 0.780827
3.755072 0.901548 0.784355
3.753880 0.906179 0.767842
3.715969 0.908917 0.769865
3.717107 0.904562 0.786705
3.753853 0.888151 0.780831
3.752662 0.892782 0.764318
3.714751 0.895520 0.766341
3.715888 0.891165 0.783181
3.716949 0.904621 0.786519
3.715811 0.908976 0.769679
3.677820 0.911083 0.770945
3.678941 0.907101 0.789186
3.715970 0.891111 0.783372
3.714833 0.895466 0.766532
3.676842 0.897573 0.767798
3.677962 0.893591 0.786039
3.671987 0.901126 0.698212
3.713188 0.897115 0.691343
3.713685 0.888896 0.651004
3.669923 0.895727 0.663393
3.670813 0.887496 0.700707
3.712014 0.883485 0.693837
3.712511 0.875266 0.653499
3.668749 0.882097 0.665887
3.669929 0.895602 0.662835
3.713690 0.888771 0.650447
3.713961 0.877949 0.610717
3.666608 0.887206 0.628696
3.668741 0.882205 0.666370
3.712503 0.875375 0.653982
3.712774 0.864552 0.614252
3.665421 0.873809 0.632231
3.713554 0.897023 0.691088
3.753670 0.890418 0.682269
3.755305 0.878700 0.633886
3.714051 0.888804 0.650750
3.711731 0.883563 0.694069
3.751846 0.876958 0.685249
3.753481 0.865240 0.636867
3.712228 0.875344 0.653731
3.714275 0.888546 0.649958
3.755529 0.878442 0.633095
3.755744 0.859385 0.586498
3.714546 0.877724 0.610229
3.712005 0.875578 0.654434
3.753259 0.865473 0.637571
3.753474 0.846416 0.590974
3.712276 0.864755 0.614705
3.753975 0.890318 0.682048
3.795020 0.881106 0.670778
3.796138 0.865558 0.614388
3.755609 0.878600 0.633665
3.751623 0.877039 0.685442
3.792669 0.867827 0.674171
3.793787 0.852279 0.617782
3.753258 0.865321 0.637059
3.755489 0.878160 0.632385
3.796018 0.865119 0.613108
3.794762 0.837492 0.560116
3.755704 0.859103 0.585788
3.753379 0.865723 0.638237
3.793908 0.852682 0.618960
3.792652 0.825055 0.565968
3.753594 0.846666 0.591641
3.795985 0.880787 0.670509
3.843752 0.861951 0.653637
3.840656 0.842092 0.592749
3.797103 0.865239 0.614120
3.791791 0.868114 0.674406
3.839558 0.849278 0.657533
3.836461 0.829419 0.596646
3.792909 0.852566 0.618016
3.796750 0.864742 0.612706
3.840302 0.841595 0.591336
3.833535 0.811038 0.536892
3.795494 0.837115 0.559715
3.793257 0.853017 0.619317
3.836810 0.829870 0.597947
3.830042 0.799313 0.543502
3.792001 0.825390 0.566325
3.844011 0.861700 0.653180
3.894384 0.837558 0.633102
3.883986 0.815031 0.572349
3.840914 0.841842 0.592293
3.839392 0.849482 0.657950
3.889765 0.825340 0.637872
3.879367 0.802812 0.577119
3.836295 0.829623 0.597063
3.840563 0.841408 0.591160
3.883635 0.814597 0.571215
3.871711 0.784079 0.514402
3.833796 0.810851 0.536715
3.836630 0.830005 0.598080
3.879702 0.803194 0.578135
3.867777 0.772677 0.521322
3.829863 0.799449 0.543636
3.829763 0.895253 0.756796
3.866465 0.886309 0.752008
3.886975 0.864015 0.693728
3.836854 0.880060 0.704973
3.826684 0.882199 0.760468
3.863386 0.873255 0.755680
3.883897 0.850961 0.697401
3.833775 0.867006 0.708646
3.837137 0.879825 0.704472
3.887259 0.863780 0.693227
3.893887 0.837783 0.633264
3.843514 0.861926 0.653342
3.833511 0.867200 0.709036
3.883633 0.851155 0.697791
3.890261 0.825158 0.637828
3.839888 0.849300 0.657906
3.792395 0.902398 0.761240
3.829474 0.895376 0.757027
3.836565 0.880182 0.705204
3.793857 0.892336 0.715963
3.789809 0.889120 0.764465
3.826888 0.882098 0.760253
3.833979 0.866905 0.708430
3.791272 0.879059 0.719189
3.794234 0.892181 0.715694
3.836942 0.880027 0.704935
3.843319 0.862127 0.653804
3.795552 0.880963 0.670677
3.790903 0.879187 0.719362
3.833611 0.867033 0.708603
3.839988 0.849134 0.657473
3.792221 0.867970 0.674345
3.754011 0.906257 0.764689
3.791765 0.902549 0.761500
3.793227 0.892487 0.716224
3.753815 0.898862 0.723493
3.752606 0.892692 0.767407
3.790361 0.888984 0.764218
3.791823 0.878922 0.718942
3.752411 0.885297 0.726211
3.754065 0.898788 0.723290
3.793477 0.892413 0.716020
3.794795 0.881196 0.671003
3.753749 0.890408 0.682274
3.752163 0.885352 0.726329
3.791574 0.878977 0.719059
3.792892 0.867760 0.674042
3.751847 0.876972 0.685312
3.715876 0.909055 0.766923
3.753787 0.906317 0.764900
3.753592 0.898921 0.723705
3.714528 0.903267 0.729189
3.714842 0.895380 0.769227
3.752753 0.892642 0.767204
3.752558 0.885246 0.726009
3.713495 0.889592 0.731493
3.714722 0.903222 0.729034
3.753785 0.898876 0.723549
3.753469 0.890496 0.682533
3.713354 0.897101 0.691352
3.713299 0.889623 0.731570
3.752363 0.885277 0.726086
3.752047 0.876897 0.685069
3.711931 0.883502 0.693889
3.677704 0.911192 0.768307
3.715695 0.909085 0.767041
3.714347 0.903298 0.729307
3.674722 0.906235 0.733396
3.676955 0.897462 0.770383
3.714946 0.895355 0.769116
3.713598 0.889568 0.731382
3.673973 0.892505 0.735471
3.674788 0.906219 0.733316
3.714413 0.903281 0.729227
3.713045 0.897160 0.691546
3.671844 0.901172 0.698415
3.673902 0.892510 0.735478
3.713528 0.889573 0.731389
3.712160 0.883452 0.693708
3.670959 0.887463 0.700577
3.197133 0.576556 0.516502
3.175773 0.530045 0.500724
3.176383 0.529384 0.535716
3.192362 0.586903 0.550502
3.210002 0.571501 0.517988
3.188642 0.524989 0.502210
3.189252 0.524329 0.537202
3.205231 0.581847 0.551988
3.192123 0.586300 0.550900
3.176144 0.528781 0.536114
3.173666 0.526232 0.570839
3.189467 0.587903 0.600889
3.205465 0.582454 0.551666
3.189486 0.524936 0.536880
3.187008 0.522386 0.571604
3.202809 0.584057 0.601655
3.229043 0.614344 0.544629
3.212271 0.595390 0.530746
3.210784 0.596311 0.562824
3.216326 0.610407 0.571305
3.239718 0.605691 0.546765
3.222946 0.586737 0.532882
3.221458 0.587658 0.564961
3.227001 0.601754 0.573441
3.193582 0.592464 0.600936
3.213532 0.598424 0.563568
3.196238 0.590860 0.550947
3.198723 0.579561 0.601623
3.218673 0.585521 0.564254
3.201379 0.577958 0.551634
3.195355 0.590290 0.549928
3.212648 0.597853 0.562549
3.214136 0.596932 0.530471
3.200126 0.579943 0.515929
3.202273 0.578524 0.552590
3.219567 0.586088 0.565211
3.221054 0.585166 0.533133
3.207044 0.568178 0.518590
3.214034 0.596310 0.528966
3.230806 0.615264 0.542849
3.257911 0.612243 0.502755
3.221214 0.585823 0.534610
3.237986 0.604777 0.548493
3.265091 0.601756 0.508399
3.257877 0.612150 0.502629
3.229782 0.582351 0.484880
3.214000 0.596216 0.528840
3.265125 0.601828 0.508486
3.237030 0.572029 0.490738
3.221247 0.585895 0.534698
3.200170 0.579365 0.514327
3.214180 0.596354 0.528869
3.229963 0.582488 0.484909
3.207018 0.568747 0.520135
3.221028 0.585735 0.534677
3.236811 0.571870 0.490717
3.189659 0.588484 0.600929
3.185697 0.580472 0.646817
3.201671 0.630837 0.664091
3.204865 0.626631 0.619804
3.202643 0.583574 0.601752
3.198681 0.575561 0.647640
3.214655 0.625927 0.664914
3.217849 0.621721 0.620627
3.210605 0.595456 0.561479
3.190655 0.589496 0.598847
3.205861 0.627643 0.617722
3.216147 0.609552 0.569959
3.221615 0.588518 0.566378
3.201666 0.582558 0.603746
3.216871 0.620705 0.622621
3.227158 0.602614 0.574859
3.269379 0.542270 0.436808
3.279623 0.573640 0.448771
3.330062 0.537416 0.426444
3.271114 0.536863 0.449502
3.281359 0.568232 0.461464
3.331798 0.532008 0.439137
3.330549 0.537716 0.426530
3.280110 0.573940 0.448858
3.290853 0.605291 0.461166
3.347247 0.590559 0.452471
3.331348 0.531759 0.439070
3.280909 0.567983 0.461397
3.291653 0.599334 0.473706
3.348047 0.584601 0.465011
3.395859 0.831803 0.655386
3.359430 0.796225 0.624304
3.341154 0.794884 0.657415
3.387118 0.827513 0.672968
3.403545 0.820570 0.658234
3.367116 0.784992 0.627152
3.348841 0.783651 0.660264
3.394804 0.816280 0.675817
3.359305 0.795982 0.623792
3.322893 0.759381 0.594426
3.299456 0.758155 0.639750
3.341029 0.794641 0.656904
3.367162 0.785165 0.627617
3.330750 0.748563 0.598250
3.307313 0.747338 0.643574
3.348886 0.783824 0.660728
3.321979 0.758468 0.594158
3.285765 0.714128 0.577356
3.265260 0.711185 0.621052
3.298542 0.757242 0.639481
3.331591 0.749395 0.598477
3.295377 0.705055 0.581676
3.274872 0.702112 0.625372
3.308154 0.748169 0.643801
3.285264 0.713513 0.577312
3.256245 0.664940 0.558698
3.236886 0.661341 0.599357
3.264759 0.710569 0.621008
3.295814 0.705577 0.581682
3.266795 0.657004 0.563068
3.247436 0.653405 0.603727
3.275309 0.702633 0.625378
3.255953 0.664475 0.558620
3.228858 0.613604 0.543472
3.216141 0.609668 0.570148
3.236595 0.660876 0.599279
3.267034 0.657369 0.563104
3.239938 0.606498 0.547955
3.227221 0.602562 0.574631
3.247675 0.653770 0.603763
3.387794 0.827281 0.671348
3.341831 0.794653 0.655794
3.332771 0.804823 0.688541
3.380246 0.837660 0.691671
3.394106 0.816519 0.677490
3.348143 0.783891 0.661937
3.339082 0.794061 0.694683
3.386558 0.826898 0.697813
3.341115 0.794507 0.656421
3.299542 0.758021 0.639266
3.289449 0.768455 0.681258
3.332055 0.804677 0.689167
3.348770 0.783967 0.661288
3.307197 0.747481 0.644134
3.297104 0.757915 0.686125
3.339710 0.794137 0.694035
3.298378 0.757075 0.639505
3.265096 0.711017 0.621075
3.258460 0.722462 0.660933
3.288286 0.767508 0.681496
3.308287 0.748345 0.643863
3.275005 0.702288 0.625434
3.268368 0.713733 0.665292
3.298194 0.758779 0.685854
3.264733 0.710597 0.621123
3.236860 0.661369 0.599472
3.230825 0.675643 0.639979
3.258097 0.722042 0.660981
3.275309 0.702615 0.625345
3.247436 0.653387 0.603694
3.241401 0.667661 0.644201
3.268672 0.714060 0.665203
3.236720 0.661021 0.599208
3.216267 0.609812 0.570076
3.205980 0.627903 0.617839
3.230686 0.675295 0.639715
3.247525 0.653638 0.603912
3.227071 0.602430 0.574781
3.216785 0.620521 0.622544
3.241491 0.667912 0.644419
4.147771 0.547248 0.825741
4.137489 0.603134 0.828312
4.107715 0.596595 0.852679
4.111691 0.563440 0.852563
4.139166 0.546198 0.814868
4.128883 0.602084 0.817439
4.099110 0.595545 0.841806
4.103086 0.562390 0.841690
4.137583 0.603394 0.828205
4.126082 0.659052 0.828837
4.104022 0.630030 0.852243
4.107809 0.596854 0.852572
4.128774 0.601914 0.817547
4.117274 0.657572 0.818178
4.095214 0.628551 0.841584
4.099001 0.595374 0.841914
4.045121 0.813566 0.778924
4.044452 0.808327 0.827920
4.084144 0.767936 0.825231
4.084948 0.771730 0.776594
4.035121 0.803958 0.777884
4.034452 0.798720 0.826881
4.074144 0.758329 0.824191
4.074947 0.762123 0.775554
4.086141 0.770084 0.776432
4.085338 0.766290 0.825069
4.111493 0.716018 0.823607
4.112945 0.719010 0.773388
4.073820 0.763677 0.775711
4.073017 0.759883 0.824348
4.099172 0.709612 0.822887
4.100623 0.712604 0.772668
4.113469 0.717721 0.773299
4.112017 0.714729 0.823518
4.128341 0.660344 0.823743
4.129658 0.662208 0.771349
4.100142 0.713787 0.772754
4.098691 0.710795 0.822973
4.115014 0.656410 0.823197
4.116331 0.658274 0.770804
4.129809 0.661614 0.771325
4.128492 0.659750 0.823719
4.139992 0.604092 0.823088
4.141958 0.604997 0.770254
4.116209 0.658757 0.770826
4.114892 0.656893 0.823220
4.126392 0.601235 0.822588
4.128358 0.602140 0.769754
4.141993 0.604805 0.770335
4.140027 0.603900 0.823168
4.150310 0.548013 0.820598
4.153240 0.547899 0.769665
4.128346 0.602219 0.769671
4.126380 0.601314 0.822505
4.136663 0.545427 0.819934
4.139593 0.545313 0.769001
4.044555 0.813253 0.775457
4.084381 0.771417 0.773126
4.075124 0.771311 0.757389
