4.208922 0.817330 0.326627
4.194079 0.815091 0.366366
4.192569 0.830682 0.366599
4.206888 0.832286 0.366812
4.208401 0.816681 0.366579
4.193088 0.831346 0.326648
4.191582 0.846937 0.326882
4.205890 0.848554 0.327094
4.207407 0.832950 0.326861
4.192568 0.830698 0.366600
4.191062 0.846289 0.366833
4.205370 0.847906 0.367046
4.206887 0.832302 0.366813
4.191580 0.846953 0.326882
4.190069 0.862544 0.327116
4.204375 0.864175 0.327328
4.205888 0.848570 0.327094
4.191061 0.846305 0.366834
4.189550 0.861895 0.367067
4.203856 0.863526 0.367279
4.205369 0.847922 0.367046
4.190067 0.862560 0.327116
4.188560 0.878151 0.327350
4.202856 0.879795 0.327561
4.204373 0.864190 0.327328
4.189550 0.861911 0.367067
4.188043 0.877502 0.367302
4.202339 0.879146 0.367513
4.203856 0.863542 0.367280
4.188558 0.878166 0.327350
4.187048 0.893757 0.327584
4.201341 0.895415 0.327795
4.202854 0.879810 0.327562
4.188042 0.877518 0.367302
4.186532 0.893109 0.367535
4.200825 0.894767 0.367747
4.202338 0.879162 0.367513
4.187046 0.893773 0.327584
4.185540 0.909364 0.327818
4.199822 0.911034 0.328029
4.201339 0.895430 0.327796
4.186530 0.893125 0.367535
4.185025 0.908716 0.367769
4.199306 0.910387 0.367980
4.200824 0.894782 0.367747
4.185538 0.909379 0.327818
4.184027 0.924970 0.328051
4.198307 0.926655 0.328262
4.199819 0.911050 0.328029
4.185024 0.908732 0.367769
4.183513 0.924323 0.368003
4.197793 0.926007 0.368214
4.199305 0.910402 0.367980
4.184025 0.924986 0.328052
4.182519 0.940577 0.328286
4.196787 0.942275 0.328496
4.198305 0.926671 0.328263
4.183512 0.924338 0.368003
4.182006 0.939929 0.368237
4.196274 0.941627 0.368447
4.197792 0.926022 0.368214
4.182517 0.940593 0.328286
4.181006 0.956184 0.328519
4.195272 0.957895 0.328730
4.196785 0.942290 0.328496
4.182005 0.939945 0.368237
4.180495 0.955536 0.368471
4.194761 0.957247 0.368681
4.196273 0.941642 0.368448
4.180684 0.955836 0.328515
4.179178 0.971427 0.328750
4.193387 0.973417 0.328439
4.194950 0.957547 0.328726
4.180814 0.955915 0.368475
4.179308 0.971506 0.368709
4.193517 0.973496 0.368399
4.195080 0.957626 0.368686
4.239955 0.505445 0.322717
4.237250 0.519980 0.322187
4.250700 0.521301 0.322404
4.252225 0.505683 0.322169
4.240441 0.505903 0.362671
4.237736 0.520439 0.362142
4.251186 0.521759 0.362359
4.252710 0.506141 0.362124
4.237782 0.520551 0.322189
4.236264 0.536156 0.322422
4.249713 0.537490 0.322640
4.251231 0.521872 0.322406
4.237201 0.519898 0.362140
4.235684 0.535502 0.362373
4.249132 0.536836 0.362590
4.250651 0.521218 0.362357
4.236262 0.536171 0.322423
4.234750 0.551776 0.322656
4.248186 0.553123 0.322873
4.249711 0.537505 0.322640
4.235682 0.535518 0.362373
4.234170 0.551123 0.362607
4.247606 0.552470 0.362823
4.249131 0.536852 0.362590
4.234747 0.551792 0.322656
4.233230 0.567396 0.322890
4.246665 0.568757 0.323106
4.248184 0.553139 0.322873
4.234169 0.551138 0.362607
4.232651 0.566743 0.362840
4.246087 0.568104 0.363057
4.247606 0.552485 0.362824
4.233228 0.567412 0.322890
4.231715 0.583016 0.323123
4.245138 0.584390 0.323340
4.246663 0.568773 0.323106
4.232651 0.566758 0.362841
4.231138 0.582363 0.363074
4.244561 0.583737 0.363290
4.246086 0.568119 0.363057
4.231713 0.583032 0.323124
4.230196 0.598636 0.323357
4.243617 0.600024 0.323573
4.245136 0.584406 0.323340
4.231138 0.582379 0.363074
4.229620 0.597983 0.363308
4.243041 0.599371 0.363523
4.244560 0.583753 0.363290
4.230194 0.598652 0.323357
4.228681 0.614256 0.323591
4.242091 0.615657 0.323806
4.243615 0.600039 0.323573
4.229619 0.597999 0.363308
4.228106 0.613604 0.363541
4.241516 0.615004 0.363757
4.243040 0.599387 0.363524
4.228679 0.614272 0.323591
4.227161 0.629876 0.323824
4.240570 0.631291 0.324040
4.242089 0.615673 0.323806
4.228105 0.613619 0.363541
4.226588 0.629223 0.363775
4.239996 0.630638 0.363990
4.241515 0.615020 0.363757
4.227159 0.629892 0.323824
4.225647 0.645497 0.324058
4.239043 0.646924 0.324273
4.240568 0.631307 0.324040
4.226587 0.629239 0.363775
4.225075 0.644844 0.364009
4.238471 0.646271 0.364224
4.239995 0.630654 0.363990
4.225645 0.645512 0.324058
4.224128 0.661116 0.324291
4.237522 0.662558 0.324506
4.239041 0.646940 0.324273
4.225074 0.644860 0.364009
4.223556 0.660464 0.364242
4.236951 0.661906 0.364457
4.238470 0.646288 0.364224
4.224125 0.661132 0.324292
4.222613 0.676737 0.324525
4.235996 0.678191 0.324740
4.237520 0.662574 0.324506
4.223555 0.660480 0.364242
4.222043 0.676084 0.364476
4.235426 0.677539 0.364690
4.236950 0.661921 0.364457
4.222611 0.676752 0.324525
4.221094 0.692357 0.324759
4.234474 0.693825 0.324973
4.235994 0.678207 0.324740
4.222042 0.676100 0.364476
4.220525 0.691704 0.364709
4.233905 0.693173 0.364924
4.235425 0.677555 0.364690
4.221092 0.692372 0.324759
4.219578 0.707977 0.324992
4.232948 0.709458 0.325206
4.234472 0.693841 0.324973
4.220524 0.691720 0.364710
4.219011 0.707325 0.364943
4.232381 0.708806 0.365157
4.233905 0.693188 0.364924
4.219576 0.707992 0.324993
4.218059 0.723597 0.325226
4.231427 0.725092 0.325440
4.232946 0.709474 0.325207
4.219010 0.707340 0.364943
4.217492 0.722945 0.365177
4.230861 0.724440 0.365390
4.232380 0.708822 0.365157
4.218057 0.723612 0.325226
4.216544 0.739217 0.325460
4.229901 0.740725 0.325673
4.231425 0.725108 0.325440
4.217491 0.722960 0.365177
4.215979 0.738565 0.365410
4.229335 0.740074 0.365624
4.230860 0.724456 0.365391
4.216542 0.739233 0.325460
4.215025 0.754837 0.325693
4.228379 0.756359 0.325906
4.229899 0.740741 0.325673
4.215978 0.738581 0.365410
4.214461 0.754185 0.365644
4.227815 0.755707 0.365857
4.229334 0.740089 0.365624
4.215023 0.754852 0.325693
4.213510 0.770457 0.325927
4.226853 0.771992 0.326139
4.228377 0.756375 0.325907
4.214460 0.754201 0.365644
4.212947 0.769806 0.365878
4.226290 0.771341 0.366090
4.227814 0.755723 0.365857
4.213508 0.770473 0.325927
4.211990 0.786077 0.326160
4.225332 0.787626 0.326373
4.226851 0.772008 0.326140
4.212946 0.769821 0.365878
4.211429 0.785425 0.366111
4.224771 0.786975 0.366324
4.226290 0.771356 0.366090
4.211988 0.786093 0.326161
4.210476 0.801697 0.326394
4.223806 0.803259 0.326606
4.225330 0.787642 0.326373
4.211428 0.785441 0.366111
4.209916 0.801046 0.366345
4.223245 0.802608 0.366557
4.224769 0.786990 0.366324
4.210474 0.801713 0.326394
4.208957 0.817317 0.326628
4.222285 0.818893 0.326840
4.223804 0.803275 0.326607
4.209915 0.801061 0.366345
4.208397 0.816666 0.366578
4.221725 0.818242 0.366791
4.223244 0.802624 0.366557
4.208954 0.817333 0.326628
4.207442 0.832937 0.326861
4.220758 0.834526 0.327073
4.222282 0.818909 0.326840
4.208396 0.816682 0.366579
4.206884 0.832286 0.366812
4.220201 0.833875 0.367023
4.221724 0.818258 0.366791
4.207439 0.832953 0.326862
4.205922 0.848557 0.327095
4.219237 0.850160 0.327306
4.220756 0.834542 0.327073
4.206883 0.832302 0.366812
4.205365 0.847906 0.367046
4.218680 0.849509 0.367257
4.220200 0.833891 0.367024
4.205920 0.848573 0.327095
4.204407 0.864178 0.327328
4.217711 0.865794 0.327540
4.219235 0.850176 0.327307
4.205364 0.847922 0.367046
4.203852 0.863527 0.367279
4.217155 0.865143 0.367490
4.218679 0.849525 0.367257
4.204405 0.864193 0.327329
4.202888 0.879797 0.327562
4.216189 0.881427 0.327773
4.217708 0.865809 0.327540
4.203851 0.863542 0.367280
4.202334 0.879147 0.367513
4.215634 0.880777 0.367724
4.217154 0.865158 0.367491
4.202886 0.879813 0.327562
4.201373 0.895418 0.327796
4.214663 0.897061 0.328006
4.216186 0.881443 0.327773
4.202333 0.879162 0.367513
4.200820 0.894767 0.367747
4.214110 0.896410 0.367957
4.215634 0.880792 0.367724
4.201371 0.895433 0.327796
4.199854 0.911037 0.328029
4.213141 0.912694 0.328240
4.214661 0.897076 0.328006
4.200819 0.894783 0.367747
4.199302 0.910387 0.367980
4.212589 0.912044 0.368191
4.214109 0.896426 0.367957
4.199852 0.911053 0.328029
4.198339 0.926658 0.328263
4.211615 0.928328 0.328473
4.213139 0.912710 0.328240
4.199301 0.910403 0.367980
4.197788 0.926007 0.368214
4.211064 0.927677 0.368424
4.212588 0.912059 0.368191
4.198337 0.926673 0.328263
4.196819 0.942278 0.328496
4.210093 0.943961 0.328706
4.211613 0.928343 0.328473
4.197787 0.926023 0.368214
4.196270 0.941627 0.368447
4.209543 0.943311 0.368657
4.211063 0.927693 0.368424
4.196817 0.942293 0.328497
4.195304 0.957898 0.328730
4.208567 0.959595 0.328939
4.210091 0.943977 0.328707
4.196269 0.941643 0.368448
4.194756 0.957248 0.368681
4.208019 0.958944 0.368890
4.209543 0.943327 0.368658
4.195730 0.957624 0.328738
4.194167 0.973493 0.328452
4.207473 0.974939 0.329181
4.208992 0.959320 0.328947
4.194328 0.957554 0.368674
4.192765 0.973423 0.368387
4.206071 0.974869 0.369116
4.207590 0.959250 0.368883
4.252786 0.506265 0.322172
4.251262 0.521883 0.322407
4.262719 0.523175 0.322623
4.264256 0.507267 0.322349
4.252173 0.505561 0.362121
4.250649 0.521179 0.362356
4.262106 0.522471 0.362572
4.263643 0.506563 0.362298
4.251292 0.521878 0.322407
4.249773 0.537496 0.322641
4.261218 0.538801 0.322856
4.262749 0.523169 0.322623
4.250615 0.521215 0.362356
4.249096 0.536833 0.362589
4.260542 0.538138 0.362805
4.262072 0.522507 0.362572
4.249771 0.537511 0.322641
4.248246 0.553129 0.322874
4.259690 0.554448 0.323089
4.261216 0.538816 0.322856
4.249096 0.536849 0.362590
4.247571 0.552467 0.362823
4.259015 0.553786 0.363038
4.260541 0.538154 0.362805
4.248244 0.553144 0.322874
4.246725 0.568762 0.323107
4.258157 0.570094 0.323322
4.259688 0.554463 0.323089
4.247570 0.552483 0.362823
4.246051 0.568101 0.363056
4.257483 0.569433 0.363271
4.259014 0.553802 0.363038
4.246722 0.568778 0.323108
4.245198 0.584396 0.323341
4.256629 0.585742 0.323555
4.258154 0.570110 0.323322
4.246051 0.568117 0.363056
4.244526 0.583734 0.363290
4.255957 0.585080 0.363504
4.257483 0.569449 0.363271
4.245196 0.584411 0.323341
4.243677 0.600029 0.323574
4.255096 0.601388 0.323788
4.256627 0.585757 0.323555
4.244525 0.583750 0.363290
4.243006 0.599368 0.363523
4.254426 0.600727 0.363737
4.255956 0.585096 0.363504
4.243675 0.600045 0.323574
4.242151 0.615663 0.323807
4.253568 0.617035 0.324021
4.255094 0.601404 0.323788
4.243005 0.599384 0.363523
4.241481 0.615002 0.363756
4.252899 0.616374 0.363970
4.254424 0.600743 0.363737
4.242149 0.615678 0.323807
4.240630 0.631296 0.324041
4.252035 0.632682 0.324254
4.253566 0.617051 0.324021
4.241481 0.615017 0.363756
4.239962 0.630636 0.363990
4.251367 0.632021 0.364203
4.252898 0.616390 0.363970
4.240627 0.631312 0.324041
4.239103 0.646930 0.324274
4.250506 0.648329 0.324487
4.252032 0.632698 0.324254
4.239961 0.630651 0.363990
4.238437 0.646269 0.364223
4.249840 0.647669 0.364436
4.251366 0.632037 0.364203
4.239101 0.646945 0.324274
4.237582 0.662564 0.324507
4.248974 0.663976 0.324720
4.250504 0.648345 0.324487
4.238436 0.646285 0.364223
4.236917 0.661903 0.364456
4.248309 0.663315 0.364669
4.249839 0.647684 0.364436
4.237580 0.662579 0.324507
4.236055 0.678197 0.324741
4.247445 0.679623 0.324953
4.248972 0.663992 0.324720
4.236915 0.661919 0.364456
4.235391 0.677536 0.364690
4.246781 0.678963 0.364902
4.248307 0.663331 0.364669
4.236053 0.678212 0.324741
4.234533 0.693830 0.324974
4.245912 0.695270 0.325186
4.247443 0.679639 0.324954
4.235391 0.677552 0.364690
4.233871 0.693170 0.364923
4.245250 0.694610 0.365135
4.246781 0.678979 0.364903
4.234531 0.693846 0.324974
4.233007 0.709464 0.325207
4.244383 0.710917 0.325419
4.245910 0.695286 0.325186
4.233871 0.693186 0.364923
4.232347 0.708804 0.365156
4.243723 0.710257 0.365368
4.245249 0.694625 0.365135
4.233005 0.709479 0.325208
4.231486 0.725097 0.325441
4.242851 0.726564 0.325652
4.244381 0.710933 0.325419
4.232346 0.708819 0.365157
4.230827 0.724438 0.365390
4.242192 0.725904 0.365601
4.243722 0.710273 0.365369
4.231484 0.725113 0.325441
4.229960 0.740731 0.325674
4.241323 0.742211 0.325886
4.242849 0.726580 0.325652
4.230826 0.724453 0.365390
4.229301 0.740071 0.365623
4.240664 0.741551 0.365835
4.242191 0.725919 0.365602
4.229957 0.740746 0.325674
4.228438 0.756365 0.325907
4.239790 0.757858 0.326118
4.241320 0.742227 0.325886
4.229301 0.740087 0.365623
4.227781 0.755705 0.365857
4.239133 0.757198 0.366067
4.240664 0.741567 0.365835
4.228436 0.756380 0.325908
4.226912 0.771998 0.326140
4.238262 0.773505 0.326351
4.239788 0.757873 0.326119
4.227780 0.755721 0.365857
4.226256 0.771339 0.366090
4.237606 0.772846 0.366301
4.239133 0.757214 0.366068
4.226909 0.772014 0.326141
4.225390 0.787632 0.326374
4.236729 0.789152 0.326584
4.238259 0.773521 0.326352
4.226256 0.771354 0.366090
4.224737 0.786972 0.366323
4.236075 0.788492 0.366533
4.237606 0.772861 0.366301
4.225388 0.787647 0.326374
4.223864 0.803265 0.326607
4.235201 0.804799 0.326818
4.236726 0.789167 0.326584
4.224736 0.786988 0.366323
4.223212 0.802606 0.366557
4.234548 0.804140 0.366767
4.236074 0.788508 0.366534
4.223861 0.803281 0.326607
4.222342 0.818899 0.326841
4.233667 0.820446 0.327050
4.235198 0.804815 0.326818
4.223211 0.802621 0.366557
4.221692 0.818239 0.366790
4.233017 0.819786 0.367000
4.234548 0.804155 0.366767
4.222340 0.818914 0.326841
4.220817 0.834532 0.327074
4.232139 0.836093 0.327283
4.233665 0.820461 0.327051
4.221691 0.818256 0.366790
4.220167 0.833873 0.367023
4.231490 0.835434 0.367233
4.233016 0.819803 0.367000
4.220815 0.834548 0.327074
4.219295 0.850166 0.327307
4.230606 0.851740 0.327517
4.232137 0.836109 0.327284
4.220166 0.833888 0.367023
4.218647 0.849507 0.367257
4.229958 0.851080 0.367466
4.231489 0.835449 0.367233
4.219293 0.850181 0.327308
4.217768 0.865799 0.327541
4.229078 0.867387 0.327750
4.230604 0.851755 0.327517
4.218646 0.849523 0.367257
4.217121 0.865140 0.367490
4.228431 0.866728 0.367699
4.229957 0.851096 0.367466
4.217766 0.865815 0.327541
4.216247 0.881433 0.327774
4.227545 0.883034 0.327983
4.229076 0.867402 0.327750
4.217121 0.865156 0.367490
4.215601 0.880774 0.367723
4.226899 0.882375 0.367932
4.228430 0.866744 0.367699
4.216245 0.881448 0.327774
4.214721 0.897066 0.328007
4.226017 0.898681 0.328216
4.227543 0.883049 0.327983
4.215600 0.880790 0.367724
4.214076 0.896408 0.367956
4.225373 0.898023 0.368165
4.226899 0.882391 0.367932
4.214718 0.897082 0.328007
4.213199 0.912700 0.328241
4.224483 0.914328 0.328448
4.226014 0.898697 0.328216
4.214076 0.896423 0.367957
4.212556 0.912042 0.368190
4.223841 0.913669 0.368398
4.225372 0.898038 0.368165
4.213196 0.912716 0.328241
4.211672 0.928333 0.328474
4.222955 0.929975 0.328682
4.224481 0.914343 0.328449
4.212556 0.912057 0.368190
4.211031 0.927675 0.368423
4.222314 0.929316 0.368631
4.223840 0.913685 0.368398
4.211670 0.928348 0.328474
4.210150 0.943967 0.328707
4.221422 0.945621 0.328915
4.222953 0.929990 0.328682
4.211030 0.927691 0.368424
4.209511 0.943309 0.368657
4.220783 0.944964 0.368864
4.222313 0.929333 0.368632
4.210148 0.943983 0.328708
4.208624 0.959600 0.328940
4.219894 0.961269 0.329148
4.221420 0.945637 0.328915
4.209510 0.943325 0.368657
4.207986 0.958942 0.368890
4.219256 0.960611 0.369097
4.220782 0.944979 0.368864
4.208005 0.959051 0.328939
4.206486 0.974669 0.329172
4.216713 0.976578 0.328601
4.219275 0.960719 0.329146
4.208602 0.959523 0.368892
4.207083 0.975141 0.369125
4.217309 0.977050 0.368554
4.219871 0.961192 0.369099
4.264277 0.507269 0.322349
4.262740 0.523176 0.322623
4.276190 0.524496 0.322841
4.277728 0.508852 0.322607
4.263646 0.506564 0.362298
4.262109 0.522472 0.362572
4.275559 0.523792 0.362790
4.277097 0.508147 0.362556
4.262715 0.523166 0.322622
4.261184 0.538797 0.322855
4.274632 0.540131 0.323073
4.276164 0.524486 0.322840
4.262131 0.522514 0.362573
4.260601 0.538145 0.362806
4.274049 0.539479 0.363024
4.275581 0.523834 0.362791
4.261181 0.538812 0.322856
4.259656 0.554444 0.323088
4.273092 0.555791 0.323306
4.274630 0.540146 0.323073
4.260600 0.538161 0.362806
4.259074 0.553793 0.363039
4.272510 0.555140 0.363256
4.274049 0.539495 0.363024
4.259653 0.554459 0.323089
4.258122 0.570090 0.323321
4.271557 0.571451 0.323538
4.273089 0.555806 0.323306
4.259074 0.553809 0.363039
4.257543 0.569440 0.363272
4.270978 0.570801 0.363488
4.272510 0.555156 0.363256
4.258120 0.570106 0.323321
4.256594 0.585738 0.323554
4.270017 0.587112 0.323770
4.271555 0.571467 0.323538
4.257542 0.569455 0.363272
4.256017 0.585087 0.363505
4.269440 0.586461 0.363721
4.270977 0.570816 0.363488
4.256592 0.585754 0.323554
4.255061 0.601385 0.323787
4.268482 0.602773 0.324003
4.270015 0.587128 0.323771
4.256016 0.585102 0.363505
4.254485 0.600733 0.363738
4.267906 0.602121 0.363954
4.269439 0.586476 0.363721
4.255059 0.601400 0.323788
4.253533 0.617032 0.324020
4.266943 0.618433 0.324236
4.268480 0.602788 0.324004
4.254484 0.600749 0.363738
4.252958 0.616381 0.363971
4.266368 0.617782 0.364187
4.267905 0.602137 0.363954
4.253531 0.617047 0.324021
4.252000 0.632678 0.324254
4.265408 0.634093 0.324469
4.266941 0.618448 0.324236
4.252957 0.616397 0.363971
4.251426 0.632028 0.364204
4.264834 0.633443 0.364419
4.266367 0.617798 0.364187
4.251998 0.632694 0.324254
4.250472 0.648326 0.324486
4.263868 0.649753 0.324702
4.265406 0.634109 0.324469
4.251425 0.632044 0.364204
4.249899 0.647675 0.364437
4.263296 0.649103 0.364652
4.264833 0.633458 0.364420
4.250470 0.648342 0.324487
4.248939 0.663973 0.324720
4.262334 0.665414 0.324935
4.263866 0.649769 0.324702
4.249898 0.647691 0.364437
4.248368 0.663322 0.364670
4.261762 0.664763 0.364885
4.263295 0.649118 0.364653
4.248937 0.663988 0.324720
4.247411 0.679620 0.324953
4.260794 0.681074 0.325167
4.262331 0.665430 0.324935
4.248367 0.663338 0.364671
4.246841 0.678969 0.364903
4.260224 0.680424 0.365118
4.261761 0.664779 0.364885
4.247409 0.679635 0.324953
4.245878 0.695266 0.325186
4.259259 0.696735 0.325400
4.260792 0.681090 0.325167
4.246840 0.678985 0.364904
4.245309 0.694616 0.365136
4.258690 0.696085 0.365351
4.260223 0.680440 0.365118
4.245876 0.695282 0.325186
4.244349 0.710913 0.325419
4.257720 0.712395 0.325632
4.259257 0.696750 0.325400
4.245308 0.694632 0.365136
4.243782 0.710264 0.365369
4.257152 0.711745 0.365583
4.258689 0.696101 0.365351
4.244347 0.710929 0.325419
4.242817 0.726560 0.325652
4.256185 0.728056 0.325865
4.257718 0.712411 0.325633
4.243781 0.710279 0.365370
4.242251 0.725910 0.365602
4.255619 0.727406 0.365816
4.257151 0.711761 0.365583
4.242815 0.726576 0.325652
4.241288 0.742208 0.325885
4.254645 0.743716 0.326098
4.256183 0.728072 0.325865
4.242250 0.725926 0.365603
4.240724 0.741558 0.365836
4.254080 0.743066 0.366049
4.255618 0.727421 0.365816
4.241286 0.742223 0.325885
4.239756 0.757854 0.326118
4.253111 0.759377 0.326331
4.254643 0.743732 0.326098
4.240722 0.741574 0.365836
4.239192 0.757205 0.366069
4.252547 0.758727 0.366282
4.254079 0.743082 0.366049
4.239754 0.757870 0.326118
4.238228 0.773501 0.326351
4.251571 0.775037 0.326563
4.253108 0.759392 0.326331
4.239191 0.757221 0.366069
4.237665 0.772852 0.366302
4.251008 0.774388 0.366514
4.252546 0.758743 0.366282
4.238225 0.773517 0.326351
4.236695 0.789148 0.326584
4.250036 0.790697 0.326796
4.251568 0.775052 0.326564
4.237664 0.772868 0.366302
4.236134 0.788499 0.366534
4.249475 0.790048 0.366747
4.251007 0.774403 0.366514
4.236692 0.789164 0.326584
4.235167 0.804796 0.326817
4.248496 0.806358 0.327029
4.250033 0.790713 0.326796
4.236133 0.788515 0.366535
4.234607 0.804146 0.366768
4.247937 0.805708 0.366979
4.249474 0.790064 0.366747
4.235164 0.804811 0.326817
4.233633 0.820442 0.327050
4.246961 0.822018 0.327262
4.248494 0.806373 0.327029
4.234606 0.804162 0.366768
4.233075 0.819793 0.367001
4.246403 0.821369 0.367213
4.247936 0.805724 0.366980
4.233631 0.820458 0.327050
4.232105 0.836089 0.327283
4.245422 0.837679 0.327494
4.246959 0.822034 0.327262
4.233074 0.819809 0.367001
4.231548 0.835441 0.367234
4.244864 0.837030 0.367445
4.246402 0.821385 0.367213
4.232103 0.836105 0.327283
4.230573 0.851736 0.327516
4.243887 0.853340 0.327727
4.245420 0.837695 0.327495
4.231547 0.835456 0.367234
4.230016 0.851087 0.367467
4.243331 0.852690 0.367678
4.244863 0.837045 0.367445
4.230571 0.851752 0.327516
4.229044 0.867384 0.327749
4.242347 0.868999 0.327960
4.243885 0.853355 0.327728
4.230015 0.851103 0.367467
4.228489 0.866735 0.367700
4.241792 0.868351 0.367911
4.243330 0.852706 0.367679
4.229042 0.867399 0.327749
4.227511 0.883030 0.327982
4.240812 0.884660 0.328193
4.242345 0.869015 0.327960
4.228488 0.866751 0.367700
4.226958 0.882382 0.367933
4.240259 0.884012 0.368143
4.241792 0.868367 0.367911
4.227509 0.883046 0.327982
4.225983 0.898677 0.328215
4.239272 0.900320 0.328425
4.240810 0.884676 0.328193
4.226957 0.882397 0.367933
4.225431 0.898029 0.368166
4.238720 0.899672 0.368376
4.240258 0.884027 0.368144
4.225981 0.898693 0.328215
4.224450 0.914324 0.328448
4.237738 0.915981 0.328658
4.239270 0.900336 0.328425
4.225430 0.898045 0.368166
4.223899 0.913676 0.368399
4.237186 0.915333 0.368609
4.238719 0.899687 0.368376
4.224448 0.914340 0.328448
4.222922 0.929972 0.328681
4.236199 0.931641 0.328891
4.237736 0.915997 0.328659
4.223898 0.913691 0.368399
4.222372 0.929323 0.368632
4.235648 0.930993 0.368842
4.237185 0.915348 0.368610
4.222920 0.929987 0.328682
4.221389 0.945618 0.328914
4.234663 0.947302 0.329124
4.236196 0.931657 0.328891
4.222371 0.929339 0.368633
4.220840 0.944970 0.368865
4.234114 0.946654 0.369075
4.235647 0.931009 0.368842
4.221386 0.945632 0.328914
4.219860 0.961264 0.329147
4.233123 0.962961 0.329354
4.234660 0.947316 0.329124
4.220841 0.944987 0.368865
4.219315 0.960619 0.369098
4.232578 0.962316 0.369305
4.234115 0.946671 0.369075
4.220461 0.960877 0.329162
4.217899 0.976735 0.328617
4.232191 0.978219 0.329607
4.233724 0.962573 0.329369
4.218709 0.961038 0.369084
4.216147 0.976896 0.368539
4.230439 0.978379 0.369528
4.231972 0.962734 0.369290
4.224977 0.511548 -0.330717
4.239643 0.513943 -0.331048
4.237919 0.528481 -0.330771
4.223482 0.527143 -0.330589
4.224213 0.512004 -0.370667
4.238879 0.514399 -0.370999
4.237155 0.528937 -0.370721
4.222718 0.527598 -0.370539
4.223363 0.527240 -0.330586
4.237800 0.528578 -0.330768
4.236298 0.544186 -0.330634
4.221839 0.542830 -0.330452
4.222833 0.527532 -0.370542
4.237271 0.528870 -0.370723
4.235768 0.544478 -0.370590
4.221309 0.543121 -0.370408
4.221837 0.542842 -0.330452
4.236296 0.544199 -0.330634
4.234766 0.559802 -0.330497
4.220342 0.558437 -0.330316
4.221308 0.543140 -0.370408
4.235767 0.544497 -0.370589
4.234237 0.560100 -0.370452
4.219813 0.558735 -0.370272
4.220342 0.558452 -0.330316
4.234765 0.559817 -0.330497
4.233263 0.575425 -0.330361
4.218818 0.574042 -0.330179
4.219811 0.558751 -0.370272
4.234235 0.560116 -0.370452
4.232733 0.575724 -0.370316
4.218287 0.574340 -0.370134
4.218817 0.574058 -0.330178
4.233262 0.575441 -0.330361
4.231732 0.591044 -0.330224
4.217322 0.589653 -0.330043
4.218285 0.574355 -0.370134
4.232731 0.575739 -0.370316
4.231201 0.591342 -0.370179
4.216790 0.589950 -0.369998
4.217320 0.589668 -0.330043
4.231730 0.591060 -0.330224
4.230229 0.606668 -0.330088
4.215796 0.605258 -0.329907
4.216789 0.589965 -0.369998
4.231199 0.591357 -0.370179
4.229698 0.606965 -0.370044
4.215265 0.605555 -0.369862
4.215795 0.605274 -0.329906
4.230227 0.606684 -0.330088
4.228696 0.622287 -0.329952
4.214300 0.620869 -0.329771
4.215264 0.605570 -0.369862
4.229696 0.606980 -0.370043
4.228165 0.622583 -0.369908
4.213769 0.621164 -0.369727
4.214298 0.620884 -0.329771
4.228694 0.622303 -0.329952
4.227193 0.637911 -0.329816
4.212774 0.636474 -0.329636
4.213768 0.621180 -0.369727
4.228164 0.622599 -0.369907
4.226663 0.638207 -0.369772
4.212244 0.636770 -0.369591
4.212771 0.636489 -0.329636
4.227189 0.637926 -0.329816
4.225659 0.653529 -0.329679
4.211276 0.652084 -0.329501
4.212244 0.636786 -0.369591
4.226663 0.638223 -0.369772
4.225132 0.653826 -0.369635
4.210749 0.652380 -0.369457
4.211274 0.652100 -0.329501
4.225657 0.653545 -0.329679
4.224155 0.669153 -0.329544
4.209750 0.667689 -0.329365
4.210748 0.652396 -0.369456
4.225132 0.653841 -0.369635
4.223630 0.669449 -0.369500
4.209225 0.667985 -0.369320
4.209747 0.667706 -0.329365
4.224152 0.669170 -0.329544
4.222622 0.684772 -0.329408
4.208252 0.683300 -0.329232
4.209225 0.668000 -0.369320
4.223629 0.669464 -0.369499
4.222099 0.685067 -0.369363
4.207729 0.683595 -0.369187
4.208249 0.683315 -0.329231
4.222619 0.684787 -0.329407
4.221117 0.700396 -0.329272
4.206725 0.698905 -0.329096
4.207730 0.683611 -0.369187
4.222099 0.685083 -0.369363
4.220598 0.700692 -0.369228
4.206206 0.699201 -0.369052
4.206723 0.698919 -0.329096
4.221115 0.700410 -0.329272
4.219584 0.716013 -0.329135
4.205228 0.714513 -0.328961
4.206205 0.699218 -0.369052
4.220597 0.700709 -0.369228
4.219066 0.716312 -0.369090
4.204710 0.714812 -0.368916
4.205226 0.714529 -0.328961
4.219583 0.716028 -0.329134
4.218081 0.731636 -0.328999
4.203703 0.730119 -0.328823
4.204708 0.714828 -0.368916
4.219064 0.716327 -0.369090
4.217563 0.731935 -0.368955
4.203184 0.730418 -0.368779
4.203702 0.730135 -0.328823
4.218081 0.731653 -0.328999
4.216550 0.747256 -0.328863
4.202207 0.745729 -0.328688
4.203182 0.730433 -0.368778
4.217561 0.731950 -0.368955
4.216030 0.747553 -0.368818
4.201687 0.746027 -0.368643
4.202205 0.745746 -0.328688
4.216548 0.747272 -0.328862
4.215047 0.762880 -0.328727
4.200682 0.761335 -0.328552
4.201686 0.746042 -0.368643
4.216029 0.747568 -0.368818
4.214527 0.763176 -0.368683
4.200162 0.761632 -0.368507
4.200679 0.761350 -0.328552
4.215044 0.762894 -0.328727
4.213513 0.778498 -0.328590
4.199183 0.776944 -0.328417
4.200162 0.761648 -0.368507
4.214527 0.763193 -0.368683
4.212996 0.778796 -0.368545
4.198666 0.777243 -0.368373
4.199181 0.776960 -0.328417
4.213511 0.778514 -0.328590
4.212009 0.794121 -0.328454
4.197657 0.792550 -0.328281
4.198666 0.777258 -0.368372
4.212996 0.778811 -0.368545
4.211494 0.794419 -0.368410
4.197142 0.792848 -0.368237
4.197655 0.792566 -0.328281
4.212007 0.794137 -0.328454
4.210476 0.809740 -0.328318
4.196160 0.808160 -0.328146
4.197141 0.792863 -0.368236
4.211493 0.794435 -0.368410
4.209962 0.810038 -0.368273
4.195646 0.808458 -0.368102
4.196159 0.808175 -0.328146
4.210475 0.809755 -0.328318
4.208973 0.825363 -0.328182
4.194635 0.823765 -0.328009
4.195644 0.808474 -0.368101
4.209961 0.810054 -0.368273
4.208459 0.825661 -0.368138
4.194120 0.824064 -0.367965
4.194633 0.823781 -0.328009
4.208971 0.825379 -0.328182
4.207441 0.840982 -0.328046
4.193138 0.839375 -0.327874
4.194119 0.824079 -0.367965
4.208457 0.825677 -0.368138
4.206927 0.841280 -0.368001
4.192624 0.839673 -0.367830
4.193136 0.839391 -0.327874
4.207439 0.840998 -0.328045
4.205937 0.856606 -0.327910
4.191612 0.854981 -0.327738
4.192623 0.839689 -0.367830
4.206926 0.841296 -0.368001
4.205423 0.856903 -0.367866
4.191098 0.855279 -0.367693
4.191609 0.854998 -0.327738
4.205934 0.856622 -0.327910
4.204403 0.872226 -0.327773
4.190113 0.870592 -0.327605
4.191099 0.855293 -0.367693
4.205424 0.856918 -0.367866
4.203893 0.872522 -0.367729
4.189603 0.870887 -0.367560
4.190110 0.870606 -0.327605
4.204401 0.872240 -0.327773
4.202899 0.887847 -0.327638
4.188587 0.886196 -0.327468
4.189603 0.870904 -0.367560
4.203893 0.872539 -0.367729
4.202391 0.888146 -0.367594
4.188080 0.886495 -0.367424
4.188586 0.886211 -0.327468
4.202898 0.887862 -0.327638
4.201367 0.903466 -0.327501
4.187091 0.901805 -0.327332
4.188078 0.886511 -0.367424
4.202389 0.888162 -0.367594
4.200858 0.903766 -0.367457
4.186582 0.902105 -0.367288
4.187089 0.901821 -0.327332
4.201365 0.903482 -0.327501
4.199863 0.919090 -0.327365
4.185566 0.917411 -0.327195
4.186581 0.902120 -0.367287
4.200857 0.903781 -0.367456
4.199355 0.919389 -0.367321
4.185057 0.917710 -0.367151
4.185564 0.917427 -0.327195
4.199861 0.919106 -0.327365
4.198331 0.934710 -0.327229
4.184068 0.933021 -0.327061
4.185056 0.917725 -0.367151
4.199354 0.919404 -0.367321
4.197823 0.935007 -0.367184
4.183560 0.933319 -0.367016
4.184066 0.933037 -0.327061
4.198329 0.934726 -0.327228
4.196828 0.950333 -0.327094
4.182543 0.948628 -0.326925
4.183559 0.933334 -0.367016
4.197822 0.935023 -0.367184
4.196320 0.950630 -0.367050
4.182035 0.948925 -0.366880
4.182539 0.948643 -0.326924
4.196824 0.950348 -0.327094
4.195293 0.965952 -0.326956
4.181043 0.964237 -0.326792
4.182037 0.948941 -0.366880
4.196322 0.950646 -0.367050
4.194791 0.966250 -0.366912
4.180541 0.964534 -0.366748
4.181011 0.964216 -0.326792
4.195261 0.965931 -0.326956
4.193725 0.981840 -0.326769
4.179487 0.979806 -0.326652
4.180570 0.964587 -0.366748
4.194820 0.966302 -0.366911
4.193283 0.982211 -0.366725
4.179046 0.980177 -0.366608
4.239477 0.513921 -0.331046
4.251730 0.514151 -0.331091
4.250221 0.529772 -0.330955
4.237753 0.528458 -0.330769
4.239072 0.514425 -0.371001
4.251324 0.514655 -0.371046
4.249815 0.530276 -0.370910
4.237348 0.528962 -0.370724
4.237861 0.528582 -0.330769
4.250329 0.529897 -0.330956
4.248792 0.545513 -0.330818
4.236359 0.544190 -0.330635
4.237237 0.528868 -0.370723
4.249704 0.530183 -0.370910
4.248167 0.545799 -0.370773
4.235734 0.544476 -0.370589
4.236356 0.544204 -0.330635
4.248789 0.545527 -0.330818
4.247280 0.561149 -0.330682
4.234826 0.559807 -0.330498
4.235734 0.544494 -0.370589
4.248167 0.545816 -0.370772
4.246658 0.561438 -0.370636
4.234204 0.560097 -0.370452
4.234824 0.559823 -0.330498
4.247278 0.561164 -0.330682
4.245741 0.576781 -0.330545
4.233322 0.575431 -0.330362
4.234203 0.560112 -0.370452
4.246657 0.561453 -0.370636
4.245120 0.577070 -0.370499
4.232701 0.575720 -0.370316
4.233320 0.575447 -0.330362
4.245739 0.576796 -0.330545
4.244231 0.592418 -0.330408
4.231790 0.591050 -0.330225
4.232699 0.575736 -0.370316
4.245119 0.577085 -0.370499
4.243610 0.592707 -0.370363
4.231169 0.591339 -0.370179
4.231788 0.591066 -0.330225
4.244229 0.592434 -0.330408
4.242692 0.608050 -0.330271
4.230287 0.606674 -0.330089
4.231168 0.591354 -0.370179
4.243609 0.592722 -0.370362
4.242072 0.608339 -0.370225
4.229667 0.606962 -0.370043
4.230284 0.606690 -0.330089
4.242690 0.608066 -0.330271
4.241181 0.623688 -0.330135
4.228753 0.622293 -0.329953
4.229666 0.606977 -0.370043
4.242072 0.608354 -0.370225
4.240563 0.623975 -0.370089
4.228135 0.622580 -0.369907
4.228751 0.622308 -0.329953
4.241179 0.623703 -0.330135
4.239642 0.639319 -0.329998
4.227250 0.637916 -0.329817
4.228134 0.622597 -0.369907
4.240562 0.623992 -0.370089
4.239025 0.639608 -0.369952
4.226633 0.638205 -0.369771
4.227248 0.637932 -0.329817
4.239640 0.639335 -0.329998
4.238132 0.654956 -0.329862
4.225718 0.653535 -0.329680
4.226631 0.638220 -0.369771
4.239023 0.639624 -0.369952
4.237515 0.655245 -0.369816
4.225101 0.653823 -0.369634
4.225715 0.653550 -0.329680
4.238129 0.654972 -0.329862
4.236592 0.670588 -0.329724
4.224213 0.669158 -0.329545
4.225100 0.653839 -0.369634
4.237514 0.655261 -0.369816
4.235977 0.670877 -0.369678
4.223598 0.669447 -0.369499
4.224211 0.669174 -0.329545
4.236589 0.670604 -0.329724
4.235081 0.686226 -0.329588
4.222680 0.684777 -0.329408
4.223598 0.669463 -0.369499
4.235977 0.670893 -0.369678
4.234469 0.686514 -0.369542
4.222068 0.685066 -0.369363
4.222678 0.684792 -0.329408
4.235079 0.686241 -0.329588
4.233542 0.701857 -0.329451
4.221176 0.700400 -0.329273
4.222067 0.685082 -0.369362
4.234468 0.686530 -0.369542
4.232932 0.702147 -0.369405
4.220566 0.700690 -0.369227
4.221174 0.700416 -0.329273
4.233540 0.701872 -0.329450
4.232031 0.717494 -0.329315
4.219644 0.716019 -0.329135
4.220564 0.700706 -0.369227
4.232930 0.702163 -0.369405
4.231421 0.717784 -0.369269
4.219033 0.716309 -0.369090
4.219642 0.716035 -0.329135
4.232030 0.717510 -0.329315
4.230493 0.733127 -0.329177
4.218141 0.731643 -0.329000
4.219032 0.716324 -0.369090
4.231419 0.717799 -0.369269
4.229882 0.733416 -0.369132
4.217530 0.731932 -0.368954
4.218138 0.731658 -0.329000
4.230490 0.733142 -0.329177
4.228982 0.748764 -0.329041
4.216608 0.747261 -0.328863
4.217530 0.731947 -0.368954
4.229882 0.733432 -0.369131
4.228373 0.749053 -0.368996
4.215999 0.747551 -0.368818
4.216606 0.747277 -0.328863
4.228979 0.748779 -0.329041
4.227442 0.764396 -0.328904
4.215104 0.762885 -0.328728
4.215998 0.747566 -0.368818
4.228372 0.749069 -0.368995
4.226835 0.764685 -0.368858
4.214497 0.763174 -0.368682
4.215102 0.762900 -0.328728
4.227440 0.764410 -0.328904
4.225932 0.780032 -0.328768
4.213571 0.778503 -0.328591
4.214496 0.763191 -0.368682
4.226834 0.764702 -0.368858
4.225326 0.780323 -0.368722
4.212965 0.778794 -0.368545
4.213569 0.778519 -0.328590
4.225930 0.780048 -0.328767
4.224393 0.795665 -0.328630
4.212067 0.794127 -0.328455
4.212964 0.778809 -0.368545
4.225325 0.780338 -0.368722
4.223788 0.795955 -0.368584
4.211462 0.794417 -0.368409
4.212065 0.794143 -0.328455
4.224391 0.795681 -0.328630
4.222882 0.811302 -0.328494
4.210535 0.809746 -0.328319
4.211461 0.794432 -0.368409
4.223787 0.795970 -0.368584
4.222278 0.811591 -0.368449
4.209930 0.810035 -0.368273
4.210533 0.809761 -0.328318
4.222880 0.811317 -0.328494
4.221343 0.826934 -0.328357
4.209031 0.825369 -0.328183
4.209929 0.810051 -0.368273
4.222277 0.811607 -0.368449
4.220739 0.827224 -0.368311
4.208427 0.825659 -0.368138
4.209029 0.825384 -0.328183
4.221341 0.826949 -0.328357
4.219832 0.842570 -0.328221
4.207499 0.840988 -0.328046
4.208426 0.825675 -0.368137
4.220738 0.827240 -0.368311
4.219230 0.842861 -0.368175
4.206896 0.841278 -0.368001
4.207496 0.841003 -0.328046
4.219830 0.842586 -0.328221
4.218292 0.858203 -0.328083
4.205994 0.856611 -0.327911
4.206896 0.841294 -0.368001
4.219229 0.842876 -0.368175
4.217692 0.858493 -0.368038
4.205393 0.856901 -0.367865
4.205991 0.856627 -0.327911
4.218290 0.858219 -0.328083
4.216781 0.873839 -0.327947
4.204461 0.872230 -0.327774
4.205393 0.856917 -0.367865
4.217692 0.858509 -0.368038
4.216183 0.874130 -0.367902
4.203863 0.872521 -0.367729
4.204458 0.872245 -0.327774
4.216779 0.873855 -0.327947
4.215241 0.889472 -0.327809
4.202956 0.887853 -0.327639
4.203862 0.872536 -0.367729
4.216183 0.874146 -0.367902
4.214645 0.889763 -0.367764
4.202360 0.888144 -0.367593
4.202954 0.887868 -0.327639
4.215239 0.889487 -0.327809
4.213731 0.905108 -0.327674
4.201424 0.903472 -0.327502
4.202359 0.888160 -0.367593
4.214644 0.889779 -0.367764
4.213136 0.905399 -0.367628
4.200828 0.903763 -0.367456
4.201423 0.903488 -0.327501
4.213730 0.905124 -0.327673
4.212193 0.920741 -0.327537
4.199921 0.919096 -0.327366
4.200826 0.903779 -0.367456
4.213134 0.905415 -0.367628
4.211596 0.921032 -0.367491
4.199325 0.919386 -0.367320
4.199919 0.919111 -0.327366
4.212191 0.920757 -0.327537
4.210682 0.936378 -0.327400
4.198388 0.934715 -0.327229
4.199323 0.919402 -0.367320
4.211595 0.921048 -0.367491
4.210087 0.936668 -0.367355
4.197793 0.935005 -0.367184
4.198385 0.934731 -0.327229
4.210678 0.936394 -0.327400
4.209141 0.952011 -0.327263
4.196883 0.950338 -0.327095
4.197793 0.935021 -0.367184
4.210087 0.936684 -0.367355
4.208550 0.952301 -0.367218
4.196292 0.950628 -0.367049
4.196881 0.950351 -0.327095
4.209139 0.952024 -0.327263
4.207631 0.967645 -0.327126
4.195350 0.965955 -0.326957
4.196291 0.950646 -0.367049
4.208548 0.952319 -0.367217
4.207040 0.967939 -0.367081
4.194760 0.966250 -0.366911
4.195393 0.965947 -0.326957
4.207673 0.967637 -0.327127
4.206136 0.983254 -0.326991
4.193857 0.981856 -0.326771
4.194714 0.966289 -0.366910
4.206995 0.967979 -0.367080
4.205458 0.983596 -0.366944
4.193178 0.982198 -0.366723
4.252005 0.514190 -0.331095
4.263491 0.515202 -0.331419
4.261936 0.531106 -0.331145
4.250496 0.529811 -0.330960
4.251073 0.514618 -0.371042
4.262559 0.515630 -0.371366
4.261004 0.531535 -0.371092
4.249564 0.530239 -0.370906
4.250369 0.529899 -0.330956
4.261808 0.531194 -0.331142
4.260294 0.546828 -0.331005
4.248832 0.545515 -0.330819
4.249688 0.530183 -0.370909
4.261128 0.531478 -0.371095
4.259613 0.547113 -0.370958
4.248151 0.545800 -0.370772
4.248829 0.545531 -0.330819
4.260291 0.546845 -0.331004
4.258747 0.562475 -0.330867
4.247320 0.561153 -0.330683
4.248151 0.545815 -0.370772
4.259613 0.547128 -0.370958
4.258069 0.562758 -0.370820
4.246642 0.561436 -0.370636
4.247319 0.561168 -0.330682
4.258746 0.562490 -0.330867
4.257230 0.578125 -0.330730
4.245782 0.576785 -0.330545
4.246641 0.561452 -0.370636
4.258068 0.562774 -0.370820
4.256552 0.578409 -0.370683
4.245103 0.577069 -0.370499
4.245780 0.576800 -0.330545
4.257228 0.578141 -0.330730
4.255685 0.593771 -0.330593
4.244271 0.592422 -0.330409
4.245102 0.577084 -0.370499
4.256551 0.578424 -0.370683
4.255008 0.594054 -0.370546
4.243594 0.592706 -0.370362
4.244270 0.592437 -0.330409
4.255683 0.593786 -0.330593
4.254168 0.609421 -0.330456
4.242733 0.608054 -0.330272
4.243593 0.592721 -0.370362
4.255006 0.594070 -0.370546
4.253491 0.609705 -0.370409
4.242056 0.608338 -0.370225
4.242730 0.608070 -0.330272
4.254165 0.609437 -0.330456
4.252622 0.625067 -0.330318
4.241221 0.623691 -0.330136
4.242055 0.608353 -0.370225
4.253490 0.609720 -0.370409
4.251947 0.625350 -0.370271
4.240546 0.623975 -0.370089
4.241219 0.623707 -0.330136
4.252620 0.625082 -0.330318
4.251104 0.640717 -0.330181
4.239682 0.639323 -0.329998
4.240545 0.623991 -0.370089
4.251946 0.625366 -0.370271
4.250430 0.641001 -0.370135
4.239008 0.639607 -0.369952
4.239680 0.639339 -0.329998
4.251102 0.640733 -0.330181
4.249558 0.656362 -0.330043
4.238171 0.654960 -0.329863
4.239008 0.639623 -0.369952
4.250429 0.641017 -0.370135
4.248886 0.656647 -0.369997
4.237499 0.655244 -0.369816
4.238170 0.654975 -0.329862
4.249557 0.656378 -0.330043
4.248041 0.672013 -0.329907
4.236633 0.670592 -0.329725
4.237498 0.655260 -0.369816
4.248885 0.656662 -0.369997
4.247369 0.672297 -0.369860
4.235960 0.670877 -0.369678
4.236630 0.670607 -0.329725
4.248039 0.672028 -0.329907
4.246495 0.687658 -0.329768
4.235122 0.686229 -0.329589
4.235960 0.670892 -0.369678
4.247369 0.672313 -0.369860
4.245825 0.687943 -0.369722
4.234451 0.686514 -0.369542
4.235120 0.686245 -0.329589
4.246493 0.687674 -0.329768
4.244977 0.703309 -0.329632
4.233583 0.701861 -0.329451
4.234451 0.686529 -0.369542
4.245824 0.687958 -0.369722
4.244309 0.703593 -0.369586
4.232914 0.702146 -0.369405
4.233581 0.701877 -0.329451
4.244976 0.703325 -0.329632
4.243432 0.718955 -0.329494
4.232072 0.717498 -0.329315
4.232913 0.702161 -0.369404
4.244307 0.703609 -0.369585
4.242764 0.719239 -0.369448
4.231404 0.717783 -0.369269
4.232070 0.717514 -0.329315
4.243430 0.718970 -0.329494
4.241915 0.734605 -0.329358
4.230533 0.733130 -0.329178
4.231403 0.717799 -0.369269
4.242763 0.719255 -0.369448
4.241248 0.734890 -0.369311
4.229866 0.733415 -0.369131
4.230530 0.733146 -0.329178
4.241912 0.734620 -0.329357
4.240368 0.750250 -0.329219
4.229021 0.748767 -0.329042
4.229865 0.733431 -0.369131
4.241248 0.734906 -0.369311
4.239703 0.750536 -0.369173
4.228357 0.749052 -0.368995
4.229019 0.748783 -0.329042
4.240365 0.750266 -0.329219
4.238851 0.765901 -0.329083
4.227482 0.764399 -0.328905
4.228356 0.749068 -0.368995
4.239703 0.750551 -0.369173
4.238188 0.766186 -0.369036
4.226819 0.764684 -0.368858
4.227480 0.764415 -0.328904
4.238849 0.765916 -0.329082
4.237305 0.781546 -0.328945
4.225972 0.780036 -0.328768
4.226818 0.764700 -0.368858
4.238187 0.766201 -0.369036
4.236642 0.781832 -0.368899
4.225309 0.780321 -0.368722
4.225971 0.780052 -0.328768
4.237303 0.781562 -0.328945
4.235788 0.797196 -0.328808
4.224434 0.795668 -0.328631
4.225308 0.780337 -0.368721
4.236641 0.781847 -0.368898
4.235126 0.797482 -0.368762
4.223771 0.795954 -0.368584
4.224431 0.795684 -0.328630
4.235786 0.797212 -0.328808
4.234241 0.812842 -0.328670
4.222922 0.811305 -0.328495
4.223770 0.795969 -0.368584
4.235125 0.797498 -0.368762
4.233581 0.813128 -0.368624
4.222262 0.811591 -0.368448
4.222920 0.811321 -0.328495
4.234239 0.812858 -0.328670
4.232724 0.828493 -0.328534
4.221382 0.826938 -0.328358
4.222261 0.811606 -0.368448
4.233580 0.813143 -0.368624
4.232066 0.828778 -0.368487
4.220724 0.827223 -0.368311
4.221380 0.826953 -0.328358
4.232722 0.828508 -0.328534
4.231178 0.844138 -0.328396
4.219872 0.842574 -0.328222
4.220723 0.827239 -0.368311
4.232065 0.828794 -0.368487
4.230521 0.844424 -0.368349
4.219214 0.842860 -0.368175
4.219870 0.842590 -0.328221
4.231176 0.844154 -0.328396
4.229661 0.859788 -0.328259
4.218332 0.858207 -0.328084
4.219213 0.842876 -0.368175
4.230520 0.844440 -0.368349
4.229004 0.860075 -0.368213
4.217676 0.858493 -0.368037
4.218330 0.858222 -0.328084
4.229658 0.859804 -0.328259
4.228115 0.875434 -0.328121
4.216822 0.873843 -0.327948
4.217675 0.858509 -0.368037
4.229003 0.860090 -0.368213
4.227460 0.875721 -0.368074
4.216167 0.874129 -0.367901
4.216820 0.873859 -0.327948
4.228113 0.875450 -0.328121
4.226597 0.891084 -0.327985
4.215282 0.889476 -0.327810
4.216165 0.874145 -0.367901
4.227458 0.875736 -0.368074
4.225943 0.891370 -0.367938
4.214627 0.889762 -0.367764
4.215280 0.889492 -0.327810
4.226595 0.891100 -0.327984
4.225052 0.906730 -0.327846
4.213772 0.905112 -0.327674
4.214626 0.889778 -0.367764
4.225941 0.891386 -0.367938
4.224398 0.907016 -0.367800
4.213118 0.905398 -0.367628
4.213770 0.905129 -0.327674
4.225049 0.906746 -0.327846
4.223534 0.922381 -0.327710
4.212232 0.920746 -0.327537
4.213118 0.905414 -0.367628
4.224397 0.907031 -0.367800
4.222882 0.922666 -0.367664
4.211580 0.921031 -0.367491
4.212230 0.920760 -0.327537
4.223532 0.922395 -0.327710
4.221988 0.938026 -0.327572
4.210721 0.936381 -0.327401
4.211580 0.921048 -0.367491
4.222881 0.922683 -0.367664
4.221338 0.938313 -0.367525
4.210071 0.936668 -0.367355
4.210716 0.936395 -0.327401
4.221983 0.938039 -0.327571
4.220467 0.953674 -0.327432
4.209178 0.952012 -0.327264
4.210073 0.936686 -0.367355
4.221340 0.938331 -0.367525
4.219824 0.953965 -0.367386
4.208536 0.952303 -0.367217
4.209177 0.952031 -0.327263
4.220465 0.953693 -0.327432
4.218921 0.969324 -0.327297
4.207668 0.967652 -0.327127
4.208534 0.952315 -0.367217
4.219823 0.953977 -0.367386
4.218279 0.969608 -0.367251
4.207026 0.967936 -0.367081
4.207631 0.967632 -0.327126
4.218883 0.969304 -0.327297
4.217347 0.985213 -0.327109
4.206093 0.983250 -0.326991
4.207061 0.967987 -0.367081
4.218314 0.969659 -0.367251
4.216778 0.985568 -0.367063
4.205524 0.983604 -0.366945
4.263240 0.515173 -0.331415
4.276674 0.516757 -0.331469
4.275152 0.532406 -0.331325
4.261685 0.531077 -0.331142
4.262834 0.515662 -0.371370
4.276268 0.517246 -0.371424
4.274747 0.532895 -0.371280
4.261279 0.531566 -0.371097
4.261767 0.531188 -0.331142
4.275235 0.532517 -0.331325
4.273684 0.548160 -0.331186
4.260252 0.546823 -0.331004
4.261194 0.531486 -0.371096
4.274662 0.532815 -0.371280
4.273111 0.548458 -0.371141
4.259679 0.547121 -0.370959
4.260250 0.546840 -0.331004
4.273681 0.548177 -0.331186
4.272159 0.563826 -0.331048
4.258706 0.562470 -0.330867
4.259679 0.547135 -0.370959
4.273111 0.548472 -0.371141
4.271589 0.564121 -0.371003
4.258135 0.562765 -0.370821
4.258704 0.562486 -0.330866
4.272158 0.563842 -0.331048
4.270607 0.579485 -0.330911
4.257189 0.578121 -0.330730
4.258134 0.562780 -0.370821
4.271587 0.564136 -0.371003
4.270036 0.579779 -0.370866
4.256618 0.578415 -0.370684
4.257188 0.578137 -0.330729
4.270606 0.579501 -0.330911
4.269085 0.595149 -0.330775
4.255645 0.593767 -0.330592
4.256616 0.578431 -0.370684
4.270034 0.579795 -0.370866
4.268513 0.595443 -0.370730
4.255073 0.594061 -0.370547
4.255643 0.593782 -0.330592
4.269083 0.595164 -0.330775
4.267532 0.610807 -0.330636
4.254127 0.609416 -0.330455
4.255071 0.594077 -0.370547
4.268512 0.595460 -0.370729
4.266961 0.611103 -0.370591
4.253556 0.609712 -0.370410
4.254125 0.609432 -0.330455
4.267530 0.610823 -0.330636
4.266007 0.626471 -0.330499
4.252581 0.625062 -0.330317
4.253555 0.609728 -0.370410
4.266960 0.611118 -0.370591
4.265438 0.626767 -0.370453
4.252012 0.625358 -0.370272
4.252579 0.625078 -0.330317
4.266005 0.626487 -0.330498
4.264455 0.642130 -0.330360
4.251063 0.640713 -0.330181
4.252011 0.625373 -0.370272
4.265437 0.626783 -0.370453
4.263888 0.642426 -0.370315
4.250496 0.641008 -0.370136
4.251062 0.640729 -0.330181
4.264453 0.642147 -0.330360
4.262932 0.657795 -0.330224
4.249518 0.656359 -0.330043
4.250494 0.641023 -0.370136
4.263886 0.642441 -0.370314
4.262364 0.658089 -0.370179
4.248951 0.656653 -0.369998
4.249517 0.656374 -0.330043
4.262930 0.657810 -0.330224
4.261379 0.673453 -0.330085
4.248002 0.672009 -0.329907
4.248949 0.656669 -0.369998
4.262363 0.658105 -0.370178
4.260812 0.673749 -0.370040
4.247434 0.672304 -0.369861
4.247999 0.672023 -0.329906
4.261377 0.673468 -0.330085
4.259855 0.689116 -0.329946
4.246455 0.687653 -0.329768
4.247434 0.672321 -0.369861
4.260812 0.673766 -0.370040
4.259290 0.689414 -0.369901
4.245890 0.687951 -0.369723
4.246452 0.687669 -0.329768
4.259851 0.689132 -0.329946
4.258301 0.704776 -0.329807
4.244936 0.703304 -0.329632
4.245890 0.687966 -0.369723
4.259290 0.689429 -0.369901
4.257740 0.705072 -0.369762
4.244375 0.703601 -0.369587
4.244934 0.703321 -0.329631
4.258299 0.704792 -0.329807
4.256777 0.720441 -0.329671
4.243390 0.718951 -0.329494
4.244374 0.703616 -0.369586
4.257739 0.705087 -0.369762
4.256217 0.720735 -0.369626
4.242830 0.719245 -0.369449
4.243390 0.718966 -0.329494
4.256776 0.720456 -0.329671
4.255225 0.736099 -0.329533
4.241875 0.734601 -0.329357
4.242828 0.719262 -0.369448
4.256215 0.720752 -0.369626
4.254664 0.736395 -0.369488
4.241313 0.734897 -0.369312
4.241873 0.734616 -0.329357
4.255224 0.736115 -0.329533
4.253702 0.751763 -0.329396
4.240329 0.750246 -0.329219
4.241312 0.734913 -0.369312
4.254663 0.736411 -0.369488
4.253141 0.752059 -0.369351
4.239767 0.750543 -0.369174
4.240327 0.750262 -0.329219
4.253700 0.751779 -0.329396
4.252150 0.767422 -0.329257
4.238812 0.765897 -0.329082
4.239766 0.750558 -0.369174
4.253139 0.752075 -0.369351
4.251588 0.767718 -0.369212
4.238251 0.766193 -0.369037
4.238810 0.765913 -0.329082
4.252147 0.767438 -0.329257
4.250626 0.783086 -0.329120
4.237266 0.781543 -0.328945
4.238251 0.766208 -0.369037
4.251588 0.767734 -0.369212
4.250066 0.783382 -0.369075
4.236706 0.781838 -0.368900
4.237263 0.781558 -0.328944
4.250623 0.783101 -0.329120
4.249072 0.798745 -0.328981
4.235748 0.797192 -0.328808
4.236706 0.781855 -0.368899
4.250066 0.783398 -0.369075
4.248515 0.799042 -0.368936
4.235191 0.797489 -0.368763
4.235746 0.797208 -0.328808
4.249070 0.798760 -0.328981
4.247549 0.814409 -0.328844
4.234202 0.812838 -0.328670
4.235190 0.797505 -0.368763
4.248514 0.799057 -0.368936
4.246992 0.814705 -0.368799
4.233645 0.813135 -0.368625
4.234199 0.812854 -0.328669
4.247546 0.814425 -0.328844
4.245995 0.830068 -0.328706
4.232685 0.828489 -0.328533
4.233644 0.813150 -0.368624
4.246991 0.814721 -0.368799
4.245440 0.830364 -0.368661
4.232130 0.828785 -0.368488
4.232683 0.828504 -0.328533
4.245993 0.830084 -0.328706
4.244472 0.845732 -0.328569
4.231139 0.844135 -0.328395
4.232129 0.828801 -0.368488
4.245439 0.830380 -0.368661
4.243918 0.846028 -0.368524
4.230585 0.844431 -0.368350
4.231137 0.844150 -0.328395
4.244470 0.845747 -0.328569
4.242919 0.861390 -0.328430
4.229621 0.859784 -0.328259
4.230584 0.844447 -0.368350
4.243917 0.846044 -0.368524
4.242365 0.861688 -0.368385
4.229068 0.860082 -0.368214
4.229619 0.859800 -0.328258
4.242916 0.861406 -0.328430
4.241395 0.877054 -0.328293
4.228075 0.875430 -0.328120
4.229067 0.860097 -0.368213
4.242364 0.861703 -0.368385
4.240843 0.877351 -0.368248
4.227523 0.875728 -0.368075
4.228074 0.875447 -0.328120
4.241393 0.877071 -0.328293
4.239842 0.892715 -0.328155
4.226558 0.891081 -0.327984
4.227522 0.875742 -0.368075
4.240841 0.877366 -0.368248
4.239290 0.893010 -0.368110
4.226006 0.891377 -0.367939
4.226557 0.891097 -0.327984
4.239841 0.892730 -0.328155
4.238319 0.908378 -0.328019
4.225013 0.906727 -0.327846
4.226004 0.891393 -0.367939
4.239288 0.893026 -0.368110
4.237766 0.908674 -0.367974
4.224461 0.907023 -0.367801
4.225011 0.906742 -0.327846
4.238317 0.908393 -0.328018
4.236767 0.924037 -0.327880
4.223496 0.922376 -0.327710
4.224459 0.907039 -0.367801
4.237765 0.908690 -0.367974
4.236215 0.924334 -0.367835
4.222944 0.922673 -0.367665
4.223493 0.922390 -0.327710
4.236764 0.924051 -0.327880
4.235242 0.939698 -0.327740
4.221949 0.938021 -0.327571
4.222945 0.922691 -0.367665
4.236216 0.924351 -0.367835
4.234694 0.939999 -0.367696
4.221401 0.938321 -0.367526
4.221947 0.938034 -0.327571
4.235239 0.939712 -0.327740
4.233689 0.955356 -0.327599
4.220431 0.953669 -0.327431
4.221400 0.938339 -0.367526
4.234693 0.940016 -0.367695
4.233142 0.955661 -0.367555
4.219885 0.953973 -0.367386
4.220422 0.953686 -0.327431
