3.459242 0.475955 -0.149121
3.468636 0.468597 -0.141117
3.464980 0.461262 -0.134131
3.459236 0.466982 -0.140073
3.456687 0.518232 -0.106707
3.466082 0.510874 -0.098703
3.462426 0.503539 -0.091717
3.456682 0.509259 -0.097659
3.462739 0.469361 -0.141744
3.468483 0.463642 -0.135802
3.463464 0.455970 -0.130621
3.459580 0.459593 -0.134345
3.453173 0.506862 -0.095973
3.458917 0.501143 -0.090031
3.453897 0.493471 -0.084850
3.450014 0.497094 -0.088574
3.459606 0.459798 -0.134507
3.463490 0.456176 -0.130782
3.455941 0.449924 -0.127331
3.449980 0.496874 -0.088403
3.453863 0.493251 -0.084679
3.446314 0.486999 -0.081228
3.468920 0.468890 -0.141387
3.478318 0.461505 -0.133408
3.472424 0.455258 -0.127910
3.465264 0.461556 -0.134401
3.465814 0.510567 -0.098419
3.475212 0.503181 -0.090440
3.469318 0.496934 -0.084943
3.462158 0.503232 -0.091433
3.468282 0.463738 -0.135922
3.475443 0.457440 -0.129431
3.469614 0.451014 -0.125344
3.463263 0.456066 -0.130740
3.459129 0.501036 -0.089901
3.466289 0.494738 -0.083411
3.460461 0.488312 -0.079324
3.454110 0.493364 -0.084720
3.463500 0.455962 -0.130607
3.469851 0.450910 -0.125211
3.464761 0.443898 -0.120457
3.455951 0.449711 -0.127156
3.453861 0.493454 -0.084844
3.460212 0.488402 -0.079448
3.455122 0.481390 -0.074695
3.446312 0.487203 -0.081393
3.478870 0.461835 -0.133677
3.488264 0.454482 -0.125664
3.480122 0.448759 -0.121237
3.472976 0.455588 -0.128179
3.474677 0.502837 -0.090156
3.484071 0.495484 -0.082144
3.475930 0.489761 -0.077716
3.468783 0.496590 -0.084659
3.475334 0.457297 -0.129336
3.482481 0.450468 -0.122393
3.475074 0.446449 -0.120496
3.469506 0.450871 -0.125249
3.466411 0.494870 -0.083494
3.473558 0.488041 -0.076551
3.466151 0.484022 -0.074654
3.460583 0.488444 -0.079407
3.469645 0.450700 -0.125080
3.475213 0.446278 -0.120327
3.473366 0.437866 -0.113639
3.464554 0.443688 -0.120327
3.460434 0.488602 -0.079567
3.466002 0.484180 -0.074814
3.464155 0.475767 -0.068126
3.455343 0.481589 -0.074814
3.490597 0.455000 -0.125796
3.501331 0.451532 -0.119615
3.488961 0.440184 -0.112612
3.482456 0.449277 -0.121369
3.481755 0.494952 -0.081997
3.492489 0.491485 -0.075816
3.480119 0.480137 -0.068812
3.473613 0.489230 -0.077569
3.482348 0.450283 -0.122266
3.488853 0.441190 -0.113509
3.473094 0.437851 -0.113680
3.474941 0.446264 -0.120368
3.473700 0.488212 -0.076665
3.480205 0.479119 -0.067909
3.464446 0.475780 -0.068080
3.466293 0.484193 -0.074768
3.464656 0.479848 -0.151496
3.467014 0.489086 -0.157635
3.475994 0.481807 -0.149712
3.474050 0.472490 -0.143491
3.451278 0.514356 -0.104347
3.453636 0.523595 -0.110486
3.462616 0.516315 -0.102564
3.460672 0.506998 -0.096343
3.474171 0.472652 -0.143574
3.476115 0.481969 -0.149796
3.484993 0.474773 -0.141996
3.483569 0.465266 -0.135595
3.460569 0.506822 -0.096244
3.462513 0.516139 -0.102465
3.471391 0.508943 -0.094665
3.469967 0.499436 -0.088265
3.483788 0.465396 -0.135625
3.485212 0.474904 -0.142026
3.493614 0.468085 -0.134641
3.493182 0.458043 -0.127613
3.469766 0.499292 -0.088219
3.471190 0.508799 -0.094620
3.479592 0.501980 -0.087235
3.479160 0.491938 -0.080207
3.493604 0.457778 -0.127291
3.494036 0.467820 -0.134319
3.500666 0.462453 -0.128489
3.504339 0.454310 -0.121110
3.478756 0.492192 -0.080515
3.479187 0.502234 -0.087543
3.485818 0.496867 -0.081713
3.489490 0.488725 -0.074334
3.467156 0.489072 -0.157583
3.469520 0.498312 -0.163719
3.478216 0.491001 -0.155789
3.476136 0.481792 -0.149661
3.453499 0.523628 -0.110550
3.455863 0.532868 -0.116686
3.464559 0.525557 -0.108756
3.462479 0.516348 -0.102627
3.476250 0.481915 -0.149717
3.478330 0.491124 -0.155846
3.487037 0.483811 -0.147925
3.485128 0.474720 -0.141918
3.462382 0.516211 -0.102555
3.464462 0.525420 -0.108684
3.473169 0.518107 -0.100763
3.471260 0.509016 -0.094756
3.485282 0.474852 -0.141968
3.487190 0.483944 -0.147975
3.495903 0.476629 -0.140066
3.493683 0.468034 -0.134584
3.471124 0.508869 -0.094690
3.473033 0.517960 -0.100697
3.481745 0.510645 -0.092787
3.479525 0.502050 -0.087305
3.493868 0.468147 -0.134609
3.496088 0.476743 -0.140091
3.504795 0.469428 -0.132174
3.500498 0.462781 -0.128779
3.479357 0.501923 -0.087265
3.481577 0.510519 -0.092748
3.490284 0.503204 -0.084830
3.485987 0.496557 -0.081435
3.502249 0.462583 -0.128024
3.506546 0.469230 -0.131419
3.513585 0.463601 -0.124332
3.505922 0.454440 -0.120644
3.484249 0.496741 -0.082176
3.488546 0.503389 -0.085571
3.495585 0.497759 -0.078484
3.487922 0.488598 -0.074797
3.542733 0.510764 -0.112582
3.536573 0.499672 -0.116346
3.528921 0.506142 -0.123995
3.534372 0.518017 -0.120916
3.503504 0.517233 -0.067726
3.497344 0.506141 -0.071490
3.489691 0.512611 -0.079140
3.495143 0.524485 -0.076061
3.533671 0.518512 -0.121575
3.528220 0.506637 -0.124654
3.519297 0.514131 -0.132839
3.523895 0.526717 -0.130589
3.495826 0.524004 -0.075418
3.490375 0.512129 -0.078498
3.481452 0.519624 -0.086683
3.486050 0.532209 -0.084433
3.523855 0.526670 -0.130616
3.519257 0.514085 -0.132866
3.510823 0.521163 -0.140608
3.514080 0.534885 -0.139623
3.486072 0.532271 -0.084423
3.481474 0.519685 -0.086673
3.473040 0.526764 -0.094415
3.476296 0.540486 -0.093429
3.514072 0.534851 -0.139625
3.510815 0.521129 -0.140610
3.502015 0.528529 -0.148712
3.504299 0.543058 -0.148642
3.476286 0.540536 -0.093444
3.473029 0.526814 -0.094429
3.464229 0.534214 -0.102531
3.466513 0.548744 -0.102461
3.504251 0.543042 -0.148679
3.501967 0.528512 -0.148750
3.492879 0.536143 -0.157097
3.494471 0.551254 -0.157682
3.466543 0.548776 -0.102440
3.464258 0.534247 -0.102511
3.455171 0.541878 -0.110859
3.456763 0.556988 -0.111444
3.494476 0.551218 -0.157674
3.492884 0.536107 -0.157089
3.483668 0.543856 -0.165574
3.484708 0.559422 -0.166704
3.456739 0.557041 -0.111470
3.455147 0.541930 -0.110885
3.445931 0.549679 -0.119369
3.446972 0.565245 -0.120500
3.536623 0.499553 -0.116284
3.530440 0.488456 -0.120016
3.523340 0.494307 -0.127184
3.528971 0.506023 -0.123934
3.497282 0.506237 -0.071559
3.491099 0.495140 -0.075291
3.483999 0.500991 -0.082458
3.489629 0.512707 -0.079208
3.528174 0.506668 -0.124696
3.522543 0.494953 -0.127945
3.514409 0.501780 -0.135367
3.519251 0.514162 -0.132881
3.490410 0.512074 -0.078462
3.484780 0.500358 -0.081712
3.476646 0.507186 -0.089134
3.481488 0.519568 -0.086647
3.519252 0.514119 -0.132875
3.514409 0.501737 -0.135362
3.508264 0.506902 -0.140999
3.510818 0.521197 -0.140617
3.481472 0.519625 -0.086667
3.476629 0.507243 -0.089154
3.470484 0.512408 -0.094791
3.473038 0.526703 -0.094409
3.510775 0.521156 -0.140647
3.508221 0.506862 -0.141029
3.500146 0.513639 -0.148402
3.501974 0.528557 -0.148749
3.473065 0.526757 -0.094393
3.470511 0.512462 -0.094775
3.462436 0.519240 -0.102149
3.464264 0.534158 -0.102495
3.501957 0.528514 -0.148758
3.500129 0.513597 -0.148411
3.491475 0.520878 -0.156358
3.492870 0.536145 -0.157105
3.464264 0.534215 -0.102502
3.462436 0.519298 -0.102156
3.453782 0.526579 -0.110103
3.455177 0.541846 -0.110850
3.492808 0.536098 -0.157150
3.491414 0.520831 -0.156402
3.482537 0.528282 -0.164503
3.483592 0.543848 -0.165634
3.455220 0.541908 -0.110822
3.453826 0.526640 -0.110075
3.444949 0.534091 -0.118176
3.446004 0.549657 -0.119307
3.530480 0.488368 -0.119968
3.524308 0.477271 -0.123718
3.517269 0.482900 -0.130805
3.523380 0.494218 -0.127135
3.491047 0.495206 -0.075347
3.484874 0.484109 -0.079097
3.477835 0.489738 -0.086184
3.483947 0.501056 -0.082514
3.522490 0.494956 -0.127989
3.516378 0.483637 -0.131659
3.507671 0.490952 -0.139577
3.514356 0.501784 -0.135411
3.484822 0.500332 -0.081675
3.478710 0.489013 -0.085345
3.470003 0.496328 -0.093263
3.476687 0.507160 -0.089097
3.514396 0.501717 -0.135370
3.507711 0.490886 -0.139536
3.508250 0.506883 -0.141007
3.476637 0.507240 -0.089147
3.469953 0.496408 -0.093313
3.470491 0.512405 -0.094784
3.508133 0.506849 -0.141099
3.507594 0.490852 -0.139628
3.498881 0.498166 -0.147537
3.500058 0.513627 -0.148472
3.470596 0.512445 -0.094704
3.470057 0.496448 -0.093233
3.461345 0.503763 -0.101142
3.462521 0.519223 -0.102077
3.500049 0.513546 -0.148469
3.498873 0.498086 -0.147534
3.490166 0.505398 -0.155455
3.491395 0.520827 -0.156416
3.462513 0.519317 -0.102096
3.461336 0.503857 -0.101160
3.452630 0.511170 -0.109081
3.453859 0.526598 -0.110043
3.491332 0.520776 -0.156461
3.490103 0.505348 -0.155500
3.481406 0.512659 -0.163430
3.482455 0.528227 -0.164562
3.453905 0.526664 -0.110014
3.452676 0.511235 -0.109052
3.443980 0.518546 -0.116982
3.445029 0.534114 -0.118114
3.525058 0.493011 -0.111454
3.516697 0.500264 -0.119788
3.532844 0.508452 -0.125971
3.542089 0.500934 -0.118150
3.521201 0.535005 -0.068857
3.512840 0.542257 -0.077191
3.528987 0.550445 -0.083374
3.538232 0.542927 -0.075553
3.517124 0.500804 -0.120266
3.507348 0.509008 -0.129280
3.523426 0.517245 -0.135038
3.533271 0.508992 -0.126448
3.512395 0.541733 -0.076731
3.502619 0.549937 -0.085745
3.518696 0.558174 -0.091503
3.528541 0.549921 -0.082914
3.507753 0.509306 -0.129509
3.497978 0.517521 -0.138516
3.513981 0.525793 -0.143849
3.523831 0.517543 -0.135267
3.502194 0.549656 -0.085534
3.492418 0.557871 -0.094541
3.508421 0.566143 -0.099874
3.518271 0.557892 -0.091292
3.498014 0.517872 -0.138828
3.504172 0.534397 -0.152750
3.514017 0.526144 -0.144162
3.492371 0.557536 -0.094244
3.498529 0.574061 -0.108166
3.508374 0.565808 -0.099578
3.498607 0.517993 -0.138852
3.488834 0.526200 -0.147868
3.494909 0.542788 -0.161331
3.504765 0.534517 -0.152774
3.491760 0.557424 -0.094231
3.481987 0.565632 -0.103247
3.488062 0.582219 -0.116709
3.497918 0.573949 -0.108152
3.489312 0.526533 -0.148081
3.479532 0.534746 -0.157084
3.485542 0.551376 -0.170132
3.495386 0.543121 -0.161543
3.481490 0.565316 -0.103052
3.471710 0.573528 -0.112056
3.477721 0.590158 -0.125103
3.487565 0.581903 -0.116515
3.479983 0.535117 -0.157317
3.470216 0.543321 -0.166347
3.476136 0.560030 -0.178904
3.485994 0.551747 -0.170364
3.471239 0.573174 -0.111841
3.461472 0.581378 -0.120871
3.467392 0.598086 -0.133429
3.477249 0.589804 -0.124889
3.548307 0.506370 -0.121139
3.539061 0.513888 -0.128960
3.538914 0.525991 -0.136870
3.546073 0.520012 -0.130537
3.532030 0.537512 -0.072579
3.522785 0.545030 -0.080400
3.522637 0.557133 -0.088310
3.529796 0.551154 -0.081977
3.538872 0.513694 -0.128897
3.529028 0.521947 -0.137487
3.529621 0.533405 -0.144780
3.538725 0.525797 -0.136807
3.522956 0.545239 -0.080478
3.513111 0.553492 -0.089068
3.513705 0.564950 -0.096361
3.522808 0.557342 -0.088388
3.528918 0.521855 -0.137462
3.519068 0.530105 -0.146045
3.519900 0.541356 -0.153197
3.529512 0.533312 -0.144755
3.513201 0.553600 -0.089109
3.503351 0.561851 -0.097692
3.504183 0.573102 -0.104844
3.513795 0.565058 -0.096403
3.518933 0.530009 -0.146025
3.509088 0.538262 -0.154613
3.510007 0.549421 -0.161726
3.519765 0.541260 -0.153177
3.503467 0.561963 -0.097728
3.493621 0.570216 -0.106316
3.494540 0.581374 -0.113429
3.504299 0.573214 -0.104881
3.508895 0.538136 -0.154590
3.499039 0.546407 -0.163147
3.500029 0.557485 -0.170292
3.509814 0.549295 -0.161703
3.493794 0.570358 -0.106356
3.483938 0.578628 -0.114914
3.484928 0.589707 -0.122058
3.494713 0.581516 -0.113469
3.498916 0.546303 -0.163116
3.489072 0.554558 -0.171705
3.490118 0.565580 -0.178822
3.499906 0.557382 -0.170261
3.484041 0.578748 -0.114962
3.474197 0.587004 -0.123551
3.475243 0.598026 -0.130668
3.485031 0.589827 -0.122107
3.488868 0.554450 -0.171694
3.479011 0.562733 -0.180234
3.480136 0.573664 -0.187372
3.489915 0.565472 -0.178812
3.474382 0.587128 -0.123579
3.464524 0.595410 -0.132119
3.465649 0.606342 -0.139257
3.475428 0.598150 -0.130696
3.548723 0.507744 -0.121828
3.546489 0.521386 -0.131226
3.550814 0.530849 -0.134251
3.560586 0.521608 -0.126527
3.531630 0.536143 -0.071887
3.529396 0.549785 -0.081285
3.533721 0.559248 -0.084310
3.543493 0.550007 -0.076587
3.549155 0.521161 -0.130012
3.541996 0.527139 -0.136345
3.543771 0.537619 -0.142559
3.553480 0.530624 -0.133037
3.526716 0.550028 -0.082516
3.519556 0.556007 -0.088848
3.521332 0.566487 -0.095062
3.531041 0.559491 -0.085540
3.538836 0.525823 -0.136788
3.529733 0.533432 -0.144760
3.530862 0.544457 -0.151589
3.540611 0.536303 -0.143002
3.522698 0.557337 -0.088422
3.513595 0.564945 -0.096395
3.514724 0.575971 -0.103223
3.524474 0.567817 -0.094636
3.529680 0.533340 -0.144718
3.520068 0.541384 -0.153160
3.521066 0.552486 -0.160162
3.530809 0.544366 -0.151547
3.513629 0.565053 -0.096454
3.504017 0.573096 -0.104895
3.505015 0.584198 -0.111898
3.514758 0.576078 -0.103282
3.519873 0.541246 -0.153133
3.510114 0.549406 -0.161682
3.511130 0.560480 -0.168751
3.520871 0.552347 -0.160135
3.504193 0.573251 -0.104939
3.494434 0.581411 -0.113488
3.495450 0.592485 -0.120557
3.505191 0.584353 -0.111942
3.509954 0.549298 -0.161662
3.500168 0.557489 -0.170250
3.501223 0.568515 -0.177320
3.510969 0.560372 -0.168731
3.494576 0.581535 -0.113525
3.484791 0.589726 -0.122114
3.485845 0.600752 -0.129184
3.495592 0.592609 -0.120595
3.500014 0.557362 -0.170214
3.490226 0.565560 -0.178776
3.491328 0.576518 -0.185903
3.501069 0.568388 -0.177284
3.484926 0.589869 -0.122168
3.475138 0.598068 -0.130729
3.476239 0.609026 -0.137857
3.485981 0.600895 -0.129238
3.490002 0.565425 -0.178753
3.480223 0.573617 -0.187314
3.481356 0.584539 -0.194458
3.491104 0.576383 -0.185880
3.475342 0.598219 -0.130769
3.465563 0.606411 -0.139330
3.466697 0.617333 -0.146474
3.476444 0.609177 -0.137896
3.474499 0.584440 -0.195484
3.477069 0.599789 -0.205790
3.491312 0.601411 -0.206377
3.489940 0.586335 -0.196665
3.473563 0.617468 -0.145474
3.476133 0.632817 -0.155779
3.490375 0.634439 -0.156367
3.489004 0.619363 -0.146654
3.489992 0.586438 -0.196731
3.491364 0.601513 -0.206444
3.505613 0.602984 -0.207248
3.505418 0.588552 -0.197675
3.488981 0.619264 -0.146589
3.490352 0.634340 -0.156302
3.504601 0.635810 -0.157106
3.504406 0.621378 -0.147533
3.504981 0.588768 -0.197820
3.505176 0.603200 -0.207393
3.519423 0.604768 -0.208067
3.520435 0.590481 -0.199189
3.504872 0.621165 -0.147390
3.505067 0.635597 -0.156963
3.519314 0.637166 -0.157637
3.520326 0.622879 -0.148759
3.520759 0.590898 -0.199449
3.519748 0.605185 -0.208328
3.533994 0.606709 -0.209057
3.536198 0.592903 -0.200483
3.520031 0.622465 -0.148501
3.519020 0.636753 -0.157379
3.533266 0.638277 -0.158109
3.535470 0.624471 -0.149535
3.536229 0.593239 -0.200687
3.534025 0.607045 -0.209261
3.548266 0.608699 -0.209811
3.551672 0.595156 -0.201847
3.535469 0.624140 -0.149332
3.533265 0.637946 -0.157906
3.547505 0.639600 -0.158456
3.550912 0.626057 -0.150491
3.551624 0.595450 -0.202022
3.548217 0.608992 -0.209987
3.562466 0.610518 -0.210724
3.567056 0.597484 -0.203008
3.550990 0.625767 -0.150318
3.547583 0.639309 -0.158283
3.561832 0.640835 -0.159020
3.566422 0.627801 -0.151304
3.568479 0.596890 -0.202593
3.563889 0.609924 -0.210309
3.578135 0.611492 -0.210982
3.583760 0.600051 -0.202846
3.565028 0.628400 -0.151720
3.560439 0.641434 -0.159437
3.574685 0.643002 -0.160110
3.580310 0.631561 -0.151974
3.581000 0.599029 -0.202222
3.575375 0.610470 -0.210358
3.589626 0.611888 -0.211283
3.596589 0.599834 -0.204062
3.583100 0.632586 -0.152600
3.577475 0.644027 -0.160736
3.591726 0.645446 -0.161661
3.598689 0.633391 -0.154441
3.500792 0.491710 -0.129013
3.506964 0.502807 -0.125262
3.514030 0.496218 -0.129037
3.507774 0.485292 -0.132370
3.508405 0.469657 -0.073800
3.514577 0.480754 -0.070049
3.521643 0.474164 -0.073824
3.515387 0.463238 -0.077157
3.506243 0.503175 -0.125002
3.512426 0.514272 -0.121270
3.519564 0.507504 -0.125409
3.513309 0.496586 -0.128778
3.515310 0.480408 -0.070301
3.521493 0.491505 -0.066569
3.528632 0.484736 -0.070708
3.522376 0.473818 -0.074077
3.512213 0.514655 -0.121072
3.518373 0.525746 -0.117308
3.525648 0.518729 -0.121660
3.519351 0.507886 -0.125211
3.521719 0.491144 -0.066760
3.527879 0.502236 -0.062997
3.535154 0.495219 -0.067348
3.528857 0.484376 -0.070899
3.491674 0.480198 -0.128445
3.498656 0.473779 -0.131802
3.488713 0.465236 -0.126767
3.484010 0.471037 -0.124757
3.517508 0.481149 -0.074366
3.524490 0.474731 -0.077724
3.514548 0.466188 -0.072689
3.509845 0.471989 -0.070679
3.483389 0.469784 -0.124400
3.488092 0.463983 -0.126410
3.471019 0.458436 -0.117397
3.510447 0.473227 -0.071026
3.515150 0.467426 -0.073036
3.498077 0.461879 -0.064023
3.509406 0.518858 -0.116347
3.526437 0.526780 -0.123042
3.530486 0.519518 -0.127275
3.516681 0.511840 -0.120698
3.536868 0.509144 -0.063961
3.553899 0.517066 -0.070656
3.557948 0.509804 -0.074889
3.544143 0.502126 -0.068313
3.525555 0.526774 -0.122561
3.537418 0.540638 -0.127261
3.539521 0.527226 -0.130423
3.529604 0.519512 -0.126794
3.554808 0.517091 -0.071148
3.566671 0.530955 -0.075848
3.568774 0.517542 -0.079010
3.558857 0.509829 -0.075381
3.538998 0.542404 -0.127715
3.549019 0.547150 -0.130248
3.551048 0.536961 -0.135103
3.541101 0.528991 -0.130877
3.565111 0.529206 -0.075401
3.575132 0.533952 -0.077934
3.577161 0.523764 -0.082790
3.567214 0.515794 -0.078563
3.486359 0.488155 -0.131348
3.484223 0.484781 -0.141806
3.486527 0.495088 -0.148109
3.488717 0.497394 -0.137487
3.429563 0.506053 -0.124513
3.427427 0.502680 -0.134972
3.429731 0.512986 -0.141275
3.431922 0.515292 -0.130652
3.488448 0.496867 -0.138218
3.486257 0.494561 -0.148840
3.488636 0.504829 -0.155172
3.490812 0.506107 -0.144354
3.432196 0.515838 -0.129934
3.430005 0.513532 -0.140556
3.432385 0.523801 -0.146888
3.434560 0.525078 -0.136070
3.492097 0.512910 -0.145317
3.489922 0.511632 -0.156135
3.491217 0.526703 -0.157677
3.493146 0.528478 -0.146449
3.433278 0.518301 -0.135114
3.431103 0.517023 -0.145932
3.432398 0.532094 -0.147474
3.434327 0.533869 -0.136246
3.493189 0.529121 -0.146501
3.491260 0.527346 -0.157729
3.491999 0.542698 -0.158752
3.494244 0.544687 -0.147633
3.434286 0.533257 -0.136197
3.432358 0.531482 -0.147425
3.433096 0.546834 -0.148448
3.435342 0.548823 -0.137328
3.494253 0.543948 -0.147211
3.492008 0.541959 -0.158331
3.493555 0.557242 -0.159491
3.495294 0.559514 -0.148342
3.435334 0.549593 -0.137751
3.433089 0.547603 -0.148871
3.434636 0.562887 -0.150031
3.436375 0.565159 -0.138882
3.493293 0.550985 -0.147515
3.491554 0.548713 -0.158664
3.495218 0.564108 -0.172236
3.499213 0.567693 -0.160073
3.438382 0.573720 -0.139723
3.436644 0.571447 -0.150872
3.440307 0.586843 -0.164444
3.444302 0.590428 -0.152280
3.591090 0.585650 -0.190165
3.579607 0.586387 -0.189166
3.579953 0.594067 -0.197935
3.595543 0.594872 -0.199776
3.595288 0.629111 -0.149100
3.583804 0.629848 -0.148102
3.584151 0.637528 -0.156870
3.599740 0.638333 -0.158711
3.587836 0.578137 -0.182262
3.581298 0.579909 -0.184803
3.580829 0.588108 -0.190928
3.592312 0.587371 -0.191927
3.589586 0.618139 -0.137657
3.583047 0.619911 -0.140198
3.582578 0.628109 -0.146323
3.594062 0.627373 -0.147322
3.586429 0.567185 -0.171581
3.573028 0.571809 -0.177642
3.584334 0.578538 -0.183400
3.590872 0.576766 -0.180858
3.582096 0.609912 -0.129767
3.568695 0.614536 -0.135828
3.580001 0.621265 -0.141586
3.586539 0.619493 -0.139044
3.581888 0.557631 -0.162450
3.569138 0.560615 -0.166631
3.572909 0.571910 -0.177757
3.586309 0.567286 -0.171696
3.577782 0.600136 -0.120388
3.565032 0.603121 -0.124569
3.568803 0.614416 -0.135695
3.582204 0.609792 -0.129634
3.577228 0.548025 -0.153292
3.565705 0.550042 -0.156238
3.568912 0.560664 -0.166702
3.581662 0.557680 -0.162521
3.573565 0.590412 -0.111069
3.562042 0.592429 -0.114015
3.565249 0.603051 -0.124479
3.577999 0.600067 -0.120298
3.572696 0.538519 -0.144378
3.563522 0.540126 -0.146651
3.565588 0.550276 -0.156479
3.577110 0.548259 -0.153534
3.569261 0.580417 -0.101652
3.560086 0.582025 -0.103926
3.562152 0.592175 -0.113754
3.573675 0.590158 -0.110808
3.568187 0.528583 -0.134454
3.562355 0.531105 -0.137607
3.563459 0.539641 -0.146170
3.572633 0.538034 -0.143897
3.564870 0.571433 -0.092672
3.559038 0.573954 -0.095825
3.560143 0.582491 -0.104388
3.569317 0.580883 -0.102115
3.564430 0.519014 -0.124791
3.558275 0.526953 -0.133895
3.563043 0.530969 -0.137400
3.568875 0.528448 -0.134248
3.559728 0.562119 -0.083406
3.553574 0.570058 -0.092510
3.558342 0.574074 -0.096016
3.564174 0.571553 -0.092863
3.554238 0.515250 -0.123251
3.551953 0.525853 -0.132578
3.558105 0.527934 -0.134888
3.564260 0.519996 -0.125784
3.549865 0.556382 -0.079871
3.547579 0.566984 -0.089198
3.553731 0.569066 -0.091508
3.559886 0.561127 -0.082404
3.490557 0.581662 -0.192831
3.495342 0.573605 -0.184456
3.484864 0.571611 -0.183073
3.475117 0.579767 -0.191650
3.488391 0.624013 -0.150469
3.493175 0.615957 -0.142095
3.482698 0.613962 -0.140712
3.472950 0.622118 -0.149289
3.506231 0.583989 -0.193972
3.510068 0.574074 -0.184190
3.495590 0.573819 -0.184653
3.490805 0.581875 -0.193028
3.503596 0.625917 -0.151217
3.507434 0.616001 -0.141436
3.492955 0.615747 -0.141899
3.488171 0.623803 -0.150273
3.521224 0.585499 -0.195163
3.523530 0.576436 -0.185749
3.509608 0.573871 -0.184013
3.505771 0.583786 -0.193794
3.519540 0.627836 -0.152766
3.521846 0.618773 -0.143351
3.507924 0.616208 -0.141615
3.504086 0.626123 -0.151397
3.537060 0.587366 -0.196037
3.539145 0.576918 -0.185433
3.523927 0.576296 -0.185589
3.521621 0.585360 -0.195003
3.534612 0.629985 -0.153961
3.536698 0.619538 -0.143358
3.521479 0.618916 -0.143513
3.519173 0.627979 -0.152927
3.552590 0.589234 -0.197142
3.553853 0.579634 -0.187130
3.539233 0.576869 -0.185378
3.537147 0.587316 -0.195982
3.549999 0.631956 -0.155178
3.551262 0.622356 -0.145166
3.536641 0.619591 -0.143415
3.534555 0.630038 -0.154018
3.568133 0.591187 -0.198038
3.568955 0.581714 -0.188332
3.553965 0.579553 -0.187040
3.552702 0.589153 -0.197052
3.565349 0.634075 -0.156256
3.566170 0.624601 -0.146550
3.551180 0.622441 -0.145258
3.549917 0.632041 -0.155270
3.586661 0.586521 -0.188812
3.572548 0.581566 -0.187621
3.571726 0.591040 -0.197327
3.587008 0.594201 -0.197580
3.576721 0.629709 -0.148454
3.562608 0.624755 -0.147263
3.561786 0.634229 -0.156969
3.577068 0.637389 -0.157222
3.495427 0.573684 -0.184530
3.500642 0.567063 -0.177701
3.494690 0.563559 -0.174528
3.484949 0.571690 -0.183147
3.493105 0.615863 -0.142005
3.498320 0.609241 -0.135175
3.492369 0.605738 -0.132003
3.482627 0.613868 -0.140622
3.509907 0.573863 -0.183991
3.511869 0.563597 -0.173558
3.500644 0.566986 -0.177625
3.495429 0.573608 -0.184454
3.507602 0.616195 -0.141617
3.509564 0.605929 -0.131185
3.498339 0.609318 -0.135251
3.493124 0.615940 -0.142081
3.523860 0.576421 -0.185718
3.525973 0.567338 -0.176580
3.511899 0.563589 -0.173549
3.509938 0.573856 -0.183982
3.521521 0.618769 -0.143363
3.523634 0.609686 -0.134224
3.509560 0.605937 -0.131194
3.507599 0.616204 -0.141626
3.539206 0.576965 -0.185477
3.540864 0.568126 -0.176326
3.526100 0.567260 -0.176495
3.523987 0.576343 -0.185633
3.536641 0.619472 -0.143295
3.538299 0.610633 -0.134143
3.523535 0.609767 -0.134312
3.521422 0.618850 -0.143450
3.554018 0.579639 -0.187124
3.555882 0.569804 -0.177035
3.541056 0.568035 -0.176221
3.539397 0.576874 -0.185373
3.551100 0.622332 -0.145152
3.552965 0.612496 -0.135063
3.538138 0.610727 -0.134249
3.536480 0.619566 -0.143400
3.568774 0.560554 -0.166602
3.554448 0.559536 -0.166698
3.556142 0.569827 -0.177039
3.572545 0.571849 -0.177728
3.565367 0.603184 -0.124603
3.551041 0.602166 -0.124699
3.552735 0.612457 -0.135040
3.569138 0.614479 -0.135729
3.565612 0.550044 -0.156247
3.551902 0.548903 -0.156311
3.554493 0.559648 -0.166807
3.568819 0.560666 -0.166711
3.562109 0.592429 -0.114009
3.548399 0.591289 -0.114073
3.550990 0.602033 -0.124569
3.565316 0.603051 -0.124473
3.563564 0.540025 -0.146548
3.553404 0.538336 -0.145672
3.551920 0.549035 -0.156440
3.565630 0.550175 -0.156376
3.560021 0.582127 -0.104031
3.549861 0.580438 -0.103155
3.548377 0.591136 -0.113923
3.562088 0.592276 -0.113859
3.557044 0.526814 -0.133853
3.550892 0.524733 -0.131543
3.542435 0.535221 -0.143489
3.552756 0.537679 -0.145046
3.554781 0.570206 -0.092564
3.548630 0.568124 -0.090254
3.540172 0.578613 -0.102199
3.550494 0.581071 -0.103757
3.534302 0.529601 -0.138582
3.543040 0.534456 -0.142609
3.551498 0.523967 -0.130664
3.544011 0.522605 -0.129060
3.530812 0.574518 -0.099047
3.539550 0.579373 -0.103074
3.548008 0.568885 -0.091128
3.540521 0.567523 -0.089525
3.524358 0.539332 -0.148845
3.536132 0.547406 -0.155927
3.542846 0.536033 -0.144285
3.534108 0.531178 -0.140258
3.521240 0.581113 -0.105980
3.533013 0.589186 -0.113062
3.539727 0.577814 -0.101419
3.530989 0.572959 -0.097392
3.514521 0.547348 -0.157365
3.522051 0.553557 -0.163013
3.536037 0.547302 -0.155832
3.524263 0.539228 -0.148750
3.511572 0.589354 -0.114708
3.519102 0.595563 -0.120356
3.533088 0.589307 -0.113175
3.521315 0.581234 -0.106093
3.504615 0.555464 -0.165975
3.512045 0.563721 -0.173671
3.521886 0.553540 -0.163008
3.514356 0.547332 -0.157360
3.501974 0.597519 -0.123346
3.509404 0.605775 -0.131042
3.519246 0.595595 -0.120379
3.511715 0.589387 -0.114731
3.500736 0.567068 -0.177701
3.511961 0.563679 -0.173635
3.504531 0.555423 -0.165939
3.494784 0.563565 -0.174529
3.498244 0.609222 -0.135161
3.509468 0.605832 -0.131094
3.502038 0.597576 -0.123399
3.492292 0.605719 -0.131988
3.573937 0.573275 -0.178934
3.570660 0.583248 -0.189627
3.584774 0.588202 -0.190818
3.585243 0.580004 -0.184693
3.567775 0.613082 -0.134548
3.564497 0.623055 -0.145240
3.578611 0.628010 -0.146431
3.579080 0.619812 -0.140306
3.572387 0.571702 -0.177589
3.555984 0.569679 -0.176900
3.554120 0.579515 -0.186989
3.569110 0.581675 -0.188281
3.569297 0.614647 -0.135889
3.552894 0.612625 -0.135200
3.551029 0.622460 -0.145289
3.566019 0.624620 -0.146581
3.526084 0.567314 -0.176550
3.529720 0.560012 -0.168892
3.521852 0.553386 -0.162856
3.512010 0.563566 -0.173519
3.523532 0.609691 -0.134235
3.527167 0.602389 -0.126578
3.519299 0.595762 -0.120542
3.509458 0.605943 -0.131205
3.540957 0.568142 -0.176337
3.540558 0.558932 -0.167179
3.529829 0.559975 -0.168848
3.526193 0.567277 -0.176505
3.538210 0.610599 -0.134115
3.537811 0.601388 -0.124957
3.527082 0.602431 -0.126626
3.523446 0.609733 -0.134283
3.554241 0.559605 -0.166783
3.540710 0.558916 -0.167153
3.541109 0.568127 -0.176311
3.555936 0.569896 -0.177125
3.551218 0.602094 -0.124613
3.537687 0.601405 -0.124983
3.538086 0.610616 -0.134140
3.552912 0.612385 -0.134954
3.551707 0.548934 -0.156356
3.536155 0.547150 -0.155673
3.540767 0.558989 -0.167222
3.554298 0.559678 -0.166852
3.548565 0.591256 -0.114027
3.533013 0.589473 -0.113344
3.537625 0.601311 -0.124893
3.551156 0.602000 -0.124523
3.521944 0.553444 -0.162909
3.529812 0.560071 -0.168945
3.540541 0.559028 -0.167276
3.535929 0.547189 -0.155728
3.519226 0.595691 -0.120475
3.527094 0.602318 -0.126512
3.537823 0.601275 -0.124843
3.533211 0.589436 -0.113294
3.553222 0.538358 -0.145708
3.542901 0.535901 -0.144151
3.536187 0.547273 -0.155793
3.551739 0.549056 -0.156476
3.550017 0.580413 -0.103118
3.539696 0.577955 -0.101560
3.532981 0.589328 -0.113203
3.548534 0.591111 -0.113885
3.553534 0.538190 -0.145515
3.563694 0.539879 -0.146391
3.562590 0.531342 -0.137828
3.557821 0.527326 -0.134322
3.549732 0.580564 -0.103292
3.559892 0.582253 -0.104168
3.558788 0.573716 -0.095604
3.554020 0.569700 -0.092099
3.499113 0.580764 -0.176325
3.502215 0.593489 -0.177385
3.501082 0.582567 -0.170242
3.442725 0.595660 -0.162496
3.445827 0.608386 -0.163556
3.444693 0.597464 -0.156412
3.495926 0.567976 -0.175333
3.499077 0.580689 -0.176391
3.501045 0.582492 -0.170308
3.499921 0.571561 -0.163169
3.439606 0.583003 -0.161365
3.442757 0.595715 -0.162423
3.444726 0.597519 -0.156339
3.443601 0.586588 -0.149201
3.541106 0.525135 -0.131644
3.548593 0.526497 -0.133248
3.550878 0.515894 -0.123921
3.543439 0.564978 -0.086924
3.550926 0.566340 -0.088528
3.553211 0.555737 -0.079200
3.479006 0.611340 -0.212524
3.488776 0.616019 -0.215672
3.490965 0.602318 -0.206958
3.476723 0.600696 -0.206371
3.478764 0.642581 -0.161370
3.488534 0.647260 -0.164518
3.490724 0.633559 -0.155804
3.476481 0.631937 -0.155217
3.488679 0.615377 -0.215268
3.502932 0.616705 -0.216261
3.505117 0.603145 -0.207358
3.490869 0.601675 -0.206554
3.488658 0.647908 -0.164924
3.502911 0.649236 -0.165917
3.505095 0.635676 -0.157014
3.490847 0.634206 -0.156210
3.503556 0.616602 -0.216186
3.517803 0.618145 -0.216837
3.519987 0.604610 -0.207958
3.505740 0.603042 -0.207283
3.502316 0.649343 -0.165993
3.516563 0.650886 -0.166644
3.518747 0.637351 -0.157765
3.504500 0.635783 -0.157090
3.517318 0.617802 -0.216617
3.531572 0.619104 -0.217649
3.533749 0.605792 -0.208467
3.519502 0.604267 -0.207738
3.517076 0.651232 -0.166866
3.531331 0.652534 -0.167898
3.533508 0.639222 -0.158716
3.519261 0.637697 -0.157987
3.532287 0.618749 -0.217393
3.546536 0.620271 -0.218095
3.548704 0.607091 -0.208762
3.534464 0.605437 -0.208211
3.530644 0.652892 -0.168155
3.544893 0.654413 -0.168857
3.547062 0.641234 -0.159524
3.532821 0.639580 -0.158973
3.546146 0.619939 -0.217871
3.560395 0.621346 -0.218739
3.562563 0.608285 -0.209275
3.548314 0.606759 -0.208538
3.545312 0.654749 -0.169082
3.559561 0.656156 -0.169950
3.561729 0.643095 -0.160486
3.547480 0.641569 -0.159749
3.560935 0.621414 -0.218772
3.575525 0.623105 -0.219300
3.577349 0.609922 -0.209982
3.563103 0.608353 -0.209309
3.559050 0.656090 -0.169917
3.573640 0.657781 -0.170445
3.575464 0.644598 -0.161127
3.561218 0.643030 -0.160454
3.576152 0.624502 -0.220203
3.586675 0.622535 -0.217410
3.592228 0.612736 -0.211810
3.577977 0.611318 -0.210885
3.573039 0.656386 -0.169542
3.583561 0.654419 -0.166749
3.589114 0.644621 -0.161150
3.574863 0.643203 -0.160224
