2.753074 1.149471 0.888956
2.669429 1.145213 0.911201
2.686878 1.135494 0.912384
2.701622 1.135049 0.912254
2.702143 1.144384 0.910748
2.669103 1.142138 0.891462
2.686552 1.132418 0.892645
2.701297 1.131974 0.892515
2.701818 1.141309 0.891009
2.702168 1.144370 0.910750
2.701647 1.135035 0.912256
2.716389 1.134575 0.912026
2.734884 1.143554 0.910390
2.701840 1.141322 0.891006
2.701320 1.131987 0.892512
2.716062 1.131528 0.892282
2.734557 1.140507 0.890647
2.686917 1.135550 0.912375
2.669468 1.145269 0.911191
2.667688 1.134017 0.913047
2.675860 1.131404 0.913297
2.686483 1.132355 0.892657
2.669034 1.142075 0.891473
2.667253 1.130823 0.893328
2.675426 1.128210 0.893578
2.675909 1.131307 0.913311
2.667737 1.133920 0.913061
2.666150 1.121906 0.915017
2.671075 1.120621 0.915003
2.675367 1.128288 0.893567
2.667194 1.130901 0.893318
2.665607 1.118887 0.895273
2.670532 1.117602 0.895260
2.671265 1.120808 0.914965
2.666341 1.122092 0.914979
2.667222 1.110155 0.917006
2.675474 1.109867 0.916673
2.670341 1.117392 0.895301
2.665416 1.118677 0.895315
2.666297 1.106739 0.897341
2.674549 1.106451 0.897009
2.675410 1.109993 0.916653
2.667158 1.110281 0.916986
2.668202 1.099644 0.918887
2.686209 1.105156 0.917183
2.674622 1.106306 0.897032
2.666370 1.106594 0.897364
2.667414 1.095957 0.899266
2.685421 1.101469 0.897562
2.669475 1.145309 0.911185
2.652024 1.155019 0.909949
2.659490 1.137453 0.912725
2.667695 1.134057 0.913040
2.669001 1.142048 0.891478
2.651550 1.151758 0.890242
2.659016 1.134193 0.893018
2.667220 1.130796 0.893334
2.667795 1.134010 0.913045
2.659591 1.137406 0.912729
2.658899 1.123217 0.915098
2.666209 1.121995 0.915001
2.667122 1.130816 0.893333
2.658917 1.134212 0.893018
2.658225 1.120023 0.895386
2.665535 1.118801 0.895289
2.666296 1.122092 0.914981
2.658987 1.123313 0.915078
2.658793 1.109155 0.917550
2.667177 1.110154 0.917008
2.665446 1.118679 0.895313
2.658136 1.119900 0.895410
2.657943 1.105742 0.897882
2.666327 1.106741 0.897340
2.667144 1.110204 0.917000
2.658759 1.109205 0.917543
2.650179 1.094053 0.920588
2.668188 1.099567 0.918901
2.666357 1.106665 0.897352
2.657973 1.105666 0.897894
2.649393 1.090514 0.900940
2.667402 1.096028 0.899253
2.659593 1.137483 0.912717
2.652126 1.155049 0.909941
2.651126 1.124508 0.915214
2.658901 1.123294 0.915085
2.658900 1.134146 0.893029
2.651433 1.151712 0.890254
2.650433 1.121170 0.895527
2.658208 1.119957 0.895398
2.658998 1.123321 0.915077
2.651224 1.124534 0.915206
2.650224 1.094011 0.920594
2.658804 1.109163 0.917548
2.658109 1.119886 0.895414
2.650335 1.121099 0.895543
2.649336 1.090576 0.900931
2.657915 1.105728 0.897886
2.715667 1.103721 0.916789
2.700931 1.104210 0.917228
2.699130 1.097029 0.918243
2.730085 1.094932 0.917503
2.715005 1.101057 0.896999
2.700270 1.101546 0.897437
2.698468 1.094364 0.898453
2.729423 1.092268 0.897713
2.700837 1.104582 0.917174
2.686089 1.105011 0.917214
2.668082 1.099499 0.918917
2.699036 1.097401 0.918189
2.700318 1.101177 0.897493
2.685570 1.101606 0.897533
2.667563 1.096093 0.899236
2.698517 1.093995 0.898508
2.730118 1.095010 0.917491
2.699163 1.097107 0.918231
2.697369 1.089951 0.919404
2.744534 1.086212 0.918150
2.729402 1.092174 0.897726
2.698447 1.094270 0.898466
2.696652 1.087114 0.899639
2.743818 1.083375 0.898386
2.699137 1.097334 0.918197
2.668184 1.099432 0.918925
2.650175 1.093918 0.920612
2.697342 1.090178 0.919370
2.698395 1.094049 0.898503
2.667441 1.096147 0.899231
2.649433 1.090633 0.900917
2.696600 1.086893 0.899676
1.975467 1.171531 0.918975
1.973862 1.143469 0.925109
2.006332 1.142642 0.924748
2.007492 1.170778 0.918561
1.975128 1.167269 0.899458
1.973524 1.139206 0.905592
2.005993 1.138379 0.905231
2.007154 1.166516 0.899044
2.007524 1.170797 0.918556
2.006363 1.142661 0.924744
2.038831 1.141833 0.924402
2.039551 1.170045 0.918132
2.007187 1.166495 0.899048
2.006026 1.138359 0.905235
2.038494 1.137531 0.904894
2.039214 1.165743 0.898624
1.973844 1.143440 0.925116
1.972240 1.115379 0.931235
2.005151 1.114473 0.930949
2.006314 1.142613 0.924755
1.973539 1.139179 0.905598
1.971934 1.111118 0.911717
2.004845 1.110212 0.911431
2.006008 1.138352 0.905237
2.006344 1.142631 0.924751
2.005181 1.114491 0.930945
2.038094 1.113592 0.930660
2.038812 1.141803 0.924409
2.006044 1.138332 0.905241
2.004881 1.110193 0.911435
2.037794 1.109293 0.911150
2.038511 1.137505 0.904899
2.080552 1.154779 0.920734
2.060080 1.162406 0.919441
2.059035 1.152004 0.921745
2.069483 1.150608 0.921857
2.080188 1.150492 0.901222
2.059715 1.158120 0.899929
2.058670 1.147718 0.902234
2.069118 1.146322 0.902345
2.069490 1.150591 0.921861
2.059042 1.151987 0.921749
2.057655 1.140575 0.924287
2.064679 1.139987 0.924262
2.069102 1.146321 0.902346
2.058654 1.147718 0.902234
2.057268 1.136306 0.904772
2.064291 1.135718 0.904747
2.064681 1.140024 0.924254
2.057657 1.140613 0.924278
2.058462 1.129189 0.926805
2.068886 1.129153 0.926619
2.064289 1.135658 0.904760
2.057265 1.136247 0.904785
2.058070 1.124823 0.907312
2.068494 1.124786 0.907126
2.068862 1.129186 0.926612
2.058437 1.129223 0.926798
2.058915 1.119013 0.929108
2.079677 1.124360 0.927546
2.068527 1.124734 0.907137
2.058103 1.124771 0.907324
2.058581 1.114561 0.909634
2.079343 1.119908 0.908071
2.060068 1.162422 0.919438
2.039597 1.170051 0.918130
2.049019 1.154431 0.921412
2.059023 1.152020 0.921742
2.059696 1.158114 0.899931
2.039226 1.165744 0.898623
2.048647 1.150123 0.901906
2.058651 1.147712 0.902235
2.059034 1.151999 0.921746
2.049030 1.154410 0.921417
2.048481 1.141201 0.924332
2.057647 1.140587 0.924284
2.058643 1.147708 0.902236
2.048639 1.150119 0.901907
2.048090 1.136911 0.904822
2.057257 1.136297 0.904774
2.057652 1.140604 0.924280
2.048485 1.141217 0.924328
2.048371 1.128008 0.927280
2.058457 1.129180 0.926808
2.057252 1.136256 0.904783
2.048085 1.136870 0.904831
2.047971 1.123661 0.907782
2.058057 1.124832 0.907311
2.058427 1.129178 0.926809
2.048341 1.128006 0.927281
2.038145 1.113621 0.930653
2.058905 1.118968 0.929119
2.058083 1.124810 0.907315
2.047997 1.123638 0.907787
2.037800 1.109253 0.911159
2.058560 1.114601 0.909625
2.049020 1.154426 0.921414
2.039599 1.170046 0.918131
2.038879 1.141834 0.924401
2.048471 1.141217 0.924329
2.048630 1.150113 0.901909
2.039209 1.165733 0.898626
2.038488 1.137521 0.904896
2.048081 1.136904 0.904824
2.048468 1.141202 0.924332
2.038875 1.141819 0.924404
2.038158 1.113608 0.930655
2.048354 1.127993 0.927283
2.048083 1.136877 0.904829
2.038490 1.137494 0.904902
2.037772 1.109283 0.911153
2.047969 1.123668 0.907781
2.149352 1.167464 0.916684
2.094503 1.168756 0.917420
2.094924 1.161548 0.918986
2.129718 1.160676 0.918548
2.148993 1.163176 0.897173
2.094144 1.164467 0.897909
2.094565 1.157260 0.899475
2.129359 1.156388 0.899036
2.094457 1.168753 0.917421
2.039610 1.170044 0.918131
2.060080 1.162414 0.919439
2.094878 1.161545 0.918987
2.094101 1.164472 0.897908
2.039254 1.165763 0.898619
2.059724 1.158134 0.899926
2.094522 1.157265 0.899474
2.129708 1.160670 0.918549
2.094913 1.161541 0.918988
2.095332 1.154332 0.920571
2.110076 1.153883 0.920393
2.129351 1.156381 0.899038
2.094556 1.157253 0.899476
2.094975 1.150043 0.901060
2.109719 1.149595 0.900882
2.094888 1.161539 0.918988
2.060090 1.162408 0.919440
2.080563 1.154780 0.920733
2.095306 1.154330 0.920572
2.094532 1.157256 0.899476
2.059735 1.158125 0.899928
2.080208 1.150497 0.901221
2.094951 1.150047 0.901060
2.079675 1.124374 0.927542
2.058913 1.119027 0.929105
2.093708 1.118051 0.928784
2.094419 1.123929 0.927428
2.079375 1.119885 0.908075
2.058613 1.114539 0.909638
2.093408 1.113563 0.909317
2.094119 1.119441 0.907961
2.094441 1.123933 0.927427
2.093731 1.118056 0.928782
2.128524 1.117081 0.928493
2.109186 1.123489 0.927292
2.094146 1.119435 0.907962
2.093435 1.113557 0.909318
2.128228 1.112582 0.909028
2.108891 1.118990 0.907827
2.058901 1.119020 0.929107
2.038141 1.113672 0.930641
2.092984 1.112166 0.930165
2.093696 1.118044 0.928786
2.058604 1.114535 0.909639
2.037844 1.109188 0.911173
2.092686 1.107682 0.910697
2.093399 1.113559 0.909318
2.093739 1.118053 0.928783
2.093027 1.112175 0.930163
2.147871 1.110671 0.929676
2.128532 1.117078 0.928493
2.093446 1.113548 0.909320
2.092733 1.107671 0.910699
2.147578 1.106167 0.910212
2.128239 1.112573 0.909030
2.244520 1.165294 0.915414
2.196985 1.166412 0.916044
2.196408 1.158885 0.917756
2.227547 1.158098 0.917377
2.244162 1.160858 0.895936
2.196628 1.161976 0.896566
2.196051 1.154449 0.898278
2.227190 1.153662 0.897899
2.196945 1.166389 0.916050
2.149411 1.167512 0.916672
2.165229 1.159644 0.918148
2.196368 1.158862 0.917762
2.196589 1.162001 0.896561
2.149055 1.163124 0.897183
2.164873 1.155256 0.898659
2.196012 1.154474 0.898273
2.227529 1.158102 0.917377
2.196390 1.158889 0.917756
2.195813 1.151356 0.919473
2.210558 1.150912 0.919336
2.227191 1.153643 0.897904
2.196052 1.154430 0.898283
2.195474 1.146897 0.900000
2.210219 1.146452 0.899863
2.196367 1.158843 0.917766
2.165227 1.159625 0.918152
2.181046 1.151761 0.919618
2.195790 1.151310 0.919483
2.196029 1.154477 0.898272
2.164889 1.155260 0.898658
2.180708 1.147396 0.900124
2.195451 1.146945 0.899989
2.180172 1.121362 0.926688
2.164059 1.116023 0.928187
2.194162 1.115179 0.927906
2.192843 1.120976 0.926579
2.179865 1.116834 0.907231
2.163751 1.111495 0.908729
2.193854 1.110651 0.908448
2.192536 1.116448 0.907121
2.192863 1.120982 0.926577
2.194181 1.115185 0.927904
2.224283 1.114338 0.927637
2.205534 1.120600 0.926463
2.192559 1.116441 0.907122
2.193877 1.110644 0.908450
2.223979 1.109797 0.908182
2.205231 1.116060 0.907008
2.164049 1.116018 0.928188
2.147936 1.110681 0.929673
2.195469 1.109374 0.929245
2.194152 1.115174 0.927907
2.163746 1.111489 0.908731
2.147633 1.106153 0.910215
2.195166 1.104846 0.909787
2.193849 1.110646 0.908450
2.194190 1.115182 0.927905
2.195508 1.109382 0.929243
2.243043 1.108077 0.928807
2.224293 1.114335 0.927638
2.193888 1.110635 0.908452
2.195206 1.104835 0.909789
2.242740 1.103530 0.909353
2.223990 1.109788 0.908184
2.244592 1.165420 0.915383
2.281780 1.148764 0.918667
2.296653 1.148367 0.918501
2.294144 1.164235 0.914681
2.244215 1.160720 0.895968
2.281403 1.144063 0.899251
2.296276 1.143667 0.899085
2.293767 1.159535 0.895266
2.294189 1.164258 0.914675
2.296698 1.148390 0.918494
2.311572 1.147983 0.918297
2.343737 1.163069 0.913928
2.293787 1.159510 0.895271
2.296295 1.143642 0.899091
2.311170 1.143235 0.898893
2.343335 1.158321 0.894524
2.281147 1.118316 0.925808
2.243110 1.108082 0.928804
2.292658 1.106718 0.928342
2.295890 1.117874 0.925674
2.280838 1.113760 0.906357
2.242801 1.103527 0.909353
2.292350 1.102162 0.908891
2.295582 1.113318 0.906222
2.295924 1.117878 0.925672
2.292692 1.106723 0.928341
2.342238 1.105360 0.927868
2.310670 1.117425 0.925539
2.295612 1.113312 0.906223
2.292380 1.102156 0.908892
2.341926 1.100793 0.908420
2.310358 1.112858 0.906091
2.149326 1.167523 0.916671
2.139847 1.152183 0.920304
2.139723 1.138872 0.923322
2.148602 1.139094 0.923172
2.149074 1.163086 0.897192
2.139595 1.147745 0.900824
2.139470 1.134435 0.903843
2.148349 1.134657 0.903692
2.148601 1.139085 0.923174
2.139722 1.138863 0.923324
2.139137 1.125585 0.926388
2.147879 1.110663 0.929678
2.148349 1.134625 0.903700
2.139470 1.134403 0.903850
2.138885 1.121125 0.906914
2.147627 1.106203 0.910203
2.149344 1.167508 0.916674
2.129710 1.160720 0.918538
2.130476 1.150140 0.920880
2.139865 1.152167 0.920307
2.149042 1.163118 0.897185
2.129408 1.156330 0.899049
2.130173 1.145750 0.901390
2.139563 1.147777 0.900818
2.139833 1.152171 0.920307
2.130444 1.150143 0.920879
2.131268 1.138611 0.923491
2.139709 1.138860 0.923325
2.139591 1.147749 0.900824
2.130201 1.145721 0.901396
2.131025 1.134189 0.904008
2.139466 1.134438 0.903842
2.139713 1.138878 0.923321
2.131272 1.138628 0.923487
2.129804 1.127245 0.926127
2.139128 1.125600 0.926385
2.139462 1.134396 0.903852
2.131021 1.134146 0.904018
2.129553 1.122763 0.906658
2.138877 1.121118 0.906916
2.139142 1.125582 0.926389
2.129818 1.127227 0.926131
2.128544 1.117067 0.928495
2.147884 1.110661 0.929678
2.138865 1.121110 0.906918
2.129541 1.122755 0.906660
2.128267 1.112595 0.909024
2.147606 1.106189 0.910207
2.129708 1.160679 0.918547
2.110077 1.153893 0.920391
2.120893 1.149052 0.921268
2.130473 1.150099 0.920889
2.129381 1.156363 0.899042
2.109750 1.149577 0.900886
2.120566 1.144736 0.901763
2.130146 1.145783 0.901383
2.130442 1.150133 0.920882
2.120861 1.149086 0.921261
2.125066 1.138219 0.923643
2.131266 1.138600 0.923493
2.130186 1.145730 0.901394
2.120606 1.144684 0.901774
2.124810 1.133817 0.904156
2.131010 1.134198 0.904006
2.131262 1.138643 0.923484
2.125061 1.138263 0.923634
2.120253 1.127676 0.926165
2.129794 1.127259 0.926124
2.131014 1.134132 0.904021
2.124814 1.133752 0.904171
2.120005 1.123165 0.906702
2.129546 1.122749 0.906661
2.129806 1.127243 0.926127
2.120265 1.127659 0.926169
2.109195 1.123491 0.927291
2.128532 1.117083 0.928492
2.129525 1.122747 0.906662
2.119984 1.123164 0.906703
2.108914 1.118995 0.907826
2.128251 1.112587 0.909026
2.181052 1.151767 0.919617
2.165234 1.159631 0.918151
2.163122 1.149143 0.920557
2.169982 1.147594 0.920766
2.180672 1.147383 0.900128
2.164853 1.155247 0.898661
2.162741 1.144759 0.901068
2.169602 1.143210 0.901276
2.170001 1.147622 0.920759
2.163140 1.149171 0.920550
2.161545 1.137715 0.923213
2.165191 1.137039 0.923283
2.169573 1.143164 0.901287
2.162713 1.144713 0.901079
2.161118 1.133257 0.903741
2.164764 1.132581 0.903811
2.165167 1.137062 0.923278
2.161521 1.137738 0.923208
2.162557 1.126281 0.925837
2.169373 1.126204 0.925738
2.164788 1.132536 0.903821
2.161141 1.133212 0.903751
2.162177 1.121754 0.906381
2.168993 1.121677 0.906281
2.169348 1.126188 0.925742
2.162532 1.126265 0.925841
2.164051 1.116020 0.928188
2.180165 1.121359 0.926689
2.169028 1.121674 0.906281
2.162211 1.121751 0.906381
2.163731 1.111506 0.908727
2.179845 1.116845 0.907229
2.165232 1.159653 0.918146
2.149414 1.167521 0.916670
2.155940 1.151694 0.920141
2.163120 1.149165 0.920552
2.164832 1.155235 0.898664
2.149014 1.163103 0.897189
2.155541 1.147276 0.900660
2.162720 1.144747 0.901071
2.163131 1.149167 0.920551
2.155951 1.151696 0.920141
2.155365 1.138402 0.923178
2.161536 1.137711 0.923214
2.162710 1.144719 0.901077
2.155531 1.147248 0.900667
2.154944 1.133955 0.903703
2.161115 1.133264 0.903740
2.161517 1.137724 0.923211
2.155346 1.138415 0.923175
2.155285 1.125123 0.926246
2.162553 1.126266 0.925841
2.161134 1.133226 0.903748
2.154963 1.133917 0.903712
2.154902 1.120625 0.906783
2.162169 1.121768 0.906377
2.162527 1.126242 0.925847
2.155259 1.125099 0.926252
2.147933 1.110661 0.929677
2.164046 1.115997 0.928193
2.162193 1.121768 0.906377
2.154926 1.120625 0.906782
2.147599 1.106187 0.910207
2.163713 1.111523 0.908723
2.155945 1.151696 0.920141
2.149419 1.167524 0.916669
2.148694 1.139095 0.923170
2.155359 1.138403 0.923178
2.155523 1.147258 0.900665
2.148997 1.163085 0.897193
2.148272 1.134656 0.903694
2.154937 1.133964 0.903701
2.155333 1.138394 0.923180
2.148669 1.139086 0.923172
2.147946 1.110664 0.929676
2.155273 1.125102 0.926251
2.154962 1.133932 0.903708
2.148297 1.134623 0.903701
2.147575 1.106202 0.910205
2.154901 1.120640 0.906780
2.244532 1.165324 0.915407
2.236709 1.149681 0.919180
2.236604 1.136296 0.922298
2.243808 1.136704 0.922077
2.244198 1.160797 0.895950
2.236375 1.145153 0.899722
2.236270 1.131769 0.902840
2.243473 1.132176 0.902620
2.243802 1.136699 0.922078
2.236598 1.136292 0.922299
2.235982 1.122938 0.925435
2.243079 1.108098 0.928801
2.243478 1.132139 0.902628
2.236274 1.131732 0.902849
2.235659 1.118378 0.905985
2.242755 1.103538 0.909351
2.244524 1.165332 0.915405
2.227552 1.158136 0.917368
2.228926 1.147445 0.919832
2.236701 1.149689 0.919178
2.244194 1.160805 0.895948
2.227221 1.153609 0.897911
2.228596 1.142918 0.900374
2.236371 1.145162 0.899720
2.236702 1.149680 0.919180
2.228927 1.147436 0.919834
2.229872 1.135851 0.922521
2.236597 1.136295 0.922298
2.236367 1.145145 0.899724
2.228592 1.142901 0.900378
2.229537 1.131316 0.903065
2.236262 1.131761 0.902842
2.236592 1.136288 0.922300
2.229867 1.135843 0.922523
2.228265 1.124432 0.925209
2.235976 1.122934 0.925436
2.236267 1.131744 0.902846
2.229542 1.131299 0.903069
2.227940 1.119888 0.905755
2.235651 1.118390 0.905982
2.235969 1.122929 0.925437
2.228258 1.124427 0.925210
2.224315 1.114347 0.927635
2.243065 1.108089 0.928803
2.235659 1.118370 0.905987
2.227948 1.119868 0.905759
2.224005 1.109788 0.908184
2.242755 1.103530 0.909353
2.227540 1.158137 0.917368
2.210569 1.150947 0.919328
2.221386 1.146112 0.920277
2.228914 1.147445 0.919832
2.227209 1.153600 0.897913
2.210237 1.146410 0.899873
2.221054 1.141575 0.900822
2.228583 1.142908 0.900377
2.228922 1.147434 0.919835
2.221393 1.146100 0.920280
2.225600 1.135246 0.922731
2.229867 1.135849 0.922521
2.228584 1.142901 0.900378
2.221055 1.141568 0.900824
2.225262 1.130713 0.903275
2.229529 1.131316 0.903065
2.229858 1.135839 0.922524
2.225591 1.135237 0.922734
2.220782 1.124651 0.925281
2.228257 1.124428 0.925210
2.229538 1.131303 0.903068
2.225270 1.130701 0.903278
2.220461 1.120116 0.905826
2.227936 1.119892 0.905754
2.228243 1.124425 0.925211
2.220769 1.124648 0.925282
2.205552 1.120607 0.926461
2.224300 1.114345 0.927635
2.227936 1.119877 0.905757
2.220462 1.120101 0.905829
2.205244 1.116060 0.907008
2.223993 1.109797 0.908182
2.281733 1.148675 0.918689
2.244545 1.165331 0.915405
2.257089 1.148350 0.919161
2.270836 1.144421 0.919853
2.281419 1.144142 0.899232
2.244231 1.160799 0.895949
2.256775 1.143818 0.899705
2.270523 1.139888 0.900396
2.270833 1.144413 0.919855
2.257085 1.148342 0.919163
2.255875 1.135277 0.922223
2.266157 1.133888 0.922391
2.270524 1.139874 0.900399
2.256776 1.143803 0.899708
2.255566 1.130738 0.902768
2.265848 1.129349 0.902936
2.266157 1.133885 0.922392
2.255875 1.135274 0.922224
2.256440 1.122159 0.925293
2.270351 1.123110 0.924845
2.265848 1.129328 0.902941
2.255566 1.130717 0.902773
2.256131 1.117602 0.905842
2.270042 1.118553 0.905394
2.270350 1.123106 0.924845
2.256439 1.122155 0.925294
2.243093 1.108095 0.928802
2.281130 1.118328 0.925806
2.270044 1.118535 0.905398
2.256133 1.117584 0.905847
2.242787 1.103524 0.909354
2.280824 1.113758 0.906358
2.257069 1.148343 0.919163
2.244526 1.165324 0.915407
2.243802 1.136704 0.922077
2.255859 1.135277 0.922223
2.256768 1.143815 0.899706
2.244224 1.160796 0.895949
2.243500 1.132176 0.902620
2.255558 1.130750 0.902766
2.255860 1.135275 0.922224
2.243802 1.136701 0.922078
2.243079 1.108099 0.928801
2.256425 1.122159 0.925293
2.255556 1.130711 0.902775
2.243499 1.132137 0.902629
2.242775 1.103535 0.909351
2.256121 1.117595 0.905844
2.343800 1.163026 0.913937
2.333405 1.146476 0.918176
2.333962 1.133286 0.921353
2.343076 1.134236 0.920894
2.343327 1.158340 0.894520
2.332932 1.141790 0.898759
2.333489 1.128600 0.901936
2.342603 1.129551 0.901477
2.343053 1.134202 0.920903
2.333939 1.133251 0.921362
2.332699 1.120100 0.924513
2.342324 1.105417 0.927853
2.342625 1.129543 0.901478
2.333511 1.128593 0.901937
2.332270 1.115441 0.905089
2.341895 1.100758 0.908428
2.343769 1.163049 0.913932
2.311604 1.147963 0.918301
2.322419 1.143132 0.919252
2.333374 1.146499 0.918171
2.343336 1.158329 0.894522
2.311171 1.143243 0.898891
2.321986 1.138411 0.899842
2.332941 1.141779 0.898762
2.333397 1.146479 0.918176
2.322442 1.143111 0.919256
2.326650 1.132264 0.921784
2.333955 1.133289 0.921353
2.332921 1.141777 0.898763
2.321966 1.138409 0.899843
2.326174 1.127562 0.902371
2.333478 1.128587 0.901940
2.333930 1.133213 0.921371
2.326625 1.132189 0.921803
2.321816 1.121612 0.924367
2.332689 1.120062 0.924523
2.333502 1.128638 0.901927
2.326198 1.127614 0.902358
2.321389 1.117037 0.904922
2.332262 1.115487 0.905078
2.332645 1.120073 0.924521
2.321772 1.121624 0.924365
2.310702 1.117455 0.925531
2.342270 1.105390 0.927860
2.332301 1.115454 0.905085
2.321428 1.117005 0.904929
2.310358 1.112836 0.906096
2.341926 1.100771 0.908425
2.382507 1.145776 0.917378
2.343772 1.163057 0.913930
2.356986 1.145774 0.917862
2.371433 1.141626 0.918638
2.382140 1.141039 0.897972
2.343405 1.158319 0.894523
2.356619 1.141036 0.898455
2.371066 1.136888 0.899231
2.371413 1.141615 0.918641
2.356965 1.145763 0.917865
2.355719 1.132636 0.921099
2.366611 1.131046 0.921295
2.371085 1.136876 0.899234
2.356637 1.141024 0.898457
2.355391 1.127897 0.901692
2.366283 1.126308 0.901888
2.366591 1.131019 0.921302
2.355699 1.132608 0.921106
2.356258 1.119408 0.924271
2.370791 1.120190 0.923893
2.366302 1.126311 0.901887
2.355410 1.127900 0.901690
2.355970 1.114700 0.904855
2.370503 1.115482 0.904477
2.370796 1.120145 0.923904
2.356262 1.119362 0.924282
2.342282 1.105399 0.927858
2.381618 1.115305 0.924864
2.370499 1.115506 0.904472
2.355966 1.114724 0.904850
2.341986 1.100760 0.908426
2.381322 1.110667 0.905432
2.356954 1.145752 0.917867
2.343740 1.163036 0.913936
2.343016 1.134246 0.920893
2.355707 1.132625 0.921102
2.356623 1.141047 0.898452
2.343409 1.158330 0.894520
2.342686 1.129540 0.901478
2.355377 1.127920 0.901686
2.355685 1.132591 0.921110
2.342994 1.134211 0.920902
2.342265 1.105426 0.927852
2.356245 1.119390 0.924275
2.355398 1.127912 0.901688
2.342706 1.129533 0.901479
2.341977 1.100748 0.908429
2.355957 1.114712 0.904853
2.343799 1.163024 0.913937
2.382534 1.145744 0.917386
2.397273 1.145275 0.917127
2.396506 1.161779 0.913257
2.343410 1.158362 0.894513
2.382145 1.141081 0.897961
2.396884 1.140613 0.897703
2.396117 1.157116 0.893832
2.396533 1.161793 0.913253
2.397299 1.145289 0.917123
2.412046 1.144855 0.917047
2.449232 1.160519 0.912443
2.396159 1.157101 0.893835
2.396925 1.140597 0.897706
2.411672 1.140163 0.897629
2.448858 1.155827 0.893026
2.396420 1.114682 0.924743
2.381678 1.115133 0.924902
2.342343 1.105227 0.927897
2.394875 1.103662 0.927174
2.396035 1.110376 0.905236
2.381293 1.110828 0.905395
2.341958 1.100921 0.908390
2.394491 1.099356 0.907667
2.449328 1.160505 0.912445
2.436393 1.143616 0.916815
2.436897 1.130333 0.920053
2.448430 1.131420 0.919445
2.448820 1.155818 0.893029
2.435886 1.138930 0.897399
2.436390 1.125646 0.900637
2.447923 1.126733 0.900029
2.448469 1.131368 0.919456
2.436936 1.130281 0.920064
2.435635 1.117037 0.923255
2.447571 1.102272 0.926410
2.447882 1.126743 0.900028
2.436349 1.125655 0.900635
2.435048 1.112412 0.903827
2.446984 1.097647 0.906982
2.449275 1.160552 0.912435
2.412088 1.144888 0.917038
2.422910 1.140064 0.918052
2.436340 1.143663 0.916805
2.448848 1.155783 0.893037
2.411662 1.140119 0.897640
2.422483 1.135295 0.898654
2.435913 1.138894 0.897407
2.436396 1.143647 0.916808
2.422965 1.140047 0.918054
2.427168 1.129205 0.920607
2.436900 1.130363 0.920045
2.435859 1.138888 0.897410
2.422429 1.135288 0.898657
2.426632 1.124445 0.901209
2.436363 1.125604 0.900648
2.436919 1.130286 0.920063
2.427188 1.129128 0.920625
2.422383 1.118565 0.923287
2.435618 1.117043 0.923255
2.436343 1.125657 0.900635
2.426612 1.124498 0.901197
2.421808 1.113935 0.903859
2.435043 1.112413 0.903827
2.485513 1.142605 0.915780
2.449369 1.160548 0.912433
2.461262 1.142903 0.916381
2.474455 1.138478 0.917157
2.484974 1.137840 0.896384
2.448830 1.155784 0.893037
2.460724 1.138138 0.896985
2.473916 1.133714 0.897761
2.474409 1.138384 0.917181
2.461217 1.142808 0.916405
2.459916 1.129571 0.919602
2.469602 1.127815 0.919757
2.473958 1.133786 0.897743
2.460766 1.138210 0.896966
2.459465 1.124973 0.900164
2.469151 1.123217 0.900318
2.469641 1.127736 0.919774
2.459956 1.129492 0.919620
2.460450 1.116172 0.922676
2.473835 1.116869 0.922136
2.469111 1.123272 0.900306
2.459425 1.125028 0.900152
2.459920 1.111708 0.903208
2.473305 1.112405 0.902668
2.473911 1.116863 0.922135
2.460526 1.116167 0.922675
2.447643 1.102188 0.926428
2.484725 1.111996 0.922787
2.473230 1.112389 0.902674
2.459845 1.111693 0.903214
2.446962 1.097714 0.906967
2.484044 1.107522 0.903326
2.461216 1.142843 0.916396
2.449322 1.160489 0.912449
2.448424 1.131404 0.919449
2.459915 1.129606 0.919594
2.460744 1.138188 0.896972
2.448850 1.155833 0.893024
2.447953 1.126748 0.900025
2.459443 1.124950 0.900170
2.459972 1.129548 0.919606
2.448481 1.131346 0.919461
2.447583 1.102250 0.926415
2.460467 1.116229 0.922663
2.459385 1.124966 0.900168
2.447894 1.126764 0.900022
2.446996 1.097668 0.906977
2.459879 1.111647 0.903224
2.514983 1.141150 0.914973
2.552749 1.157618 0.911237
2.501053 1.158832 0.911890
2.500243 1.141622 0.915416
2.514564 1.137399 0.895352
2.552330 1.153867 0.891617
2.500634 1.155081 0.892269
2.499824 1.137871 0.895795
2.500220 1.141876 0.915364
2.501030 1.159086 0.911838
2.449335 1.160300 0.912491
2.485480 1.142356 0.915838
2.499781 1.137619 0.895848
2.500590 1.154829 0.892322
2.448896 1.156042 0.892975
2.485040 1.138099 0.896322
2.484768 1.111982 0.922789
2.447686 1.102175 0.926429
2.499330 1.100222 0.924932
2.499509 1.111507 0.922333
2.484033 1.107524 0.903326
2.446951 1.097717 0.906967
2.498594 1.095764 0.905469
2.498773 1.107049 0.902870
2.499543 1.111509 0.922331
2.499364 1.100225 0.924930
2.551008 1.098270 0.923418
2.514283 1.111035 0.921884
2.498806 1.107044 0.902870
2.498626 1.095759 0.905469
2.550270 1.093804 0.903957
2.513545 1.106569 0.902423
2.552617 1.157750 0.911213
2.539381 1.140321 0.914830
2.539864 1.126769 0.917671
2.551667 1.127918 0.917328
2.552519 1.153711 0.891645
2.539284 1.136282 0.895263
2.539766 1.122730 0.898104
2.551569 1.123879 0.897761
2.551806 1.127923 0.917326
2.540003 1.126774 0.917668
2.538686 1.113302 0.920639
2.550857 1.098094 0.923460
2.551429 1.123831 0.897773
2.539625 1.122682 0.898115
2.538308 1.109210 0.901086
2.550479 1.094002 0.903908
2.552677 1.157630 0.911236
2.514911 1.141162 0.914971
2.525729 1.136309 0.915686
2.539441 1.140201 0.914853
2.552434 1.153843 0.891620
2.514668 1.137375 0.895355
2.525486 1.132522 0.896070
2.539198 1.136414 0.895237
2.539352 1.140373 0.914819
2.525639 1.136482 0.915652
2.529831 1.125608 0.917989
2.539834 1.126821 0.917660
2.539289 1.136218 0.895276
2.525576 1.132326 0.896109
2.529768 1.121453 0.898446
2.539771 1.122666 0.898117
2.539950 1.126935 0.917634
2.529947 1.125723 0.917963
2.525141 1.115150 0.920524
2.538633 1.113464 0.920605
2.539654 1.122527 0.898148
2.529652 1.121314 0.898478
2.524846 1.110742 0.901039
2.538338 1.109055 0.901119
2.538784 1.113379 0.920620
2.525292 1.115066 0.920540
2.514230 1.110937 0.921907
2.550955 1.098172 0.923441
2.538185 1.109118 0.901109
2.524693 1.110804 0.901029
2.513631 1.106676 0.902396
2.550356 1.093911 0.903930
2.586040 1.138764 0.913666
2.552910 1.157435 0.911266
2.563283 1.139272 0.914316
2.574968 1.134575 0.914501
2.585402 1.135365 0.893988
2.552272 1.154035 0.891588
2.562645 1.135872 0.894638
2.574330 1.131175 0.894823
2.575274 1.134766 0.914451
2.563589 1.139463 0.914266
2.562263 1.125946 0.916999
2.570461 1.124169 0.916800
2.574021 1.130960 0.894877
2.562336 1.135657 0.894692
2.561010 1.122140 0.897424
2.569208 1.120363 0.897225
2.570420 1.124440 0.916745
2.562221 1.126217 0.916944
2.562709 1.112685 0.919850
2.574625 1.113569 0.919040
2.569249 1.120068 0.897285
2.561050 1.121845 0.897484
2.561538 1.108313 0.900390
2.573454 1.109197 0.899579
2.574458 1.113516 0.919060
2.562543 1.112633 0.919870
2.551109 1.098184 0.923433
2.585270 1.108675 0.919767
2.573623 1.109228 0.899564
2.561707 1.108344 0.900374
2.550273 1.093896 0.903937
2.584434 1.104386 0.900271
2.563577 1.139529 0.914254
2.553204 1.157693 0.911204
2.552254 1.127861 0.917320
2.562251 1.126012 0.916986
2.562327 1.135604 0.894703
2.551955 1.153768 0.891653
2.551005 1.123935 0.897769
2.561002 1.122087 0.897435
2.562207 1.126058 0.916980
2.552211 1.127906 0.917313
2.551262 1.098078 0.923448
2.562695 1.112526 0.919885
2.561044 1.121999 0.897451
2.551047 1.123847 0.897785
2.550098 1.094018 0.903919
2.561532 1.108467 0.900357
2.651916 1.154957 0.909961
2.602365 1.156131 0.910617
2.600686 1.138181 0.913524
2.615430 1.137725 0.913306
2.651569 1.151828 0.890231
2.602018 1.153002 0.890886
2.600339 1.135052 0.893794
2.615082 1.134595 0.893576
2.602328 1.156142 0.910616
2.552776 1.157315 0.911290
2.585906 1.138644 0.913689
2.600649 1.138192 0.913523
2.601991 1.152993 0.890888
2.552439 1.154166 0.891562
2.585568 1.135495 0.893962
2.600311 1.135043 0.893795
2.585235 1.108725 0.919758
2.551074 1.098234 0.923423
2.600575 1.096360 0.921973
2.599976 1.108254 0.919318
2.584501 1.104325 0.900282
2.550340 1.093835 0.903947
2.599842 1.091961 0.902497
2.599242 1.103855 0.899843
2.600016 1.108254 0.919317
2.600615 1.096360 0.921971
2.650116 1.094482 0.920503
2.614755 1.107774 0.918848
2.599267 1.103852 0.899842
2.599866 1.091959 0.902497
2.649367 1.090081 0.901028
2.614006 1.103372 0.899373
2.651765 1.155055 0.909946
2.639154 1.137121 0.913070
2.639617 1.123290 0.915339
2.650765 1.124513 0.915219
2.651776 1.151707 0.890249
2.639165 1.133773 0.893372
2.639628 1.119941 0.895641
2.650776 1.121165 0.895522
2.650761 1.124582 0.915207
2.639613 1.123359 0.915327
2.638276 1.109633 0.917881
2.649762 1.094059 0.920595
2.650778 1.121052 0.895542
2.639630 1.119828 0.895661
2.638292 1.106103 0.898215
2.649778 1.090528 0.900930
2.651896 1.154965 0.909960
2.615410 1.137733 0.913305
2.626214 1.132884 0.913854
2.639285 1.137031 0.913084
2.651620 1.151808 0.890233
2.615134 1.134575 0.893578
2.625938 1.129727 0.894127
2.639009 1.133874 0.893357
2.639186 1.137021 0.913086
2.626115 1.132874 0.913856
2.630307 1.121916 0.915541
2.639649 1.123190 0.915355
2.639109 1.133860 0.893358
2.626038 1.129713 0.894128
2.630230 1.118755 0.895813
2.639572 1.120029 0.895627
2.639586 1.123449 0.915310
2.630243 1.122174 0.915496
2.625419 1.111535 0.917522
2.638248 1.109723 0.917864
2.639635 1.119746 0.895676
2.630292 1.118472 0.895862
2.625468 1.107832 0.897888
2.638297 1.106020 0.898231
2.638509 1.109911 0.917824
2.625680 1.111723 0.917481
2.614634 1.107628 0.918883
2.649995 1.094337 0.920538
2.638034 1.105810 0.898275
2.625205 1.107621 0.897933
2.614159 1.103527 0.899335
2.649520 1.090235 0.900990
2.862838 1.149469 0.907328
2.850683 1.127680 0.909658
2.847919 1.110307 0.911648
2.857434 1.110157 0.911540
2.862762 1.147307 0.887465
2.850607 1.125518 0.889796
2.847843 1.108144 0.891786
2.857357 1.107994 0.891677
2.857406 1.110261 0.911528
2.847892 1.110411 0.911636
2.845088 1.093185 0.913630
2.852329 1.085889 0.914621
2.857376 1.107841 0.891695
2.847862 1.107991 0.891803
2.845058 1.090765 0.893797
2.852299 1.083469 0.894789
2.862729 1.149511 0.907323
2.845194 1.137552 0.908515
2.841207 1.123287 0.910118
2.850574 1.127722 0.909653
2.862862 1.147285 0.887468
2.845327 1.135327 0.888660
2.841340 1.121061 0.890263
2.850707 1.125496 0.889798
2.850661 1.127775 0.909647
2.841294 1.123340 0.910112
2.838435 1.110387 0.911751
2.847897 1.110401 0.911637
2.850609 1.125410 0.889808
2.841242 1.120975 0.890273
2.838383 1.108022 0.891912
2.847845 1.108037 0.891798
2.848079 1.110369 0.911639
2.838617 1.110354 0.911753
2.835552 1.098134 0.913342
2.845275 1.093143 0.913633
2.847657 1.108039 0.891800
2.838195 1.108025 0.891914
2.835130 1.095805 0.893503
2.844853 1.090813 0.893794
2.845239 1.093241 0.913621
2.835516 1.098233 0.913331
2.834081 1.085719 0.914787
2.852480 1.085946 0.914613
2.844889 1.090690 0.893808
2.835166 1.095682 0.893517
2.833731 1.083168 0.894974
2.852130 1.083395 0.894800
2.845134 1.137615 0.908507
2.827601 1.125654 0.909683
2.830708 1.117546 0.910740
2.841148 1.123349 0.910111
2.845358 1.135247 0.888670
2.827825 1.123286 0.889845
2.830932 1.115178 0.890902
2.841372 1.120982 0.890273
2.841222 1.123514 0.910090
2.830782 1.117711 0.910720
2.829148 1.109762 0.911934
2.838363 1.110561 0.911729
2.841295 1.120796 0.890296
2.830855 1.114992 0.890925
2.829220 1.107044 0.892140
2.838435 1.107843 0.891935
2.838635 1.110520 0.911732
2.829420 1.109722 0.911937
2.824223 1.103549 0.913016
2.835570 1.098300 0.913321
2.838156 1.107863 0.891935
2.828941 1.107065 0.892140
2.823744 1.100892 0.893220
2.835091 1.095643 0.893524
2.835685 1.098146 0.913337
2.824338 1.103395 0.913032
2.816176 1.100342 0.913781
2.834250 1.085633 0.914793
2.834968 1.095780 0.893511
2.823620 1.101029 0.893206
2.815458 1.097976 0.893955
2.833533 1.083267 0.894967
2.753456 1.151888 0.908775
2.770406 1.141788 0.909505
2.808092 1.140806 0.908822
2.808178 1.150593 0.908081
2.753117 1.150127 0.888875
2.770066 1.140028 0.889606
2.807752 1.139045 0.888923
2.807838 1.148833 0.888182
2.808204 1.150475 0.908090
2.808118 1.140688 0.908831
2.845391 1.137214 0.908547
2.862927 1.149172 0.907354
2.807904 1.148948 0.888171
2.807818 1.139160 0.888912
2.845091 1.135686 0.888627
2.862626 1.147645 0.887435
2.770493 1.141845 0.909498
2.787443 1.131742 0.910201
2.808092 1.131078 0.909585
2.808178 1.140862 0.908815
2.769997 1.139951 0.889614
2.786947 1.129849 0.890317
2.807596 1.129185 0.889701
2.807682 1.138969 0.888931
2.808111 1.140681 0.908832
2.808024 1.130897 0.909602
2.827850 1.125246 0.909722
2.845384 1.137207 0.908547
2.807808 1.139145 0.888913
2.807721 1.129361 0.889683
2.827547 1.123710 0.889804
2.845081 1.135671 0.888629
2.863050 1.149351 0.907337
2.857646 1.110038 0.911549
2.920863 1.104737 0.910398
2.924074 1.147894 0.906468
2.862623 1.147433 0.887454
2.857218 1.108120 0.891666
2.920436 1.102819 0.890515
2.923646 1.145976 0.886585
2.924091 1.147724 0.906483
2.920880 1.104566 0.910412
2.984311 1.109225 0.908516
2.985134 1.146395 0.906007
2.923754 1.146145 0.886568
2.920543 1.102987 0.890498
2.983974 1.107646 0.888601
2.984796 1.144816 0.886092
2.857740 1.110137 0.911536
2.852663 1.085766 0.914630
2.918176 1.081594 0.912770
2.920958 1.104836 0.910385
2.857115 1.107956 0.891685
2.852038 1.083585 0.894779
2.917551 1.079412 0.892919
2.920333 1.102655 0.890534
2.920996 1.104590 0.910408
2.918214 1.081348 0.912793
2.983732 1.077180 0.910937
2.984427 1.109249 0.908511
2.920424 1.102895 0.890508
2.917642 1.079653 0.892893
2.983159 1.075485 0.891037
2.983854 1.107554 0.888612
1.975041 1.171266 0.919028
1.929208 1.161811 0.920639
1.924774 1.137015 0.924442
1.973436 1.143203 0.925162
1.975475 1.167527 0.899405
1.929642 1.158073 0.901017
1.925208 1.133276 0.904819
1.973870 1.139465 0.905540
1.973111 1.143210 0.925149
1.924448 1.137021 0.924428
1.920016 1.112223 0.928245
1.971507 1.115149 0.931267
1.974189 1.139405 0.905564
1.925527 1.133217 0.904843
1.921094 1.108418 0.908661
1.972585 1.111345 0.911682
1.971462 1.114671 0.931346
1.919971 1.111744 0.928324
1.915538 1.086948 0.932126
1.971195 1.088292 0.934788
1.972624 1.111771 0.911612
1.921133 1.108844 0.908590
1.916700 1.084048 0.912392
1.972357 1.085392 0.915054
1.987503 1.087541 0.945259
1.984927 1.108322 0.941540
1.967081 1.114279 0.930071
1.966814 1.087900 0.933512
1.997500 1.085424 0.928090
1.994924 1.106205 0.924371
1.977078 1.112162 0.912902
1.976811 1.085783 0.916343
2.208628 1.111424 0.933776
2.195601 1.116256 0.923519
2.148067 1.117564 0.923946
2.164982 1.112428 0.934421
2.208070 1.093122 0.925783
2.195043 1.097953 0.915526
2.147509 1.099261 0.915953
2.164424 1.094125 0.926428
2.164934 1.112401 0.934486
2.148019 1.117536 0.924011
2.093175 1.119040 0.924498
2.121291 1.113405 0.935126
2.164377 1.094155 0.926364
2.147462 1.099290 0.915889
2.092617 1.100794 0.916376
2.120733 1.095159 0.927004
2.121240 1.113377 0.935192
2.093124 1.119012 0.924564
2.038282 1.120518 0.925040
2.077594 1.114376 0.935827
2.120685 1.095190 0.926939
2.092569 1.100825 0.916311
2.037726 1.102331 0.916787
2.077038 1.096188 0.927574
2.077547 1.114348 0.935891
2.038235 1.120490 0.925104
2.005322 1.121389 0.925389
2.033903 1.115345 0.936517
2.076998 1.096219 0.927511
2.037686 1.102361 0.916723
2.004773 1.103260 0.917008
2.033354 1.097216 0.928136
2.033865 1.115324 0.936565
2.005284 1.121368 0.925437
1.972373 1.122274 0.925722
1.990219 1.116318 0.937191
2.033315 1.097239 0.928090
2.004734 1.103283 0.916962
1.971823 1.104189 0.917247
1.989669 1.098233 0.928716
2.426123 1.109940 0.921233
2.394981 1.110691 0.921333
2.382006 1.107059 0.931064
2.425296 1.105950 0.930390
2.425583 1.091559 0.913420
2.394441 1.092310 0.913520
2.381466 1.088678 0.923251
2.424756 1.087569 0.922577
2.394981 1.110683 0.921351
2.342449 1.112249 0.922074
2.338718 1.108155 0.931749
2.382006 1.107051 0.931082
2.394356 1.092320 0.913502
2.341823 1.093886 0.914225
2.338092 1.089792 0.923900
2.381381 1.088688 0.923233
2.342381 1.112228 0.922127
2.292835 1.113591 0.922600
2.295358 1.109238 0.932465
2.338650 1.108134 0.931803
2.341797 1.093909 0.914173
2.292251 1.095272 0.914645
2.294774 1.090919 0.924510
2.338066 1.089815 0.923848
2.292786 1.113597 0.922590
2.243238 1.114961 0.923052
2.252021 1.110337 0.933099
2.295310 1.109244 0.932455
2.292206 1.095268 0.914657
2.242658 1.096633 0.915118
2.251441 1.092009 0.925166
2.294730 1.090915 0.924521
2.243192 1.114966 0.923044
2.195657 1.116271 0.923480
2.208684 1.111440 0.933737
2.251974 1.110342 0.933091
2.242612 1.096630 0.915128
2.195077 1.097935 0.915564
2.208105 1.093104 0.925821
2.251395 1.092006 0.925175
1.990095 1.109129 0.942775
1.992672 1.088348 0.946493
2.035665 1.087027 0.946335
2.033741 1.108135 0.942148
1.989818 1.105395 0.923149
1.992394 1.084614 0.926867
2.035387 1.083293 0.926709
2.033464 1.104401 0.922522
2.033792 1.108304 0.942113
2.035716 1.087196 0.946301
2.078710 1.085872 0.946113
2.077436 1.107306 0.941488
2.033499 1.104230 0.922555
2.035423 1.083122 0.926743
2.078417 1.081799 0.926555
2.077144 1.103233 0.921930
2.077485 1.107462 0.941453
2.078759 1.086028 0.946079
2.121752 1.084699 0.945887
2.121132 1.106463 0.940818
2.077181 1.103075 0.921963
2.078455 1.081641 0.926589
2.121448 1.080312 0.926397
2.120828 1.102076 0.921328
2.121180 1.106614 0.940782
2.121799 1.084850 0.945851
2.164795 1.083523 0.945657
2.164824 1.105609 0.940143
2.120867 1.101923 0.921363
2.121486 1.080159 0.926432
2.164482 1.078832 0.926238
2.164510 1.100919 0.920724
2.164873 1.105752 0.940106
2.164844 1.083665 0.945621
2.207837 1.082331 0.945411
2.208519 1.104749 0.939461
2.164548 1.100773 0.920759
2.164519 1.078687 0.926274
2.207512 1.077352 0.926064
2.208194 1.099770 0.920114
2.208593 1.104844 0.939435
2.207911 1.082426 0.945384
2.252166 1.080968 0.944960
2.251884 1.103746 0.938789
2.208207 1.099673 0.920140
2.207524 1.077255 0.926089
2.251779 1.075796 0.925665
2.251497 1.098575 0.919494
2.251931 1.103797 0.938774
2.252213 1.081018 0.944946
2.296468 1.079552 0.944502
2.295220 1.102703 0.938130
2.251537 1.098522 0.919507
2.251819 1.075743 0.925679
2.296074 1.074277 0.925235
2.294826 1.097428 0.918863
2.295268 1.102751 0.938115
2.296516 1.079600 0.944488
2.340768 1.078134 0.944041
2.338559 1.101647 0.937453
2.294866 1.097378 0.918876
2.296114 1.074227 0.925248
2.340366 1.072760 0.924801
2.338158 1.096274 0.918214
2.338606 1.101695 0.937439
2.340815 1.078181 0.944026
2.385070 1.076708 0.943569
2.381894 1.100591 0.936772
2.338198 1.096224 0.918227
2.340407 1.072710 0.924814
2.384662 1.071236 0.924357
2.381487 1.095120 0.917560
2.381941 1.100636 0.936758
2.385117 1.076753 0.943555
2.429369 1.075279 0.943088
2.425232 1.099527 0.936085
2.381527 1.095072 0.917573
2.384702 1.071189 0.924370
2.428955 1.069715 0.923903
2.424817 1.093963 0.916899
2.425517 1.105897 0.930493
2.471396 1.104097 0.929413
2.447734 1.109079 0.920714
2.426344 1.109887 0.921336
2.424606 1.087619 0.922474
2.470485 1.085819 0.921394
2.446822 1.090801 0.912696
2.425432 1.091610 0.913317
2.471440 1.104109 0.929380
2.517320 1.102301 0.928285
2.499422 1.107138 0.919184
2.447778 1.109091 0.920682
2.470523 1.085804 0.921425
2.516403 1.083996 0.920330
2.498504 1.088833 0.911229
2.446861 1.090786 0.912726
2.517369 1.102312 0.928254
2.563248 1.100507 0.927160
2.551114 1.105194 0.917641
2.499471 1.107149 0.919153
2.516452 1.083981 0.920358
2.562330 1.082176 0.919265
2.550197 1.086863 0.909745
2.498553 1.088818 0.911258
2.563298 1.100517 0.927131
2.609177 1.098703 0.926022
2.600666 1.103330 0.916162
2.551164 1.105204 0.917612
2.562378 1.082163 0.919291
2.608257 1.080349 0.918181
2.599745 1.084976 0.908321
2.550244 1.086850 0.909772
2.609226 1.098711 0.925998
2.655105 1.096897 0.924884
2.650215 1.101460 0.914669
2.600714 1.103338 0.916137
2.608303 1.080338 0.918203
2.654182 1.078523 0.917089
2.649293 1.083086 0.906874
2.599792 1.084964 0.908343
2.655335 1.097195 0.924046
2.701212 1.095375 0.922922
2.697613 1.098018 0.912589
2.650446 1.101758 0.913831
2.654046 1.078220 0.917924
2.699923 1.076400 0.916800
2.696324 1.079043 0.906467
2.649156 1.082783 0.907709
2.429557 1.075295 0.943078
2.475270 1.073720 0.941798
2.471298 1.097744 0.934995
2.425419 1.099543 0.936074
2.428857 1.069695 0.923911
2.474570 1.068120 0.922632
2.470598 1.092144 0.915828
2.424719 1.093944 0.916908
2.475317 1.073667 0.941812
2.521029 1.072091 0.940520
2.517226 1.095883 0.933913
2.471346 1.097691 0.935008
2.474614 1.068169 0.922616
2.520326 1.066593 0.921324
2.516522 1.090385 0.914717
2.470642 1.092193 0.915812
2.521076 1.072033 0.940534
2.566788 1.070448 0.939224
2.563151 1.094021 0.932834
2.517272 1.095826 0.933928
2.520372 1.066647 0.921307
2.566084 1.065061 0.919997
2.562447 1.088634 0.913607
2.516568 1.090439 0.914700
2.566835 1.070386 0.939240
2.612545 1.068799 0.937917
2.609077 1.092145 0.931740
2.563198 1.093959 0.932849
2.566128 1.065120 0.919979
2.611838 1.063533 0.918656
2.608370 1.086879 0.912479
2.562491 1.088693 0.913589
2.612591 1.068736 0.937932
2.658301 1.067142 0.936605
2.655001 1.090268 0.930642
2.609122 1.092082 0.931755
2.611885 1.063593 0.918639
2.657595 1.061999 0.917311
2.654296 1.085125 0.911348
2.608417 1.086939 0.912461
2.658347 1.067077 0.936620
2.704058 1.065484 0.935282
2.700924 1.088382 0.929532
2.655048 1.090203 0.930657
2.657641 1.062060 0.917293
2.703352 1.060467 0.915955
2.700218 1.083365 0.910205
2.654341 1.085186 0.911330
2.985185 1.146306 0.906012
2.984363 1.109137 0.908522
3.042117 1.113535 0.907396
3.041900 1.146500 0.904974
2.984864 1.144908 0.886084
2.984042 1.107738 0.888593
3.041796 1.112136 0.887468
3.041579 1.145101 0.885045
2.984338 1.109155 0.908521
2.983643 1.077087 0.910946
3.042306 1.080593 0.909883
3.042092 1.113553 0.907395
2.984066 1.107652 0.888599
2.983371 1.075583 0.891025
3.042033 1.079089 0.889962
3.041820 1.112050 0.887473
2.697624 1.098408 0.910872
2.701222 1.095765 0.921205
2.756276 1.093586 0.919860
2.744789 1.094669 0.909619
2.696411 1.078647 0.908182
2.700010 1.076004 0.918514
2.755064 1.073825 0.917170
2.743577 1.074908 0.906929
2.744679 1.094760 0.908627
2.756166 1.093677 0.918868
2.811219 1.091489 0.917505
2.798627 1.092211 0.907050
2.743793 1.074812 0.907918
2.755280 1.073729 0.918159
2.810333 1.071541 0.916796
2.797741 1.072263 0.906341
2.852937 1.094108 0.907908
2.866523 1.088772 0.918976
2.921577 1.086584 0.917600
2.918450 1.089936 0.906048
2.851769 1.075214 0.901515
2.865355 1.069879 0.912583
2.920409 1.067690 0.911207
2.917282 1.071042 0.899655
2.918496 1.090245 0.904907
2.921623 1.086893 0.916458
2.976671 1.084705 0.915084
2.984013 1.086077 0.903051
2.917356 1.070726 0.900793
2.920484 1.067374 0.912345
2.975532 1.065186 0.910971
2.982874 1.066558 0.898938
2.700973 1.088306 0.929550
2.704107 1.065408 0.935300
2.758959 1.063489 0.933681
2.756027 1.086127 0.928206
2.700270 1.083438 0.910185
2.703404 1.060540 0.915935
2.758255 1.058622 0.914316
2.755324 1.081259 0.908840
2.756082 1.086040 0.928225
2.759014 1.063403 0.933700
2.813865 1.061487 0.932077
2.811134 1.083853 0.926862
2.755379 1.081342 0.908818
2.758311 1.058704 0.914293
2.813163 1.056789 0.912670
2.810432 1.079154 0.907455
2.866292 1.081488 0.925531
2.868824 1.059389 0.930476
2.923673 1.057467 0.928846
2.921346 1.079300 0.924155
2.865597 1.077137 0.906043
2.868128 1.055038 0.910988
2.922978 1.053116 0.909358
2.920651 1.074948 0.904667
2.921400 1.079206 0.924174
2.923727 1.057374 0.928865
2.978581 1.055456 0.927213
2.976448 1.077018 0.922800
2.920707 1.075038 0.904646
2.923034 1.053205 0.909337
2.977888 1.051287 0.907685
2.975755 1.072849 0.903272
2.977973 1.043713 0.920031
2.923119 1.045631 0.921683
2.921337 1.044267 0.916361
2.976091 1.042364 0.914843
2.978496 1.063007 0.914867
2.923642 1.064925 0.916519
2.921861 1.063561 0.911197
2.976614 1.061658 0.909679
2.923059 1.045620 0.921635
2.868210 1.047542 0.923264
2.866519 1.046177 0.917814
2.921278 1.044256 0.916313
2.923592 1.064940 0.916569
2.868743 1.066862 0.918198
2.867052 1.065497 0.912748
2.921810 1.063576 0.911247
2.868154 1.047530 0.923211
2.813302 1.049450 0.924850
2.811708 1.048079 0.919265
2.866464 1.046165 0.917760
2.868689 1.066878 0.918255
2.813837 1.068798 0.919894
2.812243 1.067427 0.914309
2.866998 1.065513 0.912804
2.813247 1.049442 0.924813
2.758395 1.051358 0.926436
2.756896 1.049969 0.920725
2.811653 1.048071 0.919228
2.813782 1.068810 0.919934
2.758930 1.070726 0.921558
2.757431 1.069337 0.915846
2.812188 1.067439 0.914349
2.758337 1.051350 0.926400
2.703485 1.053268 0.928019
2.702081 1.051875 0.922174
2.756838 1.049962 0.920689
2.758879 1.070737 0.921596
2.704027 1.072655 0.923215
2.702623 1.071261 0.917370
2.757380 1.069348 0.915885
2.703435 1.053260 0.927980
2.657724 1.054853 0.929318
2.656400 1.053452 0.923365
2.702030 1.051867 0.922135
2.703977 1.072667 0.923258
2.658266 1.074259 0.924595
2.656943 1.072859 0.918643
2.702573 1.071273 0.917412
2.657676 1.054847 0.929286
2.611966 1.056441 0.930614
2.610721 1.055033 0.924550
2.656352 1.053446 0.923334
2.658222 1.074269 0.924629
2.612512 1.075863 0.925957
2.611267 1.074455 0.919893
2.656899 1.072868 0.918677
2.611919 1.056434 0.930578
2.566208 1.058020 0.931900
2.565043 1.056613 0.925728
2.610674 1.055025 0.924514
2.612467 1.075873 0.925996
2.566757 1.077460 0.927319
2.565592 1.076053 0.921146
2.611223 1.074465 0.919932
2.566163 1.058015 0.931872
2.520451 1.059600 0.933182
2.519368 1.058176 0.926899
2.564998 1.056607 0.925699
2.566711 1.077469 0.927350
2.520999 1.079054 0.928660
2.519915 1.077630 0.922378
2.565546 1.076061 0.921177
2.520402 1.059594 0.933145
2.474690 1.061170 0.934437
2.473687 1.059759 0.928044
2.519318 1.058169 0.926863
2.520956 1.079064 0.928698
2.475244 1.080641 0.929990
2.474242 1.079230 0.923597
2.519873 1.077640 0.922416
2.474646 1.061163 0.934403
2.428933 1.062739 0.935682
2.428011 1.061309 0.929179
2.473643 1.059752 0.928009
2.475197 1.080651 0.930028
2.429484 1.082226 0.931307
2.428562 1.080797 0.924805
2.474194 1.079239 0.923634
2.428859 1.062736 0.935659
2.384606 1.064210 0.936127
2.385754 1.062799 0.929864
2.427937 1.061307 0.929156
2.429469 1.082232 0.931332
2.385217 1.083706 0.931799
2.386364 1.082295 0.925537
2.428547 1.080803 0.924829
2.384565 1.064206 0.936103
2.340310 1.065680 0.936560
2.343531 1.064261 0.930540
2.385713 1.062795 0.929841
2.385171 1.083713 0.931824
2.340916 1.085187 0.932281
2.344137 1.083767 0.926261
2.386319 1.082302 0.925561
2.340266 1.065677 0.936540
2.296013 1.067143 0.936988
2.301302 1.065735 0.931211
2.343486 1.064258 0.930520
2.340875 1.085193 0.932302
2.296622 1.086659 0.932749
2.301911 1.085251 0.926973
2.344095 1.083773 0.926282
2.295970 1.067138 0.936957
2.251715 1.068604 0.937401
2.259076 1.067199 0.931866
2.301259 1.065730 0.931181
2.296579 1.086667 0.932781
2.252324 1.088133 0.933224
2.259685 1.086728 0.927689
2.301868 1.085259 0.927004
2.251673 1.068601 0.937382
2.207419 1.070059 0.937806
2.216851 1.068652 0.932523
2.259034 1.067196 0.931847
2.252280 1.088139 0.933244
2.208025 1.089597 0.933668
2.217457 1.088190 0.928385
2.259641 1.086733 0.927709
2.207377 1.070047 0.937738
2.164384 1.071381 0.937948
2.174624 1.070113 0.933117
2.216809 1.068639 0.932454
2.207981 1.089613 0.933737
2.164988 1.090947 0.933947
2.175228 1.089679 0.929116
2.217413 1.088206 0.928454
2.164343 1.071359 0.937828
2.121348 1.072686 0.938022
2.132399 1.071539 0.933663
2.174583 1.070090 0.932997
2.164944 1.090972 0.934068
2.121949 1.092299 0.934261
2.133001 1.091153 0.929903
2.175184 1.089704 0.929237
2.121300 1.072658 0.937866
2.078308 1.073988 0.938058
2.090166 1.072975 0.934153
2.132352 1.071512 0.933507
2.121911 1.092329 0.934418
2.078919 1.093658 0.934610
2.090777 1.092645 0.930706
2.132963 1.091183 0.930060
2.976285 1.076943 0.922819
2.978417 1.055381 0.927233
3.042644 1.055717 0.926348
3.042470 1.077298 0.921928
2.976039 1.072923 0.903250
2.978172 1.051361 0.907663
3.042398 1.051697 0.906778
3.042225 1.073278 0.902358
