3.134161 1.147117 0.150361
3.133908 1.183967 0.149535
3.139442 1.182592 0.091322
3.139450 1.144367 0.092767
3.117527 1.144294 0.091419
3.117518 1.182520 0.089975
3.118996 1.180850 0.031409
3.118908 1.140584 0.033551
3.139498 1.144297 0.091958
3.139490 1.182522 0.090514
3.140967 1.180853 0.031949
3.140880 1.140587 0.034090
3.112027 1.183879 0.147472
3.111899 1.220736 0.146637
3.117527 1.220820 0.087736
3.117561 1.182505 0.089259
3.133906 1.183992 0.149556
3.133777 1.220848 0.148721
3.139406 1.220933 0.089820
3.139440 1.182617 0.091343
3.117519 1.182575 0.089941
3.117485 1.220890 0.088418
3.119238 1.221179 0.029210
3.118997 1.180906 0.031376
3.139489 1.182545 0.090544
3.139455 1.220861 0.089020
3.141208 1.221149 0.029813
3.140966 1.180876 0.031979
3.110218 1.144073 0.198497
3.113746 1.141457 0.149298
3.127280 1.115814 0.152911
3.124848 1.121649 0.199785
3.129171 1.155198 0.198694
3.132699 1.152582 0.149495
3.146233 1.126939 0.153108
3.143801 1.132775 0.199982
3.178776 1.105924 0.201597
3.164242 1.100070 0.162807
3.164664 1.073897 0.159793
3.182603 1.080993 0.205399
3.199154 1.107494 0.193515
3.184620 1.101639 0.154725
3.185041 1.075466 0.151711
3.202981 1.082562 0.197317
3.108777 1.207032 0.309339
3.088709 1.207703 0.304695
3.091889 1.208599 0.267413
3.112904 1.207187 0.271572
3.109802 1.228982 0.309746
3.089735 1.229653 0.305102
3.092915 1.230549 0.267820
3.113930 1.229137 0.271979
3.112555 1.207211 0.271460
3.091540 1.208623 0.267301
3.094893 1.209657 0.230070
3.116435 1.207509 0.233676
3.114286 1.229114 0.272016
3.093271 1.230526 0.267857
3.096624 1.231560 0.230626
3.118167 1.229412 0.234231
3.116364 1.207515 0.233689
3.094822 1.209663 0.230083
3.098454 1.209903 0.192697
3.119557 1.208251 0.195683
3.118245 1.229407 0.234143
3.096702 1.231556 0.230537
3.100334 1.231795 0.193151
3.121438 1.230144 0.196137
3.101028 1.153439 0.308833
3.104503 1.149464 0.272097
3.119877 1.129381 0.274417
3.115185 1.133655 0.311579
3.118654 1.166557 0.309317
3.122129 1.162582 0.272581
3.137504 1.142500 0.274901
3.132811 1.146774 0.312062
3.104571 1.149370 0.272189
3.107907 1.145789 0.235445
3.123573 1.124962 0.237238
3.119946 1.129287 0.274509
3.122068 1.162668 0.272415
3.125403 1.159087 0.235670
3.141069 1.138261 0.237463
3.137442 1.142586 0.274735
3.107657 1.146129 0.235521
3.110691 1.143335 0.198638
3.125321 1.120911 0.199927
3.123324 1.125303 0.237314
3.125658 1.158739 0.235520
3.128692 1.155944 0.198638
3.143322 1.133521 0.199926
3.141325 1.137913 0.237313
3.098372 1.217954 0.308389
3.102499 1.218109 0.270622
3.102444 1.187119 0.270878
3.098632 1.188983 0.308148
3.120228 1.218029 0.310700
3.124355 1.218184 0.272933
3.124300 1.187195 0.273188
3.120488 1.189058 0.310459
3.102496 1.218206 0.270658
3.106376 1.218504 0.232874
3.105974 1.185578 0.233681
3.102440 1.187216 0.270914
3.124366 1.218085 0.272822
3.128247 1.218383 0.235038
3.127845 1.185458 0.235844
3.124311 1.187096 0.273077
3.106365 1.218549 0.232996
3.109558 1.219285 0.194990
3.109124 1.184549 0.196346
3.105963 1.185624 0.233803
3.128265 1.218337 0.234840
3.131458 1.219074 0.196834
3.131023 1.184337 0.198191
3.127863 1.185412 0.235647
3.098624 1.188951 0.308230
3.102436 1.187087 0.270959
3.102372 1.156008 0.271264
3.098897 1.159983 0.308000
3.120496 1.189030 0.310377
3.124308 1.187166 0.273107
3.124245 1.156088 0.273412
3.120770 1.160062 0.310148
3.102434 1.187162 0.270977
3.105968 1.185524 0.233744
3.105705 1.152502 0.234538
3.102370 1.156083 0.271282
3.124317 1.187086 0.273015
3.127851 1.185448 0.235782
3.127589 1.152426 0.236575
3.124254 1.156007 0.273319
3.105962 1.185560 0.233810
3.109122 1.184485 0.196353
3.108733 1.149743 0.197720
3.105700 1.152538 0.234603
3.127863 1.185408 0.235642
3.131023 1.184333 0.198186
3.130634 1.149591 0.199553
3.127601 1.152386 0.236436
3.108722 1.149664 0.197875
3.109111 1.184406 0.196508
3.111997 1.183898 0.147849
3.112250 1.147048 0.148676
3.130653 1.149667 0.199312
3.131042 1.184409 0.197945
3.133928 1.183901 0.149287
3.134181 1.147051 0.150113
3.109103 1.184472 0.196635
3.109538 1.219209 0.195279
3.111861 1.220821 0.147142
3.111989 1.183964 0.147977
3.131049 1.184415 0.197816
3.131484 1.219151 0.196459
3.133807 1.220763 0.148323
3.133936 1.183907 0.149157
3.119889 1.208231 0.195560
3.098785 1.209882 0.192574
3.101716 1.210606 0.147088
3.122211 1.209843 0.147423
3.121113 1.230166 0.196176
3.100009 1.231817 0.193190
3.102940 1.232541 0.147704
3.123435 1.231778 0.148039
3.122394 1.129397 0.312993
3.127087 1.125123 0.275831
3.153989 1.121578 0.284615
3.154572 1.125688 0.319329
3.125646 1.151008 0.310658
3.130338 1.146734 0.273497
3.157240 1.143188 0.282280
3.157823 1.147298 0.316994
3.154788 1.125692 0.319622
3.154205 1.121582 0.284908
3.180470 1.118374 0.290679
3.187182 1.122586 0.325006
3.157666 1.147286 0.316715
3.157083 1.143176 0.282001
3.183348 1.139968 0.287772
3.190059 1.144180 0.322099
3.187316 1.122609 0.325280
3.180605 1.118397 0.290953
3.205778 1.115337 0.294107
3.219845 1.119801 0.330099
3.189983 1.144151 0.321834
3.183272 1.139939 0.287507
3.208445 1.136879 0.290661
3.222512 1.141343 0.326653
3.219582 1.119891 0.330404
3.205515 1.115426 0.294411
3.229520 1.111688 0.295118
3.252018 1.116066 0.335128
3.222833 1.141247 0.326355
3.208766 1.136782 0.290363
3.232771 1.133044 0.291069
3.255269 1.137422 0.331079
3.251811 1.116160 0.335423
3.229313 1.111782 0.295413
3.251742 1.106979 0.293451
3.284202 1.111923 0.340121
3.255532 1.137319 0.330789
3.233033 1.132941 0.290778
3.255462 1.128138 0.288816
3.287922 1.133083 0.335487
3.126713 1.125185 0.275822
3.130340 1.120860 0.238550
3.151954 1.117875 0.252359
3.153615 1.121639 0.284606
3.130715 1.146664 0.273436
3.134342 1.142339 0.236164
3.155956 1.139353 0.249973
3.157617 1.143118 0.282219
3.153841 1.121636 0.284900
3.152180 1.117872 0.252653
3.172498 1.114847 0.258291
3.180106 1.118428 0.290671
3.157439 1.143115 0.281942
3.155778 1.139350 0.249696
3.176096 1.136326 0.255334
3.183704 1.139907 0.287713
3.180246 1.118440 0.290905
3.172638 1.114859 0.258525
3.191034 1.111837 0.260082
3.205419 1.115380 0.294058
3.183609 1.139888 0.287487
3.176002 1.136308 0.255108
3.194398 1.133285 0.256665
3.208783 1.136828 0.290641
3.205288 1.115446 0.294321
3.190903 1.111904 0.260345
3.207802 1.108218 0.257581
3.229293 1.111708 0.295027
3.208957 1.136754 0.290380
3.194572 1.133212 0.256404
3.211471 1.129526 0.253640
3.232962 1.133016 0.291086
3.228701 1.111974 0.295695
3.207211 1.108485 0.258248
3.218778 1.101936 0.247060
3.251130 1.107172 0.293732
3.233591 1.132740 0.290411
3.212100 1.129250 0.252964
3.223668 1.122702 0.241777
3.256020 1.127937 0.288449
3.129726 1.121001 0.238618
3.131723 1.116609 0.201231
3.149211 1.114869 0.227791
3.151340 1.118016 0.252426
3.134957 1.142190 0.236031
3.136955 1.137798 0.198644
3.154443 1.136058 0.225204
3.156571 1.139205 0.249840
3.151639 1.118017 0.252919
3.149510 1.114870 0.228284
3.164481 1.111315 0.229820
3.171957 1.114993 0.258557
3.156309 1.139198 0.249371
3.154181 1.136051 0.224735
3.169151 1.132496 0.226271
3.176628 1.136173 0.255008
3.172195 1.114990 0.258820
3.164719 1.111312 0.230082
3.176479 1.108695 0.230503
3.190591 1.111968 0.260377
3.176423 1.136170 0.254751
3.168946 1.132492 0.226013
3.180706 1.129876 0.226435
3.194819 1.133148 0.256308
3.190524 1.112047 0.260694
3.176411 1.108775 0.230821
3.190354 1.105079 0.229411
3.207424 1.108362 0.257930
3.194917 1.133062 0.255990
3.180804 1.129790 0.226116
3.194747 1.126094 0.224707
3.211816 1.129376 0.253225
3.206546 1.108813 0.258768
3.189476 1.105531 0.230250
3.185902 1.096682 0.200811
3.218113 1.102265 0.247581
3.212714 1.128913 0.252364
3.195644 1.125630 0.223846
3.192070 1.116781 0.194407
3.224281 1.122364 0.241177
3.148593 1.115114 0.228281
3.131105 1.116855 0.201721
3.158774 1.107344 0.201961
3.163563 1.111559 0.229817
3.155082 1.135802 0.224684
3.137594 1.137543 0.198124
3.165264 1.128032 0.198364
3.170052 1.132247 0.226219
3.164408 1.111369 0.230032
3.159619 1.107154 0.202177
3.176168 1.108752 0.230454
3.169238 1.132430 0.226015
3.164449 1.128215 0.198159
3.180998 1.129813 0.226436
3.175284 1.109231 0.231413
3.158735 1.107632 0.203136
3.185652 1.096685 0.200564
3.189227 1.105535 0.230003
3.181906 1.129326 0.225466
3.165357 1.127727 0.197189
3.192274 1.116780 0.194618
3.195849 1.125630 0.224057
3.130048 1.117195 0.201406
3.132480 1.111359 0.154532
3.151448 1.101234 0.156880
3.157718 1.107684 0.201647
3.138638 1.137195 0.198365
3.141070 1.131359 0.151491
3.160037 1.121234 0.153839
3.166307 1.127684 0.198606
3.157472 1.108010 0.202686
3.151202 1.101560 0.157920
3.169855 1.091209 0.161325
3.184389 1.097064 0.200115
3.166599 1.127338 0.197568
3.160329 1.120887 0.152801
3.178982 1.110536 0.156206
3.193516 1.116391 0.194996
3.130459 1.112383 0.153581
3.133140 1.109494 0.094963
3.145991 1.097541 0.097183
3.149427 1.102257 0.155929
3.143089 1.130326 0.152337
3.145770 1.127438 0.093719
3.158620 1.115484 0.095939
3.162056 1.120201 0.154686
3.131573 1.110830 0.094911
3.130714 1.108022 0.036245
3.142179 1.095190 0.037941
3.144423 1.098877 0.097130
3.147335 1.126095 0.093654
3.146477 1.123287 0.034989
3.157941 1.110455 0.036684
3.160186 1.114141 0.095874
3.150001 1.101936 0.156515
3.146565 1.097219 0.097768
3.161931 1.087217 0.100112
3.168654 1.091585 0.159919
3.161515 1.120501 0.154106
3.158079 1.115784 0.095359
3.173446 1.105782 0.097703
3.180168 1.110150 0.157510
3.145810 1.097695 0.097463
3.143566 1.094008 0.038273
3.156950 1.083171 0.039752
3.161176 1.087693 0.099807
3.158826 1.115300 0.095545
3.156581 1.111613 0.036355
3.169966 1.100776 0.037834
3.174192 1.105298 0.097889
3.090028 1.133210 0.509185
3.134453 1.124617 0.499336
3.142682 1.114776 0.506879
3.096182 1.149044 0.523130
3.140607 1.140451 0.513280
3.148836 1.130610 0.520824
3.143035 1.114936 0.506559
3.134806 1.124777 0.499016
3.177342 1.115751 0.492697
3.183507 1.101397 0.505415
3.148557 1.130429 0.521136
3.140328 1.140270 0.513593
3.182865 1.131244 0.507274
3.189029 1.116890 0.519993
3.183567 1.101463 0.505323
3.177402 1.115817 0.492605
3.219323 1.106508 0.486784
3.224047 1.087960 0.504219
3.189052 1.116801 0.520077
3.182888 1.131155 0.507359
3.224809 1.121845 0.501539
3.229533 1.103298 0.518973
3.223966 1.087927 0.504285
3.219242 1.106474 0.486850
3.260963 1.096550 0.480703
3.264602 1.074659 0.502548
3.229697 1.103309 0.518900
3.224973 1.121856 0.501465
3.266693 1.111931 0.495318
3.270332 1.090041 0.517163
3.264532 1.074533 0.502712
3.260893 1.096423 0.480867
3.302921 1.085921 0.474256
3.305119 1.061472 0.500643
3.270485 1.090144 0.516990
3.266846 1.112035 0.495146
3.308873 1.101532 0.488535
3.311071 1.077084 0.514922
3.090728 1.131170 0.512168
3.097331 1.133621 0.497187
3.138412 1.128635 0.490141
3.135153 1.122577 0.502318
3.095466 1.151098 0.520132
3.102070 1.153549 0.505152
3.143151 1.148563 0.498105
3.139892 1.142505 0.510283
3.134992 1.123575 0.500472
3.138251 1.129633 0.488295
3.178919 1.124903 0.479010
3.177528 1.114548 0.494153
3.140137 1.141493 0.512113
3.143396 1.147551 0.499935
3.184065 1.142821 0.490651
3.182674 1.132466 0.505794
3.177458 1.114951 0.493604
3.178849 1.125306 0.478461
3.219294 1.120708 0.468212
3.219379 1.105642 0.487784
3.182827 1.132049 0.506327
3.184218 1.142404 0.491184
3.224663 1.137806 0.480935
3.224748 1.122740 0.500506
3.219190 1.105816 0.487637
3.219105 1.120882 0.468066
3.259396 1.115075 0.457688
3.260911 1.095892 0.481490
3.225019 1.122551 0.500637
3.224934 1.137617 0.481065
3.265225 1.131810 0.470688
3.266740 1.112627 0.494490
3.260725 1.095916 0.481546
3.259210 1.115100 0.457744
3.299213 1.107885 0.447259
3.302753 1.085414 0.474935
3.267008 1.112586 0.494418
3.265493 1.131769 0.470615
3.305496 1.124555 0.460131
3.309036 1.102083 0.487807
3.138899 1.106127 0.544015
3.142267 1.112562 0.511411
3.182739 1.099022 0.510267
3.179632 1.091824 0.543037
3.145962 1.126350 0.548932
3.149329 1.132785 0.516327
3.189801 1.119246 0.515184
3.186694 1.112048 0.547953
3.179716 1.091833 0.542884
3.182823 1.099032 0.510114
3.223304 1.085529 0.509010
3.220533 1.077757 0.541948
3.186692 1.112011 0.548104
3.189799 1.119209 0.515335
3.230279 1.105706 0.514230
3.227509 1.097934 0.547169
3.220632 1.077745 0.541863
3.223403 1.085517 0.508925
3.264038 1.072249 0.507188
3.261505 1.063661 0.542249
3.227491 1.097918 0.547252
3.230262 1.105690 0.514313
3.270897 1.092423 0.512576
3.268363 1.083835 0.547638
3.261604 1.063629 0.542246
3.264138 1.072217 0.507185
3.304725 1.059156 0.505116
3.302464 1.049713 0.543614
3.268345 1.083840 0.547640
3.270879 1.092428 0.512578
3.311466 1.079368 0.510510
3.309204 1.069925 0.549008
3.080838 1.119325 0.580429
3.089333 1.131047 0.513929
3.112066 1.115438 0.546201
3.108478 1.109102 0.579621
3.088332 1.139479 0.584978
3.096828 1.151201 0.518477
3.119560 1.135592 0.550750
3.115973 1.129255 0.584169
3.108515 1.109104 0.579551
3.112102 1.115440 0.546132
3.138657 1.106180 0.544157
3.136171 1.098879 0.578767
3.115988 1.129230 0.584253
3.119575 1.135567 0.550833
3.146130 1.126307 0.548859
3.143645 1.119006 0.583469
3.112179 1.115417 0.546110
3.089447 1.131026 0.513838
3.142101 1.112592 0.511532
3.138734 1.106157 0.544136
3.119492 1.135608 0.550788
3.096760 1.151217 0.518516
3.149414 1.132783 0.516209
3.146046 1.126348 0.548814
3.073205 1.151929 0.513677
3.076267 1.153929 0.495593
3.091495 1.137027 0.497899
3.084891 1.134577 0.512879
3.089560 1.165068 0.520227
3.092623 1.167068 0.502143
3.107850 1.150166 0.504449
3.101247 1.147716 0.519429
3.070536 1.158387 0.515150
3.069992 1.184815 0.516951
3.072984 1.186311 0.498361
3.073598 1.160386 0.497066
3.092215 1.158654 0.518754
3.091671 1.185081 0.520555
3.094662 1.186577 0.501965
3.095277 1.160653 0.500670
3.069979 1.184807 0.517032
3.069351 1.211226 0.518827
3.072302 1.212232 0.499738
3.072971 1.186303 0.498442
3.091683 1.185141 0.520477
3.091055 1.211560 0.522272
3.094006 1.212566 0.503183
3.094674 1.186637 0.501887
3.079424 1.200465 0.519887
3.060083 1.201994 0.518111
3.063288 1.203178 0.493768
3.082375 1.201471 0.500798
3.080963 1.222349 0.521209
3.061622 1.223878 0.519433
3.064827 1.225062 0.495090
3.083914 1.223355 0.502120
3.043996 1.106227 0.787673
3.042571 1.111259 0.747689
3.055406 1.090926 0.758786
3.056367 1.089467 0.783731
3.062116 1.118652 0.788249
3.060691 1.123684 0.748266
3.073526 1.103350 0.759362
3.074487 1.101891 0.784307
3.043348 1.110526 0.745988
3.046247 1.116355 0.706100
3.061786 1.097618 0.713703
3.056183 1.090192 0.757085
3.059917 1.124427 0.749893
3.062816 1.130257 0.710004
3.078355 1.111520 0.717607
3.072752 1.104093 0.760989
3.046743 1.115871 0.705854
3.050869 1.122766 0.666244
3.067032 1.104986 0.670098
3.062282 1.097134 0.713457
3.062328 1.130755 0.710167
3.066454 1.137649 0.670556
3.082618 1.119870 0.674411
3.077867 1.112018 0.717770
3.050726 1.122964 0.666092
3.055884 1.130730 0.626774
3.070501 1.113674 0.626537
3.066889 1.105184 0.669947
3.066606 1.137466 0.670625
3.071764 1.145232 0.631307
3.086381 1.128177 0.631070
3.082769 1.119686 0.674480
3.039618 1.199755 0.785608
3.040670 1.200434 0.746276
3.040619 1.158936 0.747061
3.040884 1.156066 0.786727
3.061592 1.200074 0.785841
3.062644 1.200753 0.746509
3.062593 1.159255 0.747294
3.062858 1.156385 0.786960
3.040886 1.156034 0.787063
3.040621 1.158904 0.747397
3.040639 1.117353 0.748194
3.042063 1.112321 0.788177
3.062858 1.156332 0.786626
3.062592 1.159202 0.746960
3.062610 1.117651 0.747757
3.064035 1.112619 0.787740
3.040688 1.200541 0.745718
3.042734 1.202980 0.706469
3.043120 1.163201 0.706920
3.040637 1.159044 0.746503
3.062629 1.200651 0.746988
3.064675 1.203090 0.707739
3.065061 1.163311 0.708190
3.062578 1.159153 0.747773
3.040645 1.158985 0.746387
3.043128 1.163143 0.706804
3.043561 1.123264 0.707295
3.040662 1.117434 0.747184
3.062571 1.159130 0.747890
3.065054 1.163288 0.708307
3.065487 1.123409 0.708798
3.062588 1.117579 0.748687
3.042782 1.202913 0.705895
3.046926 1.204768 0.666806
3.047344 1.167493 0.667039
3.043168 1.163135 0.706346
3.064634 1.203162 0.708234
3.068777 1.205017 0.669144
3.069196 1.167742 0.669378
3.065020 1.163384 0.708685
3.043168 1.163095 0.706349
3.047344 1.167453 0.667042
3.047727 1.130110 0.667230
3.043601 1.123216 0.706840
3.065020 1.163347 0.708683
3.069196 1.167704 0.669376
3.069579 1.130362 0.669564
3.065453 1.123467 0.709175
3.046978 1.204807 0.666386
3.052662 1.206209 0.627450
3.052791 1.172093 0.627450
3.047396 1.167532 0.666619
3.068735 1.204984 0.669486
3.074420 1.206386 0.630550
3.074548 1.172270 0.630550
3.069153 1.167709 0.669719
3.047386 1.167499 0.666692
3.052781 1.172060 0.627523
3.052928 1.137922 0.627562
3.047769 1.130156 0.666880
3.069164 1.167670 0.669647
3.074559 1.172231 0.630478
3.074705 1.138093 0.630517
3.069547 1.130327 0.669835
3.049891 1.188973 0.785455
3.022387 1.190500 0.785981
3.024844 1.191554 0.745446
3.050943 1.189653 0.746123
3.051291 1.210900 0.785992
3.023788 1.212426 0.786519
3.026244 1.213480 0.745984
3.052343 1.211579 0.746661
3.050855 1.189681 0.745622
3.024756 1.191583 0.744945
3.034264 1.193576 0.705299
3.052901 1.192120 0.706373
3.052439 1.211554 0.747083
3.026340 1.213455 0.746406
3.035848 1.215448 0.706760
3.054485 1.213992 0.707833
3.052768 1.192129 0.706391
3.034130 1.193585 0.705317
3.039585 1.195794 0.665067
3.056911 1.193984 0.667302
3.054630 1.213987 0.707736
3.035992 1.215443 0.706662
3.041446 1.217652 0.666412
3.058773 1.215841 0.668646
3.056592 1.194018 0.667269
3.039266 1.195828 0.665034
3.042505 1.198255 0.624414
3.062277 1.195419 0.628333
3.059101 1.215811 0.668599
3.041775 1.217622 0.666365
3.045014 1.220049 0.625744
3.064786 1.217213 0.629664
3.152886 1.089982 0.000020
3.153291 1.088618 -0.038567
3.157260 1.058103 -0.040573
3.157028 1.059025 -0.002048
3.174675 1.092852 0.000115
3.175081 1.091488 -0.038472
3.179050 1.060972 -0.040478
3.178818 1.061894 -0.001952
3.153243 1.089100 -0.038235
3.153761 1.085904 -0.076728
3.154832 1.057084 -0.078757
3.157212 1.058584 -0.040241
3.175129 1.091003 -0.038880
3.175647 1.087807 -0.077373
3.176718 1.058987 -0.079402
3.179098 1.060487 -0.040886
3.132188 1.105804 -0.002660
3.132658 1.103727 -0.041056
3.156733 1.081996 -0.038243
3.156327 1.083360 0.000344
3.147067 1.121971 -0.003214
3.147536 1.119893 -0.041609
3.171611 1.098163 -0.038796
3.171206 1.099527 -0.000210
3.132822 1.103603 -0.040654
3.131701 1.100613 -0.079037
3.157416 1.078677 -0.076334
3.156897 1.081872 -0.037841
3.147372 1.120012 -0.042088
3.146252 1.117022 -0.080471
3.171966 1.095086 -0.077768
3.171447 1.098282 -0.039275
3.119592 1.136740 0.033813
3.119598 1.134932 -0.004935
3.129303 1.110102 -0.002863
3.128278 1.111861 0.035605
3.140207 1.144361 0.033736
3.140212 1.142552 -0.005012
3.149917 1.117723 -0.002940
3.148892 1.119481 0.035528
3.119730 1.134594 -0.004791
3.119258 1.132567 -0.043544
3.129905 1.107688 -0.041114
3.129436 1.109765 -0.002719
3.140079 1.142886 -0.005233
3.139607 1.140859 -0.043986
3.150254 1.115979 -0.041556
3.149785 1.118057 -0.003161
3.119356 1.132377 -0.043115
3.117639 1.129717 -0.081779
3.128883 1.104508 -0.079068
3.130004 1.107498 -0.040685
3.139507 1.141043 -0.044492
3.137790 1.138383 -0.083157
3.149034 1.113174 -0.080445
3.150154 1.116164 -0.042063
3.119235 1.221235 0.029511
3.119074 1.221105 -0.009457
3.118805 1.179991 -0.007207
3.118994 1.180962 0.031676
3.141212 1.221092 0.029414
3.141051 1.220962 -0.009553
3.140783 1.179848 -0.007303
3.140971 1.180819 0.031580
3.118993 1.180848 0.031656
3.118805 1.179878 -0.007227
3.118911 1.138774 -0.004950
3.118906 1.140582 0.033798
3.140971 1.180851 0.031604
3.140783 1.179880 -0.007279
3.140889 1.138776 -0.005002
3.140884 1.140584 0.033746
3.119074 1.221093 -0.009425
3.118578 1.220331 -0.048385
3.118444 1.178583 -0.045997
3.118805 1.179979 -0.007175
3.141050 1.220973 -0.009664
3.140554 1.220211 -0.048624
3.140420 1.178463 -0.046236
3.140782 1.179859 -0.007414
3.118805 1.179870 -0.007173
3.118443 1.178474 -0.045996
3.118439 1.136739 -0.043649
3.118911 1.138766 -0.004896
3.140782 1.179884 -0.007410
3.140420 1.178488 -0.046233
3.140415 1.136753 -0.043886
3.140888 1.138780 -0.005133
3.118583 1.220355 -0.048171
3.117357 1.218084 -0.087059
3.116998 1.176153 -0.084583
3.118449 1.178607 -0.045782
3.140547 1.220183 -0.048917
3.139322 1.217912 -0.087805
3.138963 1.175980 -0.085329
3.140413 1.178435 -0.046528
3.118451 1.178541 -0.045708
3.117001 1.176086 -0.084509
3.116729 1.134145 -0.082026
3.118446 1.136806 -0.043361
3.140411 1.178417 -0.046598
3.138960 1.175963 -0.085399
3.138689 1.134022 -0.082915
3.140406 1.136682 -0.044251
3.127034 1.207106 -0.087469
3.105532 1.209008 -0.089131
3.104242 1.209796 -0.126353
3.125551 1.206622 -0.128808
3.129621 1.228931 -0.087476
3.108119 1.230833 -0.089138
3.106829 1.231621 -0.126360
3.128139 1.228447 -0.128814
3.117360 1.218185 -0.087012
3.115878 1.217701 -0.128350
3.115033 1.176224 -0.125440
3.117001 1.176253 -0.084537
3.139316 1.217809 -0.087931
3.137833 1.217324 -0.129269
3.136988 1.175848 -0.126359
3.138957 1.175877 -0.085456
3.117004 1.176153 -0.084439
3.115036 1.176124 -0.125342
3.114594 1.134650 -0.122461
3.116733 1.134212 -0.081956
3.138953 1.175894 -0.085548
3.136984 1.175865 -0.126451
3.136542 1.134391 -0.123570
3.138681 1.133953 -0.083065
3.128886 1.210276 0.029465
3.109836 1.212461 0.028416
3.108136 1.212784 -0.010756
3.128725 1.210147 -0.009502
3.131541 1.232093 0.029456
3.112490 1.234278 0.028407
3.110790 1.234601 -0.010765
3.131380 1.231964 -0.009511
3.128462 1.210183 -0.009412
3.107873 1.212820 -0.010666
3.103685 1.213296 -0.050553
3.127966 1.209420 -0.048373
3.131640 1.231928 -0.009680
3.111050 1.234566 -0.010933
3.106862 1.235042 -0.050820
3.131143 1.231166 -0.048641
3.128107 1.209436 -0.047636
3.103826 1.213312 -0.049816
3.105380 1.209067 -0.088186
3.126882 1.207165 -0.086524
3.131000 1.231147 -0.049455
3.106719 1.235023 -0.051635
3.108273 1.230778 -0.090005
3.129774 1.228876 -0.088343
3.253790 1.052813 -0.357173
3.217972 1.062959 -0.358168
3.213557 1.064481 -0.402873
3.249773 1.053851 -0.403464
3.259881 1.073930 -0.357144
3.224062 1.084076 -0.358138
3.219648 1.085599 -0.402843
3.255863 1.074968 -0.403434
3.249688 1.053876 -0.403533
3.213472 1.064506 -0.402942
3.209085 1.066085 -0.447574
3.245729 1.055106 -0.449829
3.255940 1.074945 -0.403456
3.219725 1.085576 -0.402865
3.215337 1.087155 -0.447497
3.251981 1.076176 -0.449752
3.245675 1.055122 -0.449830
3.209031 1.066101 -0.447575
3.204602 1.067497 -0.492144
3.241674 1.056219 -0.496122
3.252026 1.076163 -0.449842
3.215382 1.087141 -0.447587
3.210953 1.088537 -0.492157
3.248025 1.077259 -0.496134
3.217881 1.062986 -0.358229
3.182146 1.073400 -0.359031
3.177384 1.075212 -0.402150
3.213467 1.064508 -0.402934
3.224081 1.084070 -0.358076
3.188346 1.094485 -0.358879
3.183584 1.096297 -0.401997
3.219667 1.085593 -0.402782
3.213414 1.064524 -0.402984
3.177331 1.075228 -0.402199
3.172483 1.077093 -0.445344
3.209026 1.066103 -0.447616
3.219710 1.085580 -0.402820
3.183627 1.096285 -0.402036
3.178780 1.098149 -0.445181
3.215323 1.087159 -0.447453
3.208968 1.066120 -0.447620
3.172425 1.077110 -0.445348
3.167463 1.078922 -0.488513
3.204539 1.067516 -0.492189
3.215371 1.087144 -0.447536
3.178828 1.098135 -0.445265
3.173866 1.099947 -0.488430
3.210942 1.088540 -0.492106
3.181791 1.073510 -0.358964
3.146594 1.085240 -0.355757
3.141094 1.086877 -0.399250
3.177028 1.075323 -0.402083
3.188630 1.094397 -0.358943
3.153433 1.106127 -0.355735
3.147933 1.107764 -0.399229
3.183867 1.096209 -0.402061
3.177113 1.075296 -0.402160
3.141178 1.086850 -0.399327
3.135682 1.088643 -0.442829
3.172265 1.077160 -0.445305
3.183773 1.096240 -0.402071
3.147838 1.107794 -0.399238
3.142342 1.109588 -0.442740
3.178925 1.098104 -0.445216
3.172337 1.077137 -0.445333
3.135754 1.088621 -0.442858
3.130175 1.090320 -0.486373
3.167375 1.078950 -0.488499
3.178843 1.098130 -0.445274
3.142260 1.109614 -0.442799
3.136682 1.111313 -0.486313
3.173881 1.099942 -0.488440
3.146558 1.085252 -0.355672
3.111355 1.096931 -0.352470
3.105165 1.098534 -0.396330
3.141058 1.086889 -0.399166
3.153398 1.106138 -0.355813
3.118195 1.117817 -0.352611
3.112005 1.119420 -0.396471
3.147898 1.107775 -0.399307
3.141135 1.086864 -0.399243
3.105242 1.098508 -0.396408
3.099054 1.100132 -0.440272
3.135639 1.088657 -0.442745
3.147809 1.107804 -0.399317
3.111916 1.119448 -0.396481
3.105728 1.121072 -0.440346
3.142313 1.109597 -0.442819
3.135719 1.088632 -0.442786
3.099134 1.100106 -0.440313
3.092949 1.101720 -0.484176
3.130141 1.090331 -0.486301
3.142220 1.109626 -0.442865
3.105635 1.121100 -0.440392
3.099451 1.122715 -0.484255
3.136642 1.111325 -0.486380
3.294087 1.043303 -0.494177
3.294677 1.043812 -0.455190
3.246347 1.054941 -0.449775
3.242346 1.056038 -0.496067
3.299181 1.064682 -0.494304
3.299771 1.065191 -0.455317
3.251441 1.076321 -0.449902
3.247440 1.077417 -0.496194
3.294873 1.043767 -0.455175
3.295473 1.044280 -0.416192
3.250502 1.053666 -0.403464
3.246543 1.054897 -0.449761
3.299579 1.065235 -0.455246
3.300179 1.065748 -0.416263
3.255209 1.075134 -0.403535
3.251249 1.076365 -0.449832
3.295700 1.044233 -0.416137
3.296288 1.044739 -0.377152
3.254746 1.052581 -0.357119
3.250729 1.053619 -0.403409
3.299957 1.065795 -0.416233
3.300545 1.066301 -0.377248
3.259004 1.074143 -0.357214
3.254986 1.075180 -0.403505
3.290437 0.989090 -0.493620
3.290706 0.987122 -0.453105
3.288810 1.020215 -0.454114
3.288149 1.020803 -0.493851
3.312369 0.990502 -0.493829
3.312638 0.988534 -0.453314
3.310742 1.021627 -0.454323
3.310080 1.022216 -0.494060
3.288156 1.020719 -0.493783
3.288817 1.020131 -0.454046
3.286293 1.053656 -0.455081
3.285704 1.053147 -0.494068
3.310069 1.022365 -0.494129
3.310730 1.021777 -0.454393
3.308207 1.055302 -0.455427
3.307617 1.054793 -0.494414
3.290712 0.987080 -0.452918
3.292152 0.985200 -0.412420
3.289383 1.019595 -0.414198
3.288816 1.020172 -0.453927
3.312633 0.988574 -0.453420
3.314074 0.986695 -0.412923
3.311304 1.021090 -0.414701
3.310737 1.021667 -0.454430
3.288815 1.020154 -0.454018
3.289382 1.019577 -0.414289
3.286892 1.054192 -0.416070
3.286292 1.053680 -0.455053
3.310733 1.021753 -0.454342
3.311299 1.021176 -0.414613
3.308809 1.055792 -0.416393
3.308209 1.055279 -0.455376
3.292161 0.985154 -0.412228
3.293576 0.983274 -0.371735
3.291111 1.018984 -0.374269
3.289392 1.019548 -0.414006
3.314067 0.986740 -0.413035
3.315482 0.984860 -0.372543
3.313017 1.020570 -0.375076
3.311297 1.021134 -0.414813
3.289397 1.019445 -0.414092
3.291117 1.018880 -0.374355
3.287495 1.054566 -0.376887
3.286907 1.054060 -0.415872
3.311286 1.021308 -0.414732
3.313006 1.020744 -0.374995
3.309384 1.056430 -0.377527
3.308796 1.055924 -0.416512
3.162276 1.081662 -0.122758
3.172982 1.078974 -0.157925
3.198693 1.068866 -0.159779
3.177801 1.075692 -0.124819
3.170324 1.102096 -0.121904
3.181030 1.099408 -0.157071
3.206742 1.089300 -0.158925
3.185849 1.096125 -0.123965
3.173008 1.078962 -0.157876
3.184044 1.075728 -0.192929
3.219740 1.061861 -0.195087
3.198719 1.068854 -0.159730
3.181036 1.099410 -0.157190
3.192072 1.096176 -0.192244
3.227768 1.082309 -0.194402
3.206748 1.089302 -0.159044
3.184218 1.075659 -0.192847
3.197605 1.070854 -0.226887
3.240694 1.055304 -0.229947
3.219914 1.061792 -0.195005
3.191931 1.096235 -0.192396
3.205317 1.091429 -0.226435
3.248407 1.075879 -0.229496
3.227626 1.082367 -0.194553
3.197913 1.070748 -0.227052
3.212197 1.066134 -0.260706
3.262355 1.049936 -0.265072
3.241003 1.055198 -0.230113
3.205044 1.091525 -0.226339
3.219328 1.086910 -0.259993
3.269486 1.070713 -0.264359
3.248133 1.075975 -0.229400
3.212517 1.066026 -0.260593
3.225591 1.061891 -0.291341
3.284026 1.044571 -0.299908
3.262675 1.049829 -0.264959
3.219043 1.087008 -0.260173
3.232117 1.082873 -0.290921
3.290552 1.065554 -0.299488
3.269201 1.070811 -0.264539
3.225876 1.061805 -0.291222
3.240799 1.056949 -0.326403
3.298958 1.041353 -0.337282
3.284311 1.044485 -0.299789
3.231865 1.082951 -0.291110
3.246788 1.078095 -0.326291
3.304947 1.062500 -0.337170
3.290299 1.065631 -0.299676
3.241212 1.056844 -0.326647
3.254282 1.052686 -0.357392
3.295823 1.044844 -0.377425
3.299370 1.041249 -0.337527
3.246395 1.078195 -0.326118
3.259466 1.074038 -0.356863
3.301007 1.066196 -0.376896
3.304554 1.062600 -0.336998
3.276932 1.054558 -0.303246
3.291579 1.051427 -0.340740
3.292810 1.018048 -0.345445
3.284327 1.018342 -0.314735
3.297741 1.055506 -0.296237
3.312388 1.052375 -0.333731
3.313618 1.018996 -0.338436
3.305136 1.019290 -0.307726
3.291047 1.051112 -0.336614
3.287500 1.054708 -0.376513
3.291122 1.019021 -0.373981
3.292278 1.017733 -0.341320
3.312929 1.052691 -0.337926
3.309382 1.056286 -0.377825
3.313004 1.020600 -0.375293
3.314160 1.019311 -0.342632
3.284312 1.018484 -0.314706
3.292795 1.018190 -0.345416
3.294300 0.983470 -0.341677
3.282319 0.984535 -0.311103
3.305155 1.019079 -0.307760
3.313638 1.018785 -0.338470
3.315143 0.984065 -0.334730
3.303162 0.985130 -0.304156
3.292250 1.017887 -0.341766
3.291095 1.019176 -0.374427
3.293559 0.983466 -0.371894
3.293756 0.983167 -0.338027
3.314192 1.019087 -0.342183
3.313036 1.020375 -0.374844
3.315501 0.984666 -0.372311
3.315697 0.984367 -0.338444
3.172402 1.085011 -0.129958
3.193295 1.078185 -0.164918
3.192337 1.048428 -0.157957
3.172899 1.054710 -0.126659
3.191268 1.086768 -0.118822
3.212161 1.079943 -0.153782
3.211203 1.050186 -0.146821
3.191765 1.056468 -0.115523
3.193306 1.077933 -0.164892
3.214326 1.070940 -0.200249
3.211832 1.042008 -0.189318
3.192348 1.048176 -0.157930
3.212190 1.080181 -0.153875
3.233210 1.073188 -0.189232
3.230716 1.044256 -0.178301
3.211232 1.050424 -0.146914
3.214309 1.070815 -0.200192
3.235089 1.064327 -0.235134
3.230780 1.036353 -0.221109
3.211815 1.041883 -0.189260
3.233268 1.073301 -0.189357
3.254048 1.066813 -0.224299
3.249740 1.038839 -0.210274
3.230774 1.044369 -0.178425
3.235038 1.064758 -0.235127
3.256391 1.059497 -0.270086
3.248304 1.030052 -0.253489
3.230730 1.036784 -0.221102
3.254138 1.066370 -0.224374
3.275491 1.061108 -0.259333
3.267404 1.031663 -0.242736
3.249830 1.038396 -0.210349
3.256545 1.059739 -0.270381
3.277896 1.054481 -0.305330
3.267619 1.023679 -0.285307
3.248458 1.030294 -0.253784
3.275376 1.060854 -0.259104
3.296727 1.055596 -0.294053
3.286450 1.024794 -0.274030
3.267289 1.031409 -0.242507
3.287464 1.045733 -0.655409
3.288108 1.024739 -0.662822
3.288372 1.007294 -0.632297
3.287003 1.047014 -0.623616
3.309431 1.046398 -0.655167
3.310075 1.025403 -0.662580
3.310339 1.007958 -0.632055
3.308970 1.047679 -0.623374
3.287004 1.046970 -0.623544
3.288373 1.007250 -0.632225
3.288225 1.005540 -0.598932
3.286676 1.048586 -0.592009
3.308969 1.047714 -0.623382
3.310338 1.007994 -0.632063
3.310190 1.006283 -0.598769
3.308641 1.049330 -0.591847
3.286678 1.048534 -0.591935
3.288226 1.005488 -0.598858
3.288107 1.008936 -0.563865
3.286362 1.050116 -0.561038
3.308639 1.049384 -0.591855
3.310188 1.006338 -0.598778
3.310069 1.009786 -0.563785
3.308323 1.050966 -0.560958
3.286370 1.049950 -0.560888
3.288115 1.008770 -0.563715
3.288196 1.020143 -0.531588
3.286040 1.051467 -0.529337
3.308315 1.051141 -0.561043
3.310060 1.009961 -0.563871
3.310141 1.021334 -0.531743
3.307985 1.052659 -0.529492
3.286052 1.051276 -0.529413
3.288208 1.019951 -0.531663
3.288152 1.020750 -0.494026
3.285700 1.053178 -0.494311
3.307973 1.052858 -0.529348
3.310129 1.021534 -0.531599
3.310073 1.022333 -0.493962
3.307621 1.054761 -0.494247
3.288104 1.024883 -0.662743
3.288539 1.003871 -0.670129
3.288746 0.976049 -0.641207
3.288369 1.007438 -0.632218
3.310080 1.025202 -0.662675
3.310514 1.004190 -0.670060
3.310722 0.976368 -0.641138
3.310344 1.007757 -0.632150
3.288371 1.007337 -0.632116
3.288748 0.975948 -0.641105
3.289444 0.963134 -0.605855
3.288222 1.005627 -0.598823
3.310343 1.007828 -0.632188
3.310721 0.976440 -0.641176
3.311417 0.963625 -0.605926
3.310194 1.006118 -0.598894
3.288225 1.005519 -0.598789
3.289447 0.963026 -0.605821
3.289603 0.965483 -0.566699
3.288106 1.008967 -0.563797
3.310192 1.006221 -0.598856
3.311414 0.963728 -0.605888
3.311570 0.966185 -0.566766
3.310073 1.009670 -0.563864
3.288122 1.008777 -0.563376
3.289619 0.965293 -0.566278
3.290298 0.988344 -0.533372
3.288203 1.020150 -0.531248
3.310057 1.009880 -0.564215
3.311554 0.966395 -0.567117
3.312232 0.989446 -0.534212
3.310137 1.021253 -0.532088
3.288208 1.019953 -0.531604
3.290302 0.988147 -0.533728
3.290440 0.989039 -0.493736
3.288152 1.020752 -0.493967
3.310133 1.021468 -0.531660
3.312228 0.989661 -0.533784
3.312366 0.990553 -0.493792
3.310077 1.022267 -0.494023
3.243955 1.050034 -0.654054
3.295437 1.035519 -0.654883
3.294976 1.036800 -0.623090
3.243586 1.051390 -0.622429
3.249924 1.071171 -0.654854
3.301405 1.056656 -0.655684
3.300944 1.057937 -0.623891
3.249554 1.072527 -0.623230
3.243615 1.051385 -0.622355
3.295005 1.036795 -0.623016
3.294678 1.038411 -0.591481
3.243212 1.052616 -0.590721
3.249524 1.072535 -0.623240
3.300914 1.057945 -0.623901
3.300587 1.059561 -0.592366
3.249121 1.073766 -0.591606
3.243295 1.052594 -0.590698
3.294761 1.038389 -0.591458
3.294445 1.039971 -0.560561
3.242871 1.053773 -0.559066
3.249037 1.073791 -0.591566
3.300503 1.059586 -0.592326
3.300187 1.061167 -0.561429
3.248614 1.074970 -0.559934
3.242950 1.053752 -0.559050
3.294524 1.039950 -0.560544
3.294194 1.041468 -0.528993
3.242528 1.054927 -0.527415
3.248534 1.074993 -0.559888
3.300107 1.061191 -0.561383
3.299777 1.062708 -0.529832
3.248112 1.076168 -0.528254
3.242622 1.054906 -0.527342
3.294288 1.041447 -0.528920
3.293936 1.043349 -0.493819
3.242195 1.056084 -0.495709
3.248017 1.076192 -0.528261
3.299683 1.062733 -0.529840
3.299331 1.064635 -0.494738
3.247590 1.077370 -0.496629
3.080481 1.110417 -0.653006
3.120978 1.095067 -0.652263
3.122634 1.094056 -0.619179
3.082822 1.108651 -0.619327
3.088154 1.131008 -0.652608
3.128651 1.115659 -0.651866
3.130307 1.114647 -0.618782
3.090495 1.129242 -0.618930
3.120946 1.095078 -0.652058
3.161297 1.079320 -0.651312
3.162359 1.079336 -0.618832
3.122602 1.094066 -0.618974
3.128764 1.115618 -0.652070
3.169115 1.099860 -0.651324
3.170177 1.099877 -0.618844
3.130420 1.114607 -0.618986
3.161547 1.079230 -0.651104
3.202217 1.064377 -0.652619
3.202557 1.065197 -0.620539
3.162609 1.079246 -0.618624
3.168946 1.099920 -0.651533
3.209616 1.085067 -0.653048
3.209956 1.085888 -0.620968
3.170008 1.099937 -0.619053
3.202430 1.064306 -0.652481
3.243366 1.050215 -0.654099
3.242997 1.051571 -0.622474
3.202770 1.065127 -0.620401
3.209484 1.085109 -0.653189
3.250420 1.071018 -0.654806
3.250051 1.072374 -0.623182
3.209824 1.085930 -0.621109
3.082936 1.108608 -0.619271
3.122748 1.094013 -0.619123
3.124441 1.093087 -0.586029
3.085315 1.106932 -0.585585
3.090385 1.129282 -0.618919
3.130198 1.114687 -0.618772
3.131891 1.113761 -0.585677
3.092765 1.127606 -0.585234
3.122772 1.094003 -0.618939
3.162530 1.079273 -0.618797
3.163600 1.079251 -0.586286
3.124465 1.093077 -0.585845
3.130252 1.114669 -0.618956
3.170010 1.099939 -0.618814
3.171080 1.099917 -0.586303
3.131945 1.113743 -0.585861
3.162725 1.079205 -0.618622
3.202673 1.065157 -0.620536
3.203003 1.065841 -0.588446
3.163795 1.079184 -0.586111
3.169893 1.099978 -0.618991
3.209842 1.085929 -0.620905
3.210171 1.086614 -0.588814
3.170964 1.099957 -0.586480
3.202841 1.065103 -0.620414
3.243067 1.051547 -0.622487
3.242664 1.052778 -0.590853
3.203170 1.065787 -0.588323
3.209754 1.085956 -0.621032
3.249981 1.072400 -0.623106
3.249577 1.073631 -0.591472
3.210084 1.086641 -0.588942
3.085449 1.106884 -0.585555
3.124575 1.093039 -0.585998
3.126307 1.092182 -0.552887
3.087818 1.105172 -0.551871
3.092635 1.127651 -0.585198
3.131761 1.113806 -0.585641
3.133494 1.112949 -0.552529
3.095004 1.125939 -0.551513
3.124615 1.093024 -0.585810
3.163749 1.079198 -0.586251
3.164827 1.079148 -0.553718
3.126348 1.092167 -0.552699
3.131799 1.113795 -0.585830
3.170933 1.099969 -0.586272
3.172010 1.099918 -0.553738
3.133531 1.112937 -0.552719
3.163905 1.079147 -0.586090
3.203113 1.065804 -0.588425
3.203471 1.066449 -0.556319
3.164982 1.079096 -0.553556
3.170855 1.099994 -0.586436
3.210063 1.086651 -0.588771
3.210421 1.087297 -0.556665
3.171933 1.099943 -0.553902
3.203242 1.065764 -0.588305
3.242736 1.052755 -0.590835
3.242312 1.053934 -0.559203
3.203600 1.066409 -0.556199
3.210012 1.086665 -0.588896
3.249505 1.073656 -0.591426
3.249082 1.074835 -0.559794
3.210370 1.087311 -0.556790
3.087959 1.105124 -0.551846
3.126449 1.092134 -0.552862
3.128178 1.091231 -0.519739
3.090349 1.103466 -0.518159
3.094867 1.125985 -0.551472
3.133357 1.112994 -0.552488
3.135086 1.112091 -0.519365
3.097257 1.124327 -0.517786
3.126501 1.092115 -0.552675
3.164980 1.079096 -0.553694
3.166086 1.079069 -0.521130
3.128230 1.091212 -0.519553
3.133381 1.112988 -0.552677
3.171860 1.099969 -0.553696
3.172967 1.099942 -0.521132
3.135110 1.112085 -0.519554
3.165088 1.079062 -0.553527
3.203577 1.066415 -0.556289
3.203955 1.067016 -0.524175
3.166195 1.079035 -0.520963
3.171828 1.099978 -0.553867
3.210316 1.087331 -0.556629
3.210695 1.087932 -0.524515
3.172934 1.099951 -0.521303
3.203677 1.066386 -0.556173
3.242389 1.053910 -0.559177
3.241967 1.055085 -0.527542
3.204055 1.066987 -0.524059
3.210293 1.087336 -0.556752
3.249005 1.074861 -0.559756
3.248583 1.076036 -0.528121
3.210672 1.087937 -0.524638
3.090496 1.103417 -0.518127
3.128325 1.091182 -0.519706
3.130079 1.090352 -0.486567
3.092887 1.101742 -0.484442
3.097114 1.124372 -0.517751
3.134942 1.112137 -0.519331
3.136696 1.111307 -0.486192
3.099505 1.122696 -0.484067
3.128386 1.091162 -0.519520
3.166243 1.079019 -0.521097
3.167339 1.078961 -0.488507
3.130140 1.090331 -0.486381
3.134956 1.112134 -0.519521
3.172813 1.099991 -0.521099
3.173910 1.099934 -0.488508
3.136710 1.111304 -0.486382
3.166296 1.079003 -0.520944
3.204057 1.066984 -0.524156
3.204469 1.067538 -0.492029
3.167393 1.078945 -0.488353
3.172835 1.099983 -0.521257
3.210595 1.087965 -0.524470
3.211007 1.088519 -0.492342
3.173931 1.099926 -0.488667
3.204145 1.066960 -0.524032
3.242056 1.055058 -0.527515
3.241629 1.056236 -0.495883
3.204557 1.067514 -0.491905
3.210582 1.087966 -0.524601
3.248493 1.076065 -0.528084
3.248066 1.077242 -0.496452
3.210994 1.088520 -0.492474
3.284952 1.017053 -0.761587
3.289408 0.993427 -0.759477
3.289539 1.000948 -0.729503
3.285179 1.026030 -0.726091
3.306546 1.020991 -0.762697
3.311002 0.997364 -0.760587
3.311133 1.004886 -0.730614
3.306773 1.029968 -0.727201
3.285145 1.026217 -0.726117
3.289505 1.001135 -0.729530
3.289279 1.008589 -0.699459
3.285668 1.035090 -0.690763
3.306807 1.029797 -0.727109
3.311167 1.004715 -0.730522
3.310941 1.012170 -0.700451
3.307329 1.038670 -0.691755
3.239016 1.023288 -0.756991
3.293019 1.008735 -0.759447
3.293246 1.017713 -0.723951
3.239857 1.032447 -0.722032
3.244417 1.043899 -0.762379
3.298420 1.029347 -0.764834
3.298648 1.038324 -0.729338
3.245258 1.053058 -0.727419
3.239765 1.032482 -0.721988
3.293155 1.017749 -0.723907
3.293677 1.026621 -0.688553
3.241198 1.041594 -0.686903
3.245352 1.053040 -0.727392
3.298741 1.038306 -0.729311
3.299263 1.047179 -0.693957
3.246785 1.062152 -0.692307
3.241153 1.041636 -0.686792
3.293632 1.026663 -0.688442
3.295580 1.035837 -0.652539
3.244098 1.050351 -0.651710
3.246833 1.062128 -0.692348
3.299312 1.047155 -0.693997
3.301260 1.056329 -0.658095
3.249778 1.070843 -0.657265
3.284894 1.017699 -0.761067
3.283975 1.018159 -0.783055
3.285800 0.991754 -0.783153
3.289350 0.994073 -0.758957
3.306601 1.020335 -0.763273
3.305682 1.020795 -0.785262
3.307507 0.994390 -0.785359
3.311057 0.996709 -0.761163
3.237908 1.024427 -0.786215
3.291851 1.008915 -0.784463
3.292770 1.008456 -0.762474
3.238767 1.023008 -0.760019
3.243806 1.045590 -0.785608
3.297749 1.030079 -0.783855
3.298668 1.029619 -0.761867
3.244665 1.044171 -0.759411
3.072006 1.078488 -0.786248
3.113306 1.065042 -0.785718
3.112761 1.068094 -0.755881
3.070913 1.082764 -0.755187
3.079003 1.099195 -0.788551
3.120303 1.085748 -0.788021
3.119758 1.088800 -0.758184
3.077910 1.103471 -0.757490
3.113305 1.065012 -0.786024
3.154476 1.051420 -0.785595
3.154641 1.053262 -0.756983
3.112760 1.068064 -0.756187
3.120387 1.085749 -0.787714
3.161558 1.072157 -0.787286
3.161723 1.073999 -0.758673
3.119842 1.088801 -0.757877
3.154566 1.051371 -0.785869
3.195803 1.037869 -0.785635
3.196688 1.038750 -0.758258
3.154732 1.053213 -0.757257
3.161550 1.072179 -0.787012
3.202787 1.058677 -0.786778
3.203672 1.059558 -0.759401
3.161715 1.074020 -0.758400
3.195734 1.037877 -0.786194
3.237207 1.024641 -0.785898
3.238066 1.023222 -0.759701
3.196619 1.038758 -0.758817
3.202939 1.058641 -0.786220
3.244411 1.045405 -0.785924
3.245271 1.043986 -0.759727
3.203824 1.059521 -0.758843
3.041696 1.106751 -0.752755
3.043441 1.100825 -0.784464
3.068510 1.080422 -0.786342
3.067417 1.084698 -0.755281
3.055618 1.123625 -0.754868
3.057363 1.117699 -0.786577
3.082432 1.097296 -0.788455
3.081339 1.101572 -0.757394
3.054232 1.128561 -0.652690
3.048239 1.121095 -0.684999
3.073499 1.102093 -0.683670
3.077960 1.112338 -0.649609
3.066876 1.145334 -0.659157
3.060882 1.137869 -0.691466
3.086143 1.118866 -0.690138
3.090604 1.129111 -0.656076
3.047971 1.121132 -0.685471
3.043949 1.113880 -0.718055
3.069752 1.092841 -0.718587
3.073232 1.102129 -0.684142
3.061141 1.137815 -0.691062
3.057119 1.130563 -0.723646
3.082922 1.109524 -0.724178
3.086401 1.118813 -0.689733
3.043706 1.113895 -0.718652
3.041832 1.106876 -0.751546
3.067554 1.084823 -0.754072
3.069509 1.092856 -0.719183
3.057356 1.130532 -0.723117
3.055482 1.123513 -0.756011
3.081203 1.101460 -0.758537
3.083159 1.109493 -0.723649
3.047992 1.195701 -0.755583
3.049774 1.196834 -0.721311
3.024735 1.200122 -0.723140
3.019335 1.198184 -0.755564
3.050379 1.217513 -0.756845
3.052161 1.218645 -0.722573
3.027122 1.221934 -0.724401
3.021722 1.219996 -0.756825
3.049337 1.196896 -0.721220
3.051652 1.198349 -0.687023
3.030765 1.201625 -0.690830
3.024298 1.200185 -0.723049
3.052606 1.218586 -0.722597
3.054922 1.220039 -0.688400
3.034034 1.223315 -0.692207
3.027567 1.221874 -0.724426
3.051177 1.198452 -0.686746
3.054170 1.200322 -0.652598
3.039224 1.203225 -0.658876
3.030289 1.201728 -0.690553
3.055407 1.219939 -0.688611
3.058400 1.221808 -0.654463
3.043455 1.224711 -0.660741
3.034520 1.223215 -0.692418
3.047351 1.195331 -0.782864
3.048407 1.195650 -0.755901
3.019750 1.198133 -0.755882
3.019611 1.196793 -0.784543
3.048904 1.217244 -0.783550
3.049960 1.217562 -0.756588
3.021302 1.220045 -0.756568
3.021163 1.218705 -0.785230
3.037661 1.115119 -0.754165
3.037935 1.160776 -0.755378
3.038246 1.157651 -0.784715
3.039407 1.109192 -0.785874
3.059627 1.115326 -0.753456
3.059901 1.160984 -0.754669
3.060211 1.157858 -0.784006
3.061372 1.109400 -0.785165
3.037930 1.160833 -0.754873
3.038210 1.206487 -0.756093
3.037154 1.206169 -0.783055
3.038240 1.157708 -0.784209
3.059905 1.161021 -0.755175
3.060185 1.206675 -0.756396
3.059129 1.206357 -0.783358
3.060215 1.157896 -0.784512
3.049708 1.136546 -0.654132
3.047494 1.173556 -0.652925
3.043127 1.168808 -0.686167
3.043714 1.129080 -0.686441
3.071374 1.137406 -0.657717
3.069160 1.174416 -0.656510
3.064793 1.169668 -0.689752
3.065381 1.129940 -0.690026
3.043619 1.129471 -0.687076
3.043031 1.169198 -0.686802
3.039907 1.164846 -0.720150
3.039597 1.122218 -0.719661
3.065468 1.129538 -0.689456
3.064880 1.169266 -0.689182
3.061755 1.164913 -0.722530
3.061445 1.122286 -0.722041
3.039546 1.122331 -0.720274
3.039856 1.164958 -0.720763
3.037947 1.160969 -0.754382
3.037673 1.115312 -0.753168
3.061490 1.122162 -0.721494
3.061800 1.164789 -0.721983
3.059890 1.160801 -0.755602
3.059616 1.115143 -0.754388
3.047413 1.173619 -0.653485
3.045383 1.210639 -0.652297
3.042390 1.208770 -0.686444
3.043046 1.168871 -0.686727
3.069238 1.174429 -0.655948
3.067207 1.211449 -0.654760
3.064214 1.209579 -0.688907
3.064871 1.169681 -0.689190
3.043002 1.169209 -0.687105
3.042346 1.209108 -0.686822
3.040030 1.207655 -0.721020
3.039878 1.164857 -0.720453
3.064908 1.169337 -0.688880
3.064252 1.209235 -0.688597
3.061936 1.207782 -0.722795
3.061784 1.164984 -0.722228
3.039856 1.164983 -0.720782
3.040008 1.207781 -0.721349
3.038226 1.206649 -0.755621
3.037946 1.160995 -0.754401
3.061801 1.164852 -0.721966
3.061954 1.207650 -0.722533
3.060172 1.206518 -0.756805
3.059892 1.160864 -0.755584
3.087016 1.203590 -0.465394
3.059857 1.208493 -0.471618
3.055733 1.207416 -0.509108
3.080457 1.202921 -0.502875
3.091183 1.225141 -0.466489
3.064024 1.230045 -0.472714
3.059900 1.228968 -0.510204
3.084625 1.224472 -0.503970
3.080383 1.202932 -0.502936
3.055659 1.207428 -0.509170
3.051589 1.206562 -0.546673
3.073824 1.202273 -0.540415
3.084688 1.224459 -0.503984
3.059964 1.228955 -0.510218
3.055894 1.228088 -0.547721
3.078129 1.223800 -0.541463
3.073734 1.202293 -0.540398
3.051499 1.206581 -0.546655
3.047360 1.205427 -0.584136
3.067179 1.201632 -0.577883
3.078208 1.223779 -0.541556
3.055974 1.228067 -0.547814
3.051834 1.226913 -0.585294
3.071653 1.223119 -0.579042
3.067140 1.201638 -0.577933
3.047321 1.205432 -0.584186
3.043207 1.204390 -0.621679
3.060573 1.200981 -0.615412
3.071681 1.223111 -0.579067
3.051862 1.226906 -0.585319
3.047749 1.225863 -0.622812
3.065115 1.222454 -0.616545
3.060515 1.200992 -0.615427
3.043149 1.204401 -0.621694
3.039021 1.203245 -0.659184
3.053967 1.200342 -0.652906
3.065162 1.222441 -0.616605
3.047797 1.225850 -0.622872
3.043669 1.224694 -0.660363
3.058615 1.221790 -0.654085
3.054057 1.128097 -0.655612
3.077785 1.111873 -0.652531
3.080125 1.110107 -0.618852
3.059105 1.126615 -0.619790
3.067060 1.145806 -0.656167
3.090788 1.129583 -0.653086
3.093129 1.127817 -0.619407
3.072108 1.144325 -0.620345
3.058528 1.127075 -0.619655
3.079549 1.110566 -0.618717
3.081928 1.108890 -0.585032
3.063607 1.125586 -0.583840
3.072692 1.143863 -0.620410
3.093713 1.127355 -0.619473
3.096092 1.125678 -0.585787
3.077771 1.142374 -0.584596
3.062999 1.126145 -0.583722
3.081321 1.109449 -0.584913
3.083690 1.107738 -0.551229
3.068052 1.124661 -0.547901
3.078386 1.141811 -0.584644
3.096707 1.125116 -0.585836
3.099076 1.123404 -0.552152
3.083438 1.140327 -0.548823
3.067421 1.125346 -0.547756
3.083059 1.108422 -0.551085
3.085449 1.106764 -0.517399
3.072496 1.123859 -0.511941
3.084076 1.139639 -0.548898
3.099715 1.122716 -0.552227
3.102105 1.121058 -0.518541
3.089152 1.138152 -0.513083
3.071862 1.124685 -0.511805
3.084815 1.107591 -0.517263
3.087206 1.105915 -0.483578
3.076907 1.123202 -0.475983
3.089793 1.137322 -0.513149
3.102746 1.120228 -0.518607
3.105137 1.118552 -0.484922
3.094839 1.135839 -0.477328
3.078274 1.214444 -0.464125
3.071716 1.213774 -0.501606
3.070845 1.172478 -0.506127
3.076708 1.172065 -0.469485
3.099949 1.214241 -0.467756
3.093391 1.213572 -0.505237
3.092520 1.172275 -0.509758
3.098383 1.171862 -0.473116
3.071711 1.213636 -0.501634
3.065152 1.212977 -0.539114
3.064921 1.172748 -0.542789
3.070840 1.172340 -0.506155
3.093384 1.213710 -0.505283
3.086825 1.213051 -0.542763
3.086593 1.172822 -0.546438
3.092513 1.172414 -0.509804
3.065144 1.212828 -0.539166
3.058589 1.212167 -0.576651
3.059096 1.173012 -0.579488
3.064913 1.172599 -0.542841
3.086819 1.213200 -0.542785
3.080264 1.212539 -0.580270
3.080770 1.173384 -0.583107
3.086588 1.172971 -0.546460
3.058588 1.211996 -0.576683
3.052021 1.211339 -0.614162
3.053250 1.173250 -0.616166
3.059095 1.172841 -0.579519
3.080252 1.212710 -0.580313
3.073686 1.212054 -0.617792
3.074915 1.173964 -0.619796
3.080759 1.173555 -0.583149
3.052020 1.211150 -0.614217
3.045472 1.210499 -0.651696
3.047503 1.173480 -0.652884
3.053249 1.173060 -0.616221
3.073675 1.212243 -0.617811
3.067127 1.211592 -0.655290
3.069158 1.174572 -0.656478
3.074903 1.174153 -0.619815
3.076679 1.172058 -0.469666
3.070816 1.172471 -0.506308
3.069957 1.131169 -0.510832
3.075003 1.129686 -0.475011
3.098409 1.171786 -0.472945
3.092547 1.172199 -0.509586
3.091687 1.130898 -0.514110
3.096733 1.129414 -0.478289
3.070811 1.172286 -0.506336
3.064892 1.172695 -0.542970
3.064877 1.132472 -0.546676
3.069952 1.130985 -0.510860
3.092541 1.172386 -0.509631
3.086621 1.172794 -0.546265
3.086606 1.132571 -0.549970
3.091681 1.131084 -0.514155
3.064885 1.172510 -0.543030
3.059067 1.172923 -0.579677
3.059818 1.133771 -0.582557
3.064870 1.132287 -0.546736
3.086617 1.172981 -0.546278
3.080799 1.173394 -0.582924
3.081550 1.134242 -0.585804
3.086602 1.132758 -0.549983
3.059068 1.172737 -0.579711
3.053223 1.173146 -0.616358
