2.221763 0.930480 0.955496
2.221217 0.909396 0.955969
2.240238 0.909597 0.955762
2.240898 0.930649 0.955367
2.221506 0.929871 0.925533
2.220959 0.908787 0.926006
2.239980 0.908988 0.925799
2.240640 0.930039 0.925405
2.221278 0.909374 0.955968
2.220737 0.888284 0.956441
2.239644 0.888528 0.956157
2.240298 0.909575 0.955762
2.220898 0.908767 0.926007
2.220357 0.887678 0.926479
2.239264 0.887922 0.926196
2.239918 0.908968 0.925800
2.220797 0.888261 0.956440
2.220258 0.867179 0.956912
2.239052 0.867450 0.956552
2.239705 0.888505 0.956157
2.220295 0.887659 0.926481
2.219756 0.866577 0.926952
2.238549 0.866848 0.926593
2.239202 0.887903 0.926197
2.220320 0.867155 0.956911
2.219773 0.846075 0.957382
2.238453 0.846370 0.956945
2.239114 0.867426 0.956552
2.219693 0.866559 0.926954
2.219145 0.845478 0.927425
2.237825 0.845774 0.926988
2.238486 0.866829 0.926594
2.219836 0.846052 0.957381
2.219288 0.824964 0.957852
2.237854 0.825299 0.957338
2.238516 0.846347 0.956944
2.219081 0.845459 0.927427
2.218533 0.824371 0.927897
2.237099 0.824706 0.927383
2.237761 0.845755 0.926990
2.219351 0.824941 0.957851
2.218807 0.803857 0.958322
2.237260 0.804225 0.957730
2.237918 0.825276 0.957337
2.218468 0.824352 0.927900
2.217923 0.803268 0.928371
2.236376 0.803636 0.927779
2.237034 0.824687 0.927385
2.378259 0.930105 0.952172
2.377440 0.909205 0.952640
2.396076 0.908531 0.952376
2.396926 0.929392 0.952034
2.377915 0.929537 0.922210
2.377096 0.908638 0.922677
2.395731 0.907963 0.922414
2.396582 0.928825 0.922071
2.377437 0.909280 0.952638
2.376623 0.888375 0.953107
2.395232 0.887745 0.952982
2.396072 0.908605 0.952375
2.377097 0.908522 0.922680
2.376284 0.887617 0.923148
2.394893 0.886987 0.923023
2.395733 0.907847 0.922416
2.376562 0.888309 0.953109
2.375748 0.867414 0.953577
2.394328 0.866811 0.953459
2.395171 0.887680 0.952984
2.376343 0.887641 0.923147
2.375530 0.866746 0.923616
2.394110 0.866143 0.923497
2.394953 0.887011 0.923022
2.375742 0.867393 0.953578
2.374917 0.846499 0.954046
2.393467 0.845922 0.953934
2.394321 0.866790 0.953460
2.375535 0.866725 0.923616
2.374711 0.845831 0.924084
2.393261 0.845254 0.923972
2.394115 0.866122 0.923498
2.374911 0.846479 0.954046
2.374085 0.825574 0.954515
2.392607 0.825044 0.954409
2.393461 0.845902 0.953935
2.374715 0.845810 0.924084
2.373890 0.824906 0.924553
2.392412 0.824375 0.924448
2.393265 0.845233 0.923973
2.374079 0.825554 0.954515
2.373259 0.804655 0.954985
2.391752 0.804161 0.954886
2.392600 0.825024 0.954410
2.373895 0.824884 0.924553
2.373075 0.803984 0.925023
2.391568 0.803490 0.924924
2.392416 0.824353 0.924448
2.516062 0.926865 0.949912
2.497092 0.927855 0.949976
2.496664 0.906617 0.950392
2.515735 0.905714 0.950013
2.515696 0.926506 0.919947
2.496725 0.927496 0.920010
2.496298 0.906258 0.920427
2.515368 0.905355 0.920048
2.515515 0.906239 0.949998
2.496444 0.907141 0.950378
2.496023 0.885901 0.950937
2.515221 0.885099 0.951491
2.515588 0.904788 0.920064
2.496517 0.905691 0.920443
2.496095 0.884450 0.921002
2.515294 0.883649 0.921557
2.514796 0.884748 0.951497
2.495597 0.885550 0.950943
2.495174 0.864315 0.951432
2.514482 0.863597 0.952104
2.515718 0.883957 0.921552
2.496520 0.884759 0.920997
2.496097 0.863524 0.921487
2.515404 0.862806 0.922159
2.514391 0.863579 0.952101
2.495083 0.864297 0.951430
2.494652 0.843062 0.951919
2.514070 0.842428 0.952712
2.515495 0.862782 0.922162
2.496187 0.863500 0.921491
2.495756 0.842266 0.921980
2.515174 0.841631 0.922773
2.514458 0.841947 0.952727
2.495040 0.842581 0.951934
2.494611 0.821340 0.952426
2.514107 0.820700 0.952053
2.514785 0.842069 0.922759
2.495367 0.842704 0.921966
2.494937 0.821462 0.922458
2.514433 0.820822 0.922085
2.514043 0.821587 0.952029
2.494547 0.822228 0.952402
2.494120 0.800990 0.952894
2.513758 0.800543 0.953922
2.514496 0.819892 0.922110
2.495000 0.820532 0.922483
2.494574 0.799294 0.922975
2.514212 0.798848 0.924004
2.652607 0.928258 0.945202
2.651956 0.907392 0.945793
2.670764 0.906760 0.945222
2.671264 0.927630 0.944550
2.651600 0.927380 0.915262
2.650949 0.906514 0.915853
2.669757 0.905882 0.915282
2.670257 0.926752 0.914610
2.651888 0.907373 0.945795
2.651238 0.886507 0.946387
2.670197 0.885871 0.945896
2.670696 0.906741 0.945225
2.651016 0.906491 0.915851
2.650366 0.885625 0.916443
2.669325 0.884989 0.915952
2.669824 0.905859 0.915280
2.651172 0.886490 0.946390
2.650518 0.865629 0.946984
2.669628 0.864980 0.946572
2.670131 0.885854 0.945898
2.650431 0.885600 0.916442
2.649777 0.864738 0.917037
2.668887 0.864090 0.916625
2.669390 0.884964 0.915951
2.650453 0.865609 0.946986
2.649792 0.844745 0.947580
2.669052 0.844087 0.947248
2.669563 0.864960 0.946575
2.649842 0.864717 0.917036
2.649180 0.843854 0.917629
2.668441 0.843196 0.917297
2.668951 0.864068 0.916624
2.649727 0.844724 0.947582
2.649068 0.823854 0.948173
2.668480 0.823201 0.947919
2.668988 0.844066 0.947249
2.649243 0.843833 0.917629
2.648584 0.822963 0.918220
2.667996 0.822310 0.917966
2.668504 0.843175 0.917297
2.649004 0.823835 0.948174
2.648350 0.802969 0.948764
2.667913 0.802312 0.948592
2.668416 0.823182 0.947920
2.648647 0.822940 0.918219
2.647993 0.802074 0.918809
2.667556 0.801417 0.918637
2.668059 0.822287 0.917966
