2.449173 0.758171 -0.368386
2.483420 0.757265 -0.368419
2.484132 0.759004 -0.328644
2.450040 0.760529 -0.328202
2.435608 0.719136 -0.368885
2.469673 0.717874 -0.369053
2.470204 0.719168 -0.328867
2.436141 0.720886 -0.328583
2.516312 0.747850 -0.368273
2.516739 0.749248 -0.328597
2.498751 0.710045 -0.369163
2.499009 0.711076 -0.328861
2.537147 0.725854 -0.368947
2.536172 0.726908 -0.329488
2.521831 0.702664 -0.369951
2.520992 0.703540 -0.330127
2.484834 0.760744 -0.288752
2.450914 0.762859 -0.287979
2.470684 0.720493 -0.288748
2.436679 0.722668 -0.288306
2.517179 0.750656 -0.288936
2.499196 0.712097 -0.288818
2.535191 0.727961 -0.290048
2.520144 0.704435 -0.290300
2.485547 0.762503 -0.248720
2.451779 0.765222 -0.247790
2.471131 0.721813 -0.248635
2.437212 0.724433 -0.248006
2.517617 0.752064 -0.249304
2.499316 0.713143 -0.248990
2.534217 0.729016 -0.250589
2.519305 0.705316 -0.250478
2.486252 0.764267 -0.208543
2.452652 0.767553 -0.207571
2.471554 0.723163 -0.208498
2.437752 0.726230 -0.207725
2.518069 0.753479 -0.209690
2.499408 0.714180 -0.209307
2.533237 0.730071 -0.211150
2.518175 0.701221 -0.210674
2.486971 0.766053 -0.168205
2.453518 0.769920 -0.167380
2.471972 0.724510 -0.168288
2.438282 0.728009 -0.167428
2.518519 0.754893 -0.170103
2.499472 0.715236 -0.169738
2.532261 0.731129 -0.171691
2.517336 0.702098 -0.170870
2.486820 0.764844 -0.128581
2.453609 0.768199 -0.127141
2.471616 0.723319 -0.128582
2.438229 0.726550 -0.127142
2.518000 0.753403 -0.130397
2.498688 0.713888 -0.129980
2.532401 0.729898 -0.132245
2.517013 0.700856 -0.131043
2.486558 0.763183 -0.088968
2.453616 0.766112 -0.086926
2.471198 0.721837 -0.088816
2.438114 0.724803 -0.086823
2.517421 0.751759 -0.090693
2.497904 0.712497 -0.090166
2.532578 0.728610 -0.092783
2.516988 0.704585 -0.091198
2.486292 0.761340 -0.012164
2.453632 0.763812 -0.011688
2.470813 0.720186 -0.011870
2.438016 0.722914 -0.011527
2.516857 0.749934 -0.014020
2.497182 0.710917 -0.013277
2.532755 0.727146 -0.016336
2.516679 0.703157 -0.014366
2.422045 0.680075 -0.369357
2.454328 0.680829 -0.369725
2.454675 0.681739 -0.329074
2.422248 0.681269 -0.328995
2.481898 0.682998 -0.370071
2.482037 0.683704 -0.329131
2.506569 0.680460 -0.370953
2.505857 0.681185 -0.330751
2.454919 0.682651 -0.288678
2.422444 0.682447 -0.288613
2.482001 0.684441 -0.288703
2.505154 0.681896 -0.290550
2.455079 0.683594 -0.248474
2.422648 0.683667 -0.248248
2.481849 0.685177 -0.248651
2.504442 0.682623 -0.250346
2.455194 0.684537 -0.208355
2.422843 0.684869 -0.207866
2.481606 0.685937 -0.208878
2.503741 0.683337 -0.210146
2.455277 0.685499 -0.168276
2.423047 0.686111 -0.167501
2.481327 0.686677 -0.169268
2.503011 0.684025 -0.169966
2.454673 0.684348 -0.128461
2.422846 0.684874 -0.127122
2.480253 0.685482 -0.129467
2.502225 0.682792 -0.129780
2.454051 0.683066 -0.088556
2.422624 0.683529 -0.086743
2.479236 0.684274 -0.089542
2.501424 0.681571 -0.089583
2.453507 0.681604 -0.013423
2.422399 0.681982 -0.011349
2.478310 0.682895 -0.012427
2.500651 0.680163 -0.012395
2.444483 0.772820 -0.657080
2.479356 0.766601 -0.654467
2.479163 0.762482 -0.615424
2.445059 0.766432 -0.616166
2.431388 0.730582 -0.654570
2.467057 0.724004 -0.652815
2.466838 0.721109 -0.611771
2.431915 0.725384 -0.613662
2.510179 0.749428 -0.657080
2.512083 0.748103 -0.615818
2.493848 0.710331 -0.654457
2.496017 0.709640 -0.610828
2.523006 0.721975 -0.656818
2.528094 0.722635 -0.615916
2.511165 0.700292 -0.654220
2.516006 0.700827 -0.610793
2.479419 0.759389 -0.573397
2.445637 0.761072 -0.575268
2.467032 0.719354 -0.565842
2.432512 0.721569 -0.570663
2.513851 0.747054 -0.574626
2.497237 0.709490 -0.564092
2.531943 0.723235 -0.574979
2.518581 0.701339 -0.562309
2.480075 0.758944 -0.531729
2.446346 0.760475 -0.533856
2.467425 0.719077 -0.529615
2.433148 0.721059 -0.530627
2.514247 0.747255 -0.533312
2.497426 0.709708 -0.531790
2.532981 0.723757 -0.533778
2.519292 0.701635 -0.533378
2.480934 0.758488 -0.490776
2.447051 0.759912 -0.492522
2.467936 0.718767 -0.493671
2.433723 0.720597 -0.493461
2.514816 0.747375 -0.492056
2.497648 0.709842 -0.496113
2.534026 0.724278 -0.492561
2.519906 0.701864 -0.497909
2.481967 0.758016 -0.450559
2.447760 0.759321 -0.451121
2.468574 0.718436 -0.451967
2.434349 0.720123 -0.451406
2.515573 0.747423 -0.450827
2.497976 0.709893 -0.453235
2.535064 0.724801 -0.451362
2.520489 0.702096 -0.454247
2.482856 0.757598 -0.409877
2.448463 0.758759 -0.409779
2.469198 0.718117 -0.410213
2.434972 0.719624 -0.409748
2.516084 0.747626 -0.409604
2.498392 0.710019 -0.410482
2.536109 0.725328 -0.410145
2.521136 0.702348 -0.410947
2.418282 0.688363 -0.652097
2.452647 0.684638 -0.651107
2.452629 0.682838 -0.609006
2.418791 0.684563 -0.611403
2.477827 0.683249 -0.651709
2.480031 0.683047 -0.607805
2.499416 0.679618 -0.651645
2.503305 0.679912 -0.608148
2.452804 0.681966 -0.563421
2.419350 0.682128 -0.568125
2.480803 0.683114 -0.561757
2.504978 0.680230 -0.560402
2.452957 0.681776 -0.532041
2.419881 0.681673 -0.529735
2.480933 0.683219 -0.536499
2.505429 0.680321 -0.537760
2.453145 0.681565 -0.495431
2.420394 0.681320 -0.493304
2.480969 0.683168 -0.498362
2.505649 0.680335 -0.499601
2.453439 0.681296 -0.452935
2.420936 0.680905 -0.451167
2.481144 0.683100 -0.454705
2.505890 0.680319 -0.455097
2.453833 0.681064 -0.410779
2.421489 0.680511 -0.409775
2.481528 0.683061 -0.411449
2.506187 0.680368 -0.411517
2.442773 0.774848 -0.732568
2.475262 0.765301 -0.722765
2.477158 0.765974 -0.688309
2.443628 0.773809 -0.694801
2.433898 0.732451 -0.721828
2.466362 0.722627 -0.712464
2.466649 0.723329 -0.682508
2.432647 0.731525 -0.688213
2.501207 0.744098 -0.712336
2.505846 0.746704 -0.684972
2.488087 0.706824 -0.704055
2.490997 0.708646 -0.679387
2.513108 0.718265 -0.698372
2.518043 0.720128 -0.677588
2.503054 0.697970 -0.693891
2.507121 0.699135 -0.674072
2.425012 0.690079 -0.711113
2.455303 0.683708 -0.703122
2.453961 0.684156 -0.677106
2.421644 0.689218 -0.681589
2.475584 0.681104 -0.696332
2.476782 0.682232 -0.674087
2.493111 0.678673 -0.689436
2.496250 0.679137 -0.670526
2.442516 0.763613 -0.749928
2.471851 0.756329 -0.741091
2.437457 0.724468 -0.745549
2.463312 0.718593 -0.735893
2.496531 0.738640 -0.732289
2.485702 0.704819 -0.726431
2.510556 0.717829 -0.718911
2.500363 0.697124 -0.713364
2.432480 0.685147 -0.741052
2.454835 0.682973 -0.730784
2.475377 0.681072 -0.720431
2.490234 0.677524 -0.707884
2.405814 0.759187 -0.328179
2.405100 0.756894 -0.368544
2.396479 0.719937 -0.328630
2.396121 0.718268 -0.368742
2.406516 0.761452 -0.287826
2.396904 0.721645 -0.288338
2.407231 0.763749 -0.247466
2.397379 0.723319 -0.247903
2.407931 0.766013 -0.207109
2.397888 0.725035 -0.207386
2.408644 0.768314 -0.166773
2.398410 0.726714 -0.166830
2.408810 0.766257 -0.126665
2.398557 0.725061 -0.126500
2.408969 0.764072 -0.086513
2.398674 0.723288 -0.086146
2.409118 0.761669 -0.011346
2.398769 0.721388 -0.010905
2.361623 0.755899 -0.327997
2.361175 0.753698 -0.368429
2.356793 0.717549 -0.328346
2.356600 0.715981 -0.368432
2.362078 0.758048 -0.287547
2.357071 0.719157 -0.288039
2.362524 0.760249 -0.247117
2.357407 0.720727 -0.247561
2.362976 0.762401 -0.206666
2.357785 0.722338 -0.206986
2.363420 0.764548 -0.166276
2.358179 0.723872 -0.166377
2.363811 0.762316 -0.126052
2.358557 0.722173 -0.125963
2.364196 0.760135 -0.085809
2.358911 0.720437 -0.085551
2.364593 0.757723 -0.010542
2.359240 0.718566 -0.010271
2.317446 0.751188 -0.327677
2.317325 0.749127 -0.368136
2.317065 0.714041 -0.327593
2.316932 0.712570 -0.367999
2.317565 0.753225 -0.287197
2.317189 0.715551 -0.287222
2.317687 0.755291 -0.246737
2.317320 0.717024 -0.246820
2.317804 0.757328 -0.206259
2.317446 0.718538 -0.206446
2.317961 0.759148 -0.165798
2.317594 0.719870 -0.166058
2.318646 0.756996 -0.125330
2.318148 0.718246 -0.125688
2.319337 0.754882 -0.084879
2.318704 0.716580 -0.085297
2.320026 0.752547 -0.009412
2.319266 0.714776 -0.009926
2.387032 0.680708 -0.329086
2.387032 0.679600 -0.368951
2.387170 0.681788 -0.288851
2.387406 0.682906 -0.248353
2.387711 0.683997 -0.207664
2.388046 0.685128 -0.166917
2.388162 0.683822 -0.126329
2.388241 0.682540 -0.085812
2.388266 0.681052 -0.010452
2.351836 0.679209 -0.328712
2.351905 0.678190 -0.368440
2.351928 0.680190 -0.288538
2.352148 0.681210 -0.248034
2.352443 0.682195 -0.207309
2.352785 0.683199 -0.166510
2.353144 0.681946 -0.125863
2.353472 0.680740 -0.085318
2.353725 0.679322 -0.009972
2.316675 0.676933 -0.327540
2.316545 0.675979 -0.367824
2.316816 0.677848 -0.287217
2.316948 0.678805 -0.246930
2.317087 0.679722 -0.206610
2.317229 0.680619 -0.166334
2.317653 0.679444 -0.126019
2.318072 0.678313 -0.085730
2.318506 0.676957 -0.010416
2.311588 0.772066 -0.657464
2.355876 0.774429 -0.657400
2.354896 0.764414 -0.616630
2.310371 0.762213 -0.616985
2.311254 0.730164 -0.655000
2.351434 0.731906 -0.654904
2.350851 0.725129 -0.611173
2.310775 0.723578 -0.611522
2.400178 0.774852 -0.657265
2.399747 0.765903 -0.616366
2.391459 0.732145 -0.654763
2.391218 0.726013 -0.611668
2.354274 0.755938 -0.575848
2.309566 0.753725 -0.576379
2.350616 0.718878 -0.570793
2.310341 0.717491 -0.571585
2.399560 0.758356 -0.575455
2.391254 0.720363 -0.572156
2.355654 0.755469 -0.534359
2.311119 0.752793 -0.534731
2.351564 0.717603 -0.534819
2.311128 0.715824 -0.538046
2.400670 0.758057 -0.534088
2.392143 0.719415 -0.533655
2.357030 0.755054 -0.492883
2.312670 0.751888 -0.493089
2.352913 0.717175 -0.493050
2.312585 0.714993 -0.495516
2.401778 0.757773 -0.492687
2.393218 0.719109 -0.492307
2.358412 0.754584 -0.451395
2.314223 0.750959 -0.451432
2.354223 0.716789 -0.451359
2.314030 0.714196 -0.453024
2.402886 0.757472 -0.451316
2.394247 0.718836 -0.451009
2.359787 0.754168 -0.409919
2.315774 0.750054 -0.409795
2.355458 0.716364 -0.409809
2.315486 0.713364 -0.410491
2.403998 0.757194 -0.409920
2.395227 0.718534 -0.409813
2.310923 0.688305 -0.652519
2.346892 0.689406 -0.652408
2.346591 0.685285 -0.607543
2.311026 0.684356 -0.608132
2.382654 0.689470 -0.652268
2.382536 0.685683 -0.608352
2.346851 0.681440 -0.564853
2.311115 0.680678 -0.566533
2.382872 0.682144 -0.566824
2.347471 0.679623 -0.532832
2.311385 0.678653 -0.537934
2.383584 0.680721 -0.531714
2.348786 0.679280 -0.491306
2.312668 0.677997 -0.495425
2.384602 0.680450 -0.490702
2.350005 0.678900 -0.449994
2.313965 0.677314 -0.452878
2.385557 0.680153 -0.449853
2.351073 0.678560 -0.408994
2.315248 0.676664 -0.410373
2.386381 0.679889 -0.409238
2.348821 0.690546 -0.685323
2.312194 0.689601 -0.686655
2.351804 0.733780 -0.692955
2.311135 0.732491 -0.694488
2.385307 0.690449 -0.683659
2.392265 0.733515 -0.690873
2.350772 0.691718 -0.718230
2.313447 0.690930 -0.720748
2.352160 0.735609 -0.730962
2.311035 0.734774 -0.734016
2.387953 0.691444 -0.715003
2.393122 0.734848 -0.726926
2.354714 0.776969 -0.700574
2.310103 0.775346 -0.702370
2.399215 0.776573 -0.698113
2.353543 0.779537 -0.743717
2.308607 0.778662 -0.747218
2.398266 0.778280 -0.738822
2.315449 0.682843 -0.756145
2.311472 0.724041 -0.759420
2.354060 0.724278 -0.757750
2.355297 0.683015 -0.754075
2.308296 0.765562 -0.760088
2.353218 0.766090 -0.758181
2.396096 0.724075 -0.755299
2.394201 0.683836 -0.752211
2.397877 0.765509 -0.754857
2.273607 0.689266 -0.721196
2.271329 0.732386 -0.734967
2.276908 0.680929 -0.756225
2.272584 0.721972 -0.760204
2.233795 0.687585 -0.721567
2.231678 0.729937 -0.735912
2.237965 0.679177 -0.756539
2.233725 0.719736 -0.760866
2.194061 0.684835 -0.720986
2.191991 0.725763 -0.735249
2.199621 0.677097 -0.756720
2.195006 0.716821 -0.761323
2.154332 0.682072 -0.720386
2.152318 0.721631 -0.734624
2.160861 0.675150 -0.757055
2.156351 0.713703 -0.761708
2.268931 0.775365 -0.748686
2.268948 0.763072 -0.760953
2.229270 0.771940 -0.749976
2.229418 0.760679 -0.761960
2.189792 0.766595 -0.749392
2.190217 0.756523 -0.762158
2.150336 0.761202 -0.748778
2.150784 0.752591 -0.762469
2.272092 0.687735 -0.686674
2.270578 0.686212 -0.652198
2.271078 0.729596 -0.694664
2.270888 0.726867 -0.654374
2.232045 0.685844 -0.686709
2.230290 0.684120 -0.651855
2.231047 0.726653 -0.694760
2.230555 0.723515 -0.653737
2.192044 0.683113 -0.686099
2.190023 0.681422 -0.651207
2.191111 0.722550 -0.693933
2.190298 0.719356 -0.652680
2.152030 0.680405 -0.685497
2.149755 0.678732 -0.650567
2.151193 0.718428 -0.693097
2.150035 0.715209 -0.651616
2.270065 0.771426 -0.702603
2.271187 0.767508 -0.656577
2.230040 0.767413 -0.702807
2.230816 0.762874 -0.655618
2.190190 0.761910 -0.701763
2.190561 0.757308 -0.654143
2.150307 0.756444 -0.700751
2.150329 0.751700 -0.652654
2.192289 0.747445 -0.613222
2.151968 0.742578 -0.612071
2.191757 0.712815 -0.608676
2.151626 0.709144 -0.607326
2.232543 0.752364 -0.614404
2.232225 0.716471 -0.609415
2.271432 0.757282 -0.615676
2.271650 0.720016 -0.610157
2.193817 0.739365 -0.572214
2.153507 0.735141 -0.571243
2.193353 0.706922 -0.568913
2.153018 0.703774 -0.568224
2.234080 0.743541 -0.573146
2.233691 0.710091 -0.569485
2.271785 0.748628 -0.574776
2.272024 0.713788 -0.570463
2.194743 0.738357 -0.530571
2.154523 0.734032 -0.529631
2.194299 0.705328 -0.534523
2.153978 0.702206 -0.533817
2.234836 0.742711 -0.531541
2.234417 0.708428 -0.535441
2.272957 0.747743 -0.533127
2.272688 0.712124 -0.536848
2.195643 0.737419 -0.488986
2.155571 0.732934 -0.488027
2.195333 0.704441 -0.491685
2.155060 0.701237 -0.491067
2.235614 0.741876 -0.489922
2.235206 0.707668 -0.492831
2.274121 0.746880 -0.491514
2.273730 0.711334 -0.494427
2.196554 0.736416 -0.447340
2.156593 0.731819 -0.446406
2.196312 0.703603 -0.448970
2.156157 0.700281 -0.448352
2.236397 0.741043 -0.448317
2.236002 0.706915 -0.450230
2.275304 0.745996 -0.449871
2.274825 0.710555 -0.451934
2.197449 0.735476 -0.405756
2.157635 0.730722 -0.404812
2.197213 0.702719 -0.406341
2.157242 0.699308 -0.405594
2.237200 0.740209 -0.406701
2.236814 0.706154 -0.407616
2.276486 0.745132 -0.408253
2.276001 0.709765 -0.409303
2.198348 0.734479 -0.364112
2.158661 0.729606 -0.363183
2.198004 0.701886 -0.363936
2.158336 0.698355 -0.362887
2.238016 0.739375 -0.365094
2.237635 0.705401 -0.365000
2.277682 0.744250 -0.366614
2.277294 0.708983 -0.366493
2.191159 0.677548 -0.606424
2.151235 0.675159 -0.604985
2.231806 0.679929 -0.606608
2.271769 0.682138 -0.606729
2.192718 0.674003 -0.564510
2.152588 0.671916 -0.563554
2.233183 0.676067 -0.564838
2.272313 0.678371 -0.565374
2.193764 0.672039 -0.535151
2.153475 0.670130 -0.534534
2.233911 0.673968 -0.535915
2.272591 0.676308 -0.536996
2.194960 0.671363 -0.491936
2.154613 0.669372 -0.491553
2.234738 0.673345 -0.493172
2.273445 0.675674 -0.494719
2.196061 0.670645 -0.448844
2.155740 0.668608 -0.448535
2.235574 0.672715 -0.450420
2.274393 0.675022 -0.452276
2.196988 0.669975 -0.406086
2.156876 0.667852 -0.405562
2.236410 0.672091 -0.407675
2.275524 0.674381 -0.409540
2.197656 0.669264 -0.363714
2.158006 0.667085 -0.362536
2.237270 0.671461 -0.364899
2.276908 0.673723 -0.366370
2.162710 0.669098 -0.009022
2.201555 0.671462 -0.008336
2.200568 0.672358 -0.083451
2.161855 0.669870 -0.083911
2.163258 0.701051 -0.007359
2.201745 0.705163 -0.007351
2.200529 0.706353 -0.082586
2.162263 0.702106 -0.082436
2.239641 0.673827 -0.009512
2.238606 0.674820 -0.084644
2.239882 0.709177 -0.008294
2.238526 0.710541 -0.083595
2.278725 0.675409 -0.010857
2.278034 0.676572 -0.085969
2.279400 0.711975 -0.009548
2.278453 0.713567 -0.084843
2.199500 0.673015 -0.123751
2.161018 0.670412 -0.123748
2.199283 0.707403 -0.122971
2.161273 0.703003 -0.122563
2.237594 0.675618 -0.124750
2.237173 0.711722 -0.123895
2.277436 0.677539 -0.125854
2.277560 0.714977 -0.125027
2.198392 0.673726 -0.164204
2.160174 0.670990 -0.163640
2.198012 0.708405 -0.163374
2.160286 0.703867 -0.162638
2.236573 0.676422 -0.164863
2.235825 0.712897 -0.164182
2.276887 0.678513 -0.165620
2.276685 0.716381 -0.165150
2.198004 0.672953 -0.204353
2.159701 0.670340 -0.203173
2.197773 0.707428 -0.203549
2.159800 0.703105 -0.202545
2.236650 0.675542 -0.204699
2.236022 0.711661 -0.204181
2.277033 0.677628 -0.205227
2.276823 0.715091 -0.205089
2.197741 0.672061 -0.244674
2.159277 0.669537 -0.243045
2.197741 0.706019 -0.243858
2.159434 0.701901 -0.242601
2.236806 0.674523 -0.244735
2.236432 0.710090 -0.244365
2.277182 0.676648 -0.245049
2.277025 0.713555 -0.245206
2.197560 0.671116 -0.284730
2.158854 0.668710 -0.282854
2.197753 0.704659 -0.284094
2.159068 0.700727 -0.282717
2.236969 0.673499 -0.284769
2.236831 0.708529 -0.284569
2.277235 0.675663 -0.285104
2.277188 0.712029 -0.285439
2.197518 0.670218 -0.324477
2.158431 0.667906 -0.322725
2.197830 0.703250 -0.324112
2.158700 0.699529 -0.322772
2.237116 0.672483 -0.324833
2.237238 0.706960 -0.324773
2.277163 0.674694 -0.325503
2.277279 0.710499 -0.325848
2.163821 0.732954 -0.005607
2.201927 0.738837 -0.006298
2.200490 0.740416 -0.081725
2.162681 0.734351 -0.080950
2.240181 0.744567 -0.007033
2.238499 0.746306 -0.082509
2.280097 0.748554 -0.008232
2.278902 0.750583 -0.083704
2.199060 0.741747 -0.122108
2.161550 0.735529 -0.121247
2.236819 0.747855 -0.122982
2.277716 0.752416 -0.124172
2.197630 0.743135 -0.162536
2.160418 0.736733 -0.161592
2.235135 0.749403 -0.163459
2.276522 0.754261 -0.164647
2.197502 0.741924 -0.202738
2.159892 0.735881 -0.201889
2.235410 0.747862 -0.203665
2.276625 0.752595 -0.204942
2.197715 0.740086 -0.243108
2.159586 0.734321 -0.242238
2.236054 0.745739 -0.244022
2.276882 0.750514 -0.245366
2.197927 0.738196 -0.283425
2.159277 0.732741 -0.282535
2.236703 0.743617 -0.284379
2.277144 0.748420 -0.285778
2.198132 0.736363 -0.323797
2.158973 0.731183 -0.322882
2.237355 0.741496 -0.324735
2.277404 0.746342 -0.326204
1.984164 0.711057 -0.363433
2.027761 0.715791 -0.363485
2.028704 0.716574 -0.322741
1.984959 0.711831 -0.322878
1.984241 0.685425 -0.361612
2.027803 0.688525 -0.361925
2.028733 0.688706 -0.321699
1.985235 0.684946 -0.321362
2.071375 0.720486 -0.363504
2.072376 0.721348 -0.322633
2.071347 0.691684 -0.362288
2.072191 0.692405 -0.322001
2.115042 0.725025 -0.363324
2.115669 0.726287 -0.322778
2.114836 0.695040 -0.362601
2.115465 0.695948 -0.322373
2.029705 0.716910 -0.282016
1.986006 0.711443 -0.282145
2.029597 0.689328 -0.281519
1.985980 0.685674 -0.281419
2.073300 0.722323 -0.281890
2.073107 0.693027 -0.281658
2.116306 0.727516 -0.282199
2.116081 0.696896 -0.282197
2.030642 0.717703 -0.241278
1.986805 0.712207 -0.241564
2.030523 0.689523 -0.241375
1.986971 0.685209 -0.241338
2.074295 0.723208 -0.241043
2.073945 0.693769 -0.241419
2.116934 0.728786 -0.241656
2.116703 0.697820 -0.242000
2.031637 0.718052 -0.200545
1.987848 0.711831 -0.200860
2.031381 0.690163 -0.201173
1.987723 0.685939 -0.201353
2.075218 0.724198 -0.200296
2.074854 0.694412 -0.201058
2.117565 0.730027 -0.201085
2.117319 0.698780 -0.201804
2.032425 0.718379 -0.159844
1.988522 0.712227 -0.160224
2.032099 0.690191 -0.161012
1.988469 0.685417 -0.161137
2.076067 0.724532 -0.159553
2.075527 0.694900 -0.160924
2.118243 0.730647 -0.160582
2.117924 0.699366 -0.161780
2.032961 0.717216 -0.119243
1.989177 0.710760 -0.119555
2.032457 0.689847 -0.120922
1.988724 0.685518 -0.121122
2.076526 0.723594 -0.119042
2.075973 0.694200 -0.120785
2.119052 0.729546 -0.120142
2.118621 0.698616 -0.121677
2.033430 0.716500 -0.078643
1.989595 0.710416 -0.078913
2.032886 0.689054 -0.080813
1.989215 0.684434 -0.081036
2.077060 0.722574 -0.078498
2.076355 0.693602 -0.080662
2.119869 0.728474 -0.079727
2.119321 0.697840 -0.081548
2.033970 0.715135 -0.003046
1.990254 0.708748 -0.003275
2.033253 0.688493 -0.005666
1.989489 0.684308 -0.005913
2.077550 0.721429 -0.002972
2.076826 0.692693 -0.005508
2.120695 0.727179 -0.004291
2.120037 0.696886 -0.006431
1.984577 0.658585 -0.359570
2.027900 0.660829 -0.360409
2.028699 0.661286 -0.320647
1.985265 0.659268 -0.320069
2.071246 0.662999 -0.361189
2.072082 0.663375 -0.321262
2.114642 0.665020 -0.361850
2.115249 0.665662 -0.322006
2.029549 0.661332 -0.281036
1.986209 0.658717 -0.280512
2.072840 0.663881 -0.281519
2.115860 0.666273 -0.282180
2.030339 0.661812 -0.241409
1.986901 0.659408 -0.241170
2.073667 0.664271 -0.241678
2.116465 0.666926 -0.242369
2.031189 0.661870 -0.201730
1.987847 0.658868 -0.201633
2.074420 0.664802 -0.201847
2.117070 0.667553 -0.202496
2.031708 0.662426 -0.162105
1.988199 0.659737 -0.162060
2.075059 0.665165 -0.162170
2.117615 0.668096 -0.162914
2.032019 0.662023 -0.122514
1.988529 0.659051 -0.122561
2.075358 0.664938 -0.122478
2.118198 0.667654 -0.123114
2.032264 0.662053 -0.082883
1.988625 0.659580 -0.083052
2.075733 0.664563 -0.082745
2.118787 0.667236 -0.083327
2.032594 0.661425 -0.008221
1.988972 0.658670 -0.008481
2.076054 0.664121 -0.007989
2.119388 0.666591 -0.008510
1.988196 0.710588 -0.652784
2.028365 0.722508 -0.652841
2.028559 0.718680 -0.611829
1.986952 0.709273 -0.611390
1.987151 0.684106 -0.651865
2.027466 0.693557 -0.651996
2.027598 0.691564 -0.610217
1.985448 0.684885 -0.610480
2.068426 0.734487 -0.653013
2.070248 0.728015 -0.612157
2.067916 0.702896 -0.651987
2.069356 0.698379 -0.609164
2.109276 0.743446 -0.652867
2.111056 0.735344 -0.612125
2.108839 0.709208 -0.651817
2.110251 0.703762 -0.607717
2.028708 0.715945 -0.570648
1.985595 0.709521 -0.570220
2.027343 0.689379 -0.573156
1.984358 0.684368 -0.568967
2.071786 0.722432 -0.571169
2.070577 0.694328 -0.571307
2.112554 0.728812 -0.571244
2.111849 0.698882 -0.568183
2.028539 0.715756 -0.529260
1.985426 0.709318 -0.528766
2.027332 0.689388 -0.531001
1.984221 0.685091 -0.527604
2.071682 0.722138 -0.529675
2.070791 0.693660 -0.531549
2.113040 0.728041 -0.529642
2.112528 0.697838 -0.531334
2.028327 0.716003 -0.487780
1.984974 0.710378 -0.487549
2.027375 0.688972 -0.488924
1.984362 0.684560 -0.485975
2.071656 0.721680 -0.488078
2.070897 0.693231 -0.489247
2.113502 0.727323 -0.488085
2.113205 0.697120 -0.488947
2.028157 0.715790 -0.446373
1.984796 0.710194 -0.446094
2.027425 0.688969 -0.446685
1.984231 0.685261 -0.444612
2.071540 0.721341 -0.446598
2.071076 0.692687 -0.446863
2.114011 0.726546 -0.446482
2.113820 0.696443 -0.446684
2.027933 0.716021 -0.404908
1.984350 0.711223 -0.404873
2.027594 0.688535 -0.404409
1.984366 0.684735 -0.402991
2.071499 0.720862 -0.404987
2.071176 0.692243 -0.404620
2.114508 0.725809 -0.404924
2.114385 0.695723 -0.404533
1.985713 0.658935 -0.651113
2.026629 0.664865 -0.650978
2.026609 0.663862 -0.608863
1.984283 0.659187 -0.609367
2.067395 0.670967 -0.650985
2.068399 0.668414 -0.606744
2.108425 0.674927 -0.650783
2.109445 0.671679 -0.604848
2.025933 0.663247 -0.571800
1.982819 0.660494 -0.567962
2.069273 0.666018 -0.566611
2.110964 0.668722 -0.562146
2.026073 0.662632 -0.532591
1.983284 0.659631 -0.526177
2.069629 0.665243 -0.532470
2.111868 0.667457 -0.530856
2.026313 0.662385 -0.489811
1.983468 0.659990 -0.484659
2.070065 0.664646 -0.489549
2.112769 0.666865 -0.488223
2.026684 0.661740 -0.446975
1.983931 0.659110 -0.442872
2.070439 0.664126 -0.446758
2.113591 0.666235 -0.445745
2.027167 0.661490 -0.403822
1.984120 0.659467 -0.401345
2.070880 0.663511 -0.403894
2.114231 0.665646 -0.403599
1.988256 0.719341 -0.748617
2.028106 0.732498 -0.747504
2.028234 0.727282 -0.700261
1.988385 0.714216 -0.700683
1.988806 0.690169 -0.731783
2.029086 0.700543 -0.731627
2.028290 0.697245 -0.691717
1.987825 0.687806 -0.691861
2.067895 0.745766 -0.746511
2.068108 0.740245 -0.699720
2.069430 0.710802 -0.731313
2.068704 0.706790 -0.691703
2.108962 0.753995 -0.747474
2.109157 0.748685 -0.700145
2.110717 0.716412 -0.732883
2.109753 0.712836 -0.692359
1.989039 0.662396 -0.714899
2.030092 0.668818 -0.715583
2.028348 0.666667 -0.683374
1.987516 0.660068 -0.682970
2.070997 0.675362 -0.716405
2.069179 0.673162 -0.683633
2.112483 0.678800 -0.718350
2.110466 0.676844 -0.684547
1.991807 0.718910 -0.760283
2.031517 0.727521 -0.760746
1.992829 0.690807 -0.748198
2.033274 0.696356 -0.751311
2.071227 0.736131 -0.761209
2.073670 0.701934 -0.754369
2.111125 0.744176 -0.761827
2.114271 0.708293 -0.755015
1.994118 0.661164 -0.736766
2.035026 0.664615 -0.742066
2.075970 0.668140 -0.747188
2.117621 0.672159 -0.748127
2.449274 0.754560 0.354429
2.450133 0.757339 0.314227
2.484224 0.755842 0.314655
2.483525 0.753720 0.354414
2.435772 0.715518 0.354499
2.436279 0.717664 0.314257
2.470350 0.715997 0.314490
2.469837 0.714293 0.354658
2.516843 0.746140 0.314495
2.516433 0.744344 0.354156
2.499164 0.707935 0.314392
2.498924 0.706518 0.354682
2.536307 0.723811 0.315165
2.537296 0.722384 0.354601
2.521159 0.700425 0.315569
2.522019 0.699152 0.355388
2.450988 0.760059 0.274066
2.484912 0.757986 0.274785
2.436803 0.719861 0.273964
2.470809 0.717712 0.274382
2.517272 0.747926 0.274849
2.499329 0.709358 0.274363
2.535306 0.725250 0.275727
2.520290 0.701698 0.275761
2.451846 0.762835 0.233867
2.485612 0.760132 0.234768
2.437312 0.722023 0.233716
2.471240 0.719437 0.234289
2.517694 0.749726 0.235232
2.499430 0.710787 0.234545
2.534315 0.726680 0.236292
2.519432 0.702970 0.235942
2.452701 0.765558 0.193704
2.486305 0.762299 0.194613
2.437837 0.724231 0.193426
2.471642 0.721179 0.194163
2.518133 0.751520 0.195634
2.499501 0.712217 0.194876
2.533317 0.728118 0.196852
2.518285 0.699255 0.196110
2.453557 0.768333 0.153509
2.487012 0.764475 0.154289
2.438346 0.726408 0.153174
2.472040 0.722927 0.153974
2.518567 0.753323 0.156062
2.499548 0.713655 0.155318
2.532326 0.729551 0.157420
2.517421 0.700522 0.156306
2.453636 0.767007 0.113281
2.486851 0.763657 0.114660
2.438280 0.725355 0.112851
2.471667 0.722125 0.114252
2.518036 0.752214 0.116344
2.498746 0.712695 0.115551
2.532452 0.728700 0.117950
2.517076 0.699663 0.116481
2.453635 0.765321 0.073021
2.486579 0.762382 0.075028
2.438147 0.724008 0.072540
2.471232 0.721035 0.074480
2.517444 0.750954 0.076625
2.497944 0.711691 0.075725
2.532613 0.727790 0.078492
2.517028 0.703778 0.076663
2.422261 0.676424 0.354617
2.422446 0.678035 0.314235
2.454868 0.678539 0.314325
2.454547 0.677230 0.354970
2.482229 0.680548 0.314399
2.482115 0.679426 0.355324
2.506051 0.678035 0.315986
2.506789 0.676928 0.356173
2.422611 0.679616 0.273900
2.455088 0.679863 0.273950
2.482169 0.681676 0.273976
2.505325 0.679148 0.275790
2.422795 0.681248 0.233522
2.455221 0.681199 0.233749
2.481994 0.682813 0.233939
2.504585 0.680259 0.235603
2.422960 0.682853 0.193180
2.455312 0.682547 0.193652
2.481727 0.683959 0.194171
2.503861 0.681372 0.195406
2.423142 0.684504 0.152809
2.455371 0.683903 0.153575
2.481421 0.685092 0.154577
2.503107 0.682444 0.155243
2.422915 0.683672 0.112440
2.454746 0.683150 0.113762
2.480323 0.684285 0.114762
2.502300 0.681606 0.115040
2.422670 0.682733 0.072030
2.454100 0.682262 0.073836
2.479283 0.683469 0.074833
2.501475 0.680773 0.074842
2.444654 0.766254 0.643229
2.445203 0.760282 0.602305
2.479359 0.756435 0.601471
2.479527 0.760135 0.640565
2.431646 0.723997 0.640338
2.432194 0.719260 0.599316
2.467080 0.715054 0.597399
2.467346 0.717543 0.638464
2.512264 0.742113 0.601703
2.510410 0.743018 0.642978
2.496336 0.703683 0.596323
2.494149 0.703900 0.639958
2.528387 0.716689 0.601535
2.523280 0.715596 0.642419
2.516284 0.694901 0.596181
2.511516 0.693916 0.639613
2.445802 0.755368 0.561281
2.479583 0.753758 0.559423
2.432753 0.715866 0.556350
2.467282 0.713796 0.551445
2.514041 0.741505 0.560493
2.497507 0.703996 0.549594
2.532189 0.717710 0.560603
2.518867 0.695926 0.547712
2.446492 0.755178 0.519935
2.480226 0.753759 0.517736
2.433381 0.715791 0.516239
2.467657 0.713872 0.515228
2.514425 0.742107 0.519189
2.497676 0.704559 0.517290
2.533203 0.718659 0.519405
2.519563 0.696500 0.518789
2.447191 0.755062 0.478527
2.481073 0.753701 0.476786
2.433932 0.715693 0.479136
2.468153 0.713944 0.479277
2.514974 0.742657 0.477929
2.497885 0.705038 0.481622
2.534233 0.719582 0.478200
2.520158 0.697101 0.483322
2.447883 0.754871 0.437180
2.482093 0.753651 0.436559
2.434548 0.715667 0.437019
2.468773 0.714021 0.437575
2.515723 0.743102 0.436705
2.498188 0.705532 0.438745
2.535248 0.720524 0.437003
2.520721 0.697753 0.439670
2.448582 0.754749 0.395779
2.482971 0.753628 0.395875
2.435146 0.715578 0.395410
2.469380 0.714135 0.395819
2.516215 0.743725 0.395482
2.498587 0.706071 0.395997
2.536279 0.721447 0.395800
2.521344 0.698444 0.396372
2.418655 0.681809 0.637367
2.419116 0.678393 0.596698
2.453006 0.676811 0.594240
2.453007 0.678141 0.636359
2.480351 0.677062 0.593031
2.478213 0.676828 0.636931
2.503700 0.674004 0.593340
2.499780 0.673228 0.636815
2.419686 0.676447 0.553332
2.453129 0.676385 0.548660
2.481127 0.677628 0.546987
2.505305 0.674789 0.545597
2.420185 0.676372 0.515010
2.453268 0.676533 0.517273
2.481244 0.677974 0.521739
2.505747 0.675131 0.522960
2.420688 0.676409 0.478518
2.453434 0.676682 0.480669
2.481257 0.678325 0.483605
2.505943 0.675511 0.484808
2.421198 0.676416 0.436436
2.453705 0.676859 0.438176
2.481409 0.678681 0.439952
2.506158 0.675957 0.440307
2.421736 0.676456 0.394996
2.454073 0.677042 0.396018
2.481768 0.679088 0.396702
2.506429 0.676423 0.396735
2.442969 0.767478 0.718754
2.443805 0.766834 0.681007
2.477358 0.759161 0.674395
2.475468 0.758107 0.708847
2.434184 0.725164 0.707592
2.432929 0.724614 0.673940
2.466940 0.716537 0.668156
2.466681 0.715539 0.698098
2.506083 0.739982 0.670843
2.501472 0.737090 0.698185
2.491331 0.701965 0.664869
2.488426 0.699860 0.689514
2.518348 0.713522 0.663189
2.513415 0.711429 0.683925
2.507461 0.692534 0.659434
2.503427 0.691161 0.679271
2.425412 0.682915 0.696413
2.422016 0.682319 0.666913
2.454353 0.677414 0.662344
2.455697 0.676671 0.688355
2.477165 0.675553 0.659296
2.475995 0.674211 0.681532
2.496655 0.672563 0.655710
2.493503 0.671875 0.674583
2.442738 0.756061 0.736015
2.472097 0.748944 0.727071
2.437788 0.716949 0.731207
2.463643 0.711237 0.721496
2.496814 0.731404 0.718082
2.486061 0.697626 0.711865
2.510881 0.710768 0.704490
2.500737 0.690102 0.698703
2.432888 0.677659 0.726311
2.455255 0.675658 0.715997
2.475795 0.673911 0.705631
2.490653 0.670535 0.693049
2.405202 0.753220 0.354593
2.405907 0.755937 0.314222
2.396287 0.714591 0.354366
2.396620 0.716663 0.314306
2.406592 0.758603 0.273922
2.397030 0.718792 0.274002
2.407296 0.761320 0.233559
2.397482 0.720871 0.233615
2.407981 0.763987 0.193250
2.397975 0.723006 0.193091
2.408684 0.766702 0.152915
2.398476 0.725093 0.152580
2.408838 0.765047 0.112811
2.398607 0.723852 0.112211
2.408989 0.763270 0.072617
2.398707 0.722487 0.071864
2.361282 0.749964 0.354465
2.361720 0.752588 0.314031
2.356768 0.712246 0.354056
2.356937 0.714228 0.314012
2.362158 0.755154 0.273632
2.357199 0.716258 0.273699
2.362593 0.757777 0.233198
2.357512 0.718244 0.233265
2.363030 0.760344 0.192799
2.357874 0.720278 0.192682
2.363461 0.762909 0.152404
2.358246 0.722230 0.152116
2.363841 0.761091 0.112187
2.358608 0.720949 0.111661
2.364217 0.759324 0.071895
2.358944 0.719629 0.071260
2.317438 0.745326 0.354156
2.317549 0.747825 0.313687
2.317106 0.708781 0.353595
2.317213 0.710672 0.313242
2.317649 0.750280 0.273261
2.317321 0.712615 0.272857
2.317760 0.752781 0.232795
2.317429 0.714508 0.232503
2.317861 0.755236 0.192365
2.317537 0.716451 0.192120
2.318006 0.757486 0.151902
2.317663 0.718204 0.151772
2.318678 0.755755 0.111434
2.318201 0.717006 0.111365
2.319359 0.754067 0.070943
2.318739 0.715762 0.070979
2.387249 0.675900 0.354217
2.387229 0.677426 0.314331
2.387338 0.678913 0.274144
2.387552 0.680451 0.233628
2.387829 0.681953 0.192983
2.388141 0.683504 0.152221
2.388231 0.682610 0.111650
2.388288 0.681742 0.071096
2.352125 0.674444 0.353690
2.352037 0.675883 0.313956
2.352099 0.677278 0.273815
2.352297 0.678723 0.233304
2.352563 0.680128 0.192614
2.352881 0.681555 0.151807
2.353214 0.680722 0.111171
2.353519 0.679935 0.070594
2.316769 0.672186 0.353073
2.316878 0.673572 0.312763
2.316989 0.674909 0.272490
2.317098 0.676293 0.232181
2.317209 0.677632 0.191905
2.317327 0.678953 0.151612
2.317724 0.678201 0.111314
2.318120 0.677492 0.070991
2.311752 0.765164 0.643714
2.310541 0.755751 0.603127
2.355050 0.758055 0.602766
2.356036 0.767641 0.643639
2.311515 0.723289 0.640783
2.311032 0.717173 0.597238
2.351118 0.718837 0.596892
2.351691 0.725132 0.640697
2.399914 0.759652 0.602512
2.400345 0.768178 0.643475
2.391468 0.719803 0.597360
2.391711 0.725468 0.640549
2.309742 0.747694 0.562423
2.354446 0.750018 0.561886
2.310595 0.711509 0.557250
2.350865 0.713000 0.556456
2.399735 0.752547 0.561490
2.391496 0.714557 0.557823
2.311278 0.747209 0.520781
2.355807 0.749987 0.520409
2.311373 0.710217 0.523676
2.351805 0.712114 0.520457
2.400818 0.752666 0.520148
2.392381 0.714029 0.519284
2.312822 0.746759 0.479105
2.357178 0.750014 0.478910
2.312808 0.709832 0.481166
2.353129 0.712124 0.478701
2.401924 0.752829 0.478713
2.393429 0.714141 0.477967
2.314358 0.746270 0.437469
2.358543 0.749979 0.437438
2.314239 0.709501 0.438635
2.354427 0.712183 0.436989
2.403009 0.752943 0.437371
2.394449 0.714311 0.436635
2.315903 0.745819 0.395790
2.359911 0.750002 0.395935
2.315673 0.709115 0.396130
2.355639 0.712191 0.395457
2.404118 0.753107 0.395939
2.395404 0.714423 0.395471
2.311296 0.681469 0.637865
2.311383 0.677986 0.593441
2.346925 0.678997 0.592838
2.347262 0.682664 0.637741
2.382887 0.679487 0.593657
2.383024 0.682822 0.637578
2.311453 0.674773 0.551790
2.347188 0.675625 0.550107
2.383209 0.676393 0.552066
2.311709 0.673032 0.523193
2.347784 0.674141 0.518081
2.383892 0.675324 0.516975
2.312970 0.672852 0.480650
2.349084 0.674248 0.476541
2.384896 0.675497 0.475931
2.314239 0.672611 0.438134
2.350273 0.674296 0.435244
2.385820 0.675614 0.435118
2.315501 0.672426 0.395586
2.351322 0.674396 0.394226
2.386627 0.675782 0.394467
2.312577 0.682386 0.671991
2.349200 0.683436 0.670667
2.311422 0.725195 0.680315
2.352081 0.726610 0.678764
2.385675 0.683446 0.668995
2.392551 0.726471 0.676653
2.313858 0.683361 0.706130
2.351171 0.684280 0.703592
2.311321 0.727049 0.719832
2.352449 0.728022 0.716780
2.388356 0.684137 0.700344
2.393400 0.727410 0.712721
2.310265 0.767959 0.688632
2.354882 0.769716 0.686840
2.399375 0.769457 0.684358
2.308798 0.770781 0.733547
2.353724 0.771816 0.730017
2.398463 0.770730 0.725080
2.315897 0.674879 0.741375
2.355725 0.675197 0.739328
2.354401 0.716406 0.743455
2.311805 0.716048 0.745176
2.353436 0.758223 0.744327
2.308523 0.757543 0.746223
2.394626 0.676117 0.737438
2.396433 0.716356 0.741001
2.398095 0.757782 0.740962
2.271634 0.724543 0.720809
2.274016 0.681579 0.706544
2.272936 0.713846 0.745898
2.277354 0.672881 0.741513
2.231984 0.721971 0.721734
2.234218 0.679780 0.706927
2.234063 0.711508 0.746586
2.238442 0.670996 0.741791
2.192317 0.717689 0.721039
2.194487 0.676928 0.706341
2.195377 0.708452 0.747029
2.200085 0.668815 0.741964
2.152655 0.713437 0.720366
2.154768 0.674072 0.705754
2.156704 0.705240 0.747445
2.161362 0.666718 0.742248
2.269117 0.767357 0.734971
2.269170 0.754946 0.747135
2.229470 0.763807 0.736262
2.229667 0.752410 0.748110
2.189997 0.758344 0.735651
2.190454 0.748162 0.748288
2.150556 0.752847 0.735023
2.151061 0.744076 0.748538
2.270959 0.679265 0.637519
2.272489 0.680420 0.672033
2.271160 0.719900 0.640161
2.271363 0.722187 0.680453
2.230674 0.677070 0.637182
2.232447 0.678423 0.672050
2.230838 0.716448 0.639494
2.231345 0.719133 0.680552
2.190417 0.674280 0.636519
2.192462 0.675577 0.671425
2.190592 0.712190 0.638417
2.191413 0.714929 0.679703
2.150155 0.671499 0.635872
2.152458 0.672743 0.670797
2.150343 0.707929 0.637319
2.151507 0.710710 0.678859
2.271357 0.760509 0.642780
2.270245 0.763930 0.688872
2.230992 0.755782 0.641811
2.230224 0.759801 0.689043
2.190750 0.750115 0.640296
2.190392 0.754204 0.687961
2.150525 0.744421 0.638781
2.150522 0.748626 0.686896
2.152175 0.735753 0.598096
2.192484 0.740726 0.599269
2.151922 0.702385 0.592962
2.192044 0.706148 0.594338
2.232736 0.745732 0.600486
2.232496 0.709888 0.595095
2.271602 0.750733 0.601787
2.271927 0.713533 0.595855
2.153710 0.728793 0.557179
2.194023 0.733095 0.558160
2.153311 0.697442 0.553813
2.193630 0.700696 0.554527
2.234267 0.737366 0.559133
2.233970 0.703958 0.555095
2.271973 0.742523 0.560781
2.272282 0.707739 0.556110
2.154725 0.728143 0.515568
2.194927 0.732564 0.516540
2.154246 0.696288 0.519378
2.194567 0.699487 0.520089
2.235020 0.736995 0.517512
2.234671 0.702669 0.521043
2.273123 0.742098 0.519140
2.272943 0.706434 0.522463
2.155747 0.727532 0.473937
2.195821 0.732084 0.474906
2.155317 0.695787 0.476636
2.195576 0.699079 0.477284
2.235776 0.736617 0.475896
2.235450 0.702382 0.478418
2.274282 0.741684 0.477505
2.273959 0.706113 0.480048
2.156766 0.726880 0.432328
2.196711 0.731552 0.433298
2.156384 0.695335 0.433890
2.196541 0.698722 0.434515
2.236553 0.736246 0.434274
2.236219 0.702095 0.435819
2.275448 0.741256 0.435865
2.275040 0.705790 0.437538
2.157785 0.726265 0.390696
2.197599 0.731075 0.391654
2.157458 0.694832 0.391152
2.197416 0.698312 0.391930
2.237339 0.735865 0.392658
2.237016 0.701805 0.393193
2.276620 0.740840 0.394229
2.276195 0.705467 0.394909
2.158806 0.725613 0.349088
2.198479 0.730541 0.350053
2.158523 0.694377 0.348403
2.198192 0.697956 0.349465
2.238145 0.735493 0.351037
2.237815 0.701517 0.350575
2.277804 0.740411 0.352590
2.277469 0.705144 0.352087
2.151618 0.668415 0.590254
2.191537 0.670886 0.591696
2.232179 0.673394 0.591894
2.272120 0.675690 0.592023
2.152948 0.665664 0.548774
2.193080 0.667831 0.549730
2.233529 0.669985 0.550082
2.272662 0.672370 0.550618
2.153829 0.664180 0.519749
2.194106 0.666186 0.520379
2.234254 0.668206 0.521133
2.272919 0.670627 0.522232
2.154931 0.663938 0.476742
2.195280 0.666005 0.477122
2.235046 0.668053 0.478390
2.273755 0.670443 0.479942
2.156040 0.663640 0.433743
2.196348 0.665761 0.434067
2.235863 0.667895 0.435631
2.274673 0.670260 0.437501
2.157140 0.663395 0.390733
2.197253 0.665577 0.391258
2.236668 0.667741 0.392883
2.275781 0.670076 0.394757
2.158251 0.663097 0.347737
2.197891 0.665332 0.348929
2.237505 0.667581 0.350104
2.277138 0.669891 0.351585
2.161904 0.669018 0.069120
2.200617 0.671523 0.068677
2.162302 0.701267 0.068051
2.200566 0.705525 0.068227
2.238654 0.673985 0.069899
2.238562 0.709715 0.069245
2.278082 0.675735 0.071235
2.278489 0.712741 0.070505
2.161094 0.669113 0.109009
2.199575 0.671737 0.109021
2.161332 0.701718 0.108139
2.199340 0.706132 0.108579
2.237667 0.674349 0.110022
2.237229 0.710459 0.109549
2.277509 0.676278 0.111127
2.277613 0.713722 0.110699
2.160275 0.669250 0.148856
2.198494 0.672003 0.149440
2.160367 0.702131 0.148268
2.198088 0.706688 0.149035
2.236672 0.674718 0.150131
2.235899 0.711197 0.149854
2.276984 0.676827 0.150901
2.276759 0.714699 0.150838
2.159834 0.668150 0.188428
2.198130 0.670788 0.189619
2.159899 0.700928 0.188119
2.197872 0.705270 0.189152
2.236775 0.673405 0.189964
2.236117 0.709526 0.189830
2.277158 0.675521 0.190495
2.276914 0.712981 0.190758
2.159432 0.666910 0.228241
2.197897 0.669451 0.229883
2.159559 0.699268 0.228203
2.197860 0.703414 0.229491
2.236959 0.671952 0.229978
2.236547 0.707522 0.229999
2.277331 0.674114 0.230304
2.277139 0.711019 0.230859
2.159043 0.665623 0.268083
2.197741 0.668062 0.269972
2.159211 0.697652 0.268261
2.197896 0.701612 0.269660
2.237148 0.670493 0.270005
2.236969 0.705521 0.270180
2.277413 0.672703 0.270345
2.277320 0.709060 0.271071
2.158640 0.664385 0.307899
2.197730 0.666726 0.309657
2.158872 0.695992 0.308341
2.197992 0.699757 0.309712
2.237322 0.669040 0.310049
2.237397 0.703518 0.310366
2.277365 0.671297 0.310731
2.277434 0.707100 0.311464
2.162708 0.733528 0.066878
2.200516 0.739597 0.067694
2.238523 0.745490 0.068540
2.278925 0.749767 0.069754
2.161593 0.734254 0.107232
2.199099 0.740482 0.108136
2.236855 0.746600 0.109033
2.277751 0.751169 0.110245
2.160473 0.735010 0.147545
2.197684 0.741427 0.148533
2.235185 0.747707 0.149521
2.276568 0.752580 0.150733
2.159968 0.733704 0.187875
2.197569 0.739769 0.188767
2.235474 0.745733 0.189712
2.276687 0.750486 0.191014
2.159674 0.731697 0.228161
2.197800 0.737491 0.229064
2.236134 0.743169 0.230042
2.276956 0.747971 0.231408
2.159387 0.729658 0.268481
2.198026 0.735151 0.269410
2.236799 0.740612 0.270376
2.277236 0.745447 0.271801
2.159094 0.727653 0.308771
2.198252 0.732876 0.309707
2.237467 0.738047 0.310707
2.277510 0.742934 0.312197
1.984330 0.706789 0.349203
1.985114 0.708045 0.308690
2.028846 0.712859 0.308569
2.027927 0.711585 0.349297
1.984458 0.681172 0.347104
1.985419 0.681190 0.306821
2.028919 0.685002 0.307191
2.028006 0.684344 0.347421
2.072515 0.717702 0.308472
2.071530 0.716344 0.349364
2.072366 0.688759 0.307529
2.071551 0.687570 0.347771
2.115801 0.722686 0.308646
2.115188 0.720973 0.349195
2.115636 0.692366 0.307916
2.115035 0.690984 0.348113
1.986135 0.708159 0.267924
2.029832 0.713676 0.267843
1.986146 0.682393 0.266918
2.029754 0.686104 0.267029
2.073419 0.719139 0.267765
2.073263 0.689855 0.267169
2.116416 0.724393 0.268103
2.116233 0.693766 0.267733
1.986920 0.709402 0.227382
2.030745 0.714953 0.227121
1.987108 0.682416 0.226808
2.030661 0.686772 0.226882
2.074396 0.720510 0.226912
2.074074 0.691063 0.226961
2.117030 0.726117 0.227554
2.116829 0.695156 0.227570
1.987940 0.709524 0.186650
2.031725 0.715781 0.186389
1.987840 0.683621 0.186857
2.031492 0.687888 0.186695
2.075300 0.721965 0.186189
2.074962 0.692176 0.186596
2.117641 0.727828 0.187022
2.117425 0.696569 0.187364
1.988596 0.710398 0.146042
2.032492 0.716587 0.145698
1.988559 0.683584 0.146619
2.032188 0.688388 0.146532
2.076131 0.722776 0.145443
2.075611 0.693127 0.146480
2.118305 0.728903 0.146505
2.118006 0.697615 0.147371
1.989229 0.709422 0.105339
2.033012 0.715901 0.105083
1.988793 0.684159 0.106623
2.032521 0.688514 0.106445
2.076573 0.722302 0.104929
2.076036 0.692891 0.106328
2.119096 0.728265 0.106076
2.118682 0.697317 0.107240
1.989628 0.709559 0.064713
2.033463 0.715662 0.064478
1.989259 0.683555 0.066513
2.032928 0.688192 0.066325
2.077090 0.721752 0.064372
2.076396 0.692756 0.066205
2.119898 0.727651 0.065628
2.119360 0.696998 0.067127
1.984824 0.654368 0.344715
1.985493 0.655522 0.305250
2.028916 0.657599 0.305820
2.028153 0.656667 0.345562
2.072303 0.659736 0.306422
2.071489 0.658902 0.346380
2.115466 0.662076 0.307181
2.114883 0.660985 0.347030
1.986402 0.655453 0.265667
2.029745 0.658114 0.266201
2.073029 0.660714 0.266718
2.116046 0.663152 0.267382
1.987072 0.656616 0.226357
2.030501 0.659064 0.226595
2.073832 0.661562 0.226861
2.116625 0.664254 0.227564
1.987985 0.656550 0.186799
2.031326 0.659589 0.186909
2.074554 0.662560 0.187057
2.117200 0.665341 0.187720
1.988310 0.657893 0.147254
2.031815 0.660612 0.147304
2.075165 0.663378 0.147373
2.117720 0.666330 0.148129
1.988610 0.657678 0.107738
2.032100 0.660673 0.107702
2.075435 0.663612 0.107692
2.118275 0.666343 0.108345
1.988678 0.658678 0.068249
2.032317 0.661168 0.068082
2.075784 0.663694 0.067948
2.118839 0.666375 0.068537
1.988528 0.702850 0.638530
1.987220 0.702020 0.597142
2.028858 0.711513 0.597659
2.028645 0.714894 0.638684
1.987526 0.676390 0.637317
1.985847 0.677621 0.595927
2.027920 0.684440 0.595726
2.027838 0.685934 0.637547
2.070483 0.720947 0.598145
2.068674 0.726997 0.638902
2.069705 0.691362 0.594654
2.068254 0.695384 0.637685
2.111286 0.728422 0.598079
2.109510 0.736034 0.638916
2.110555 0.696872 0.593333
2.109152 0.701831 0.637483
1.985883 0.702748 0.555974
2.028961 0.709287 0.556443
1.984684 0.677617 0.554420
2.027678 0.682676 0.558649
2.072032 0.715885 0.556957
2.070884 0.687758 0.556887
2.112784 0.722336 0.557137
2.112147 0.692467 0.553735
1.985669 0.703044 0.514514
2.028786 0.709569 0.515065
1.984546 0.678822 0.513073
2.027628 0.683191 0.516491
2.071902 0.716040 0.515572
2.071092 0.687560 0.517016
2.113246 0.722073 0.515531
2.112811 0.691828 0.516875
1.985215 0.704599 0.473330
2.028540 0.710325 0.473590
1.984638 0.678809 0.471425
2.027660 0.683270 0.474412
2.071865 0.716101 0.473886
2.071161 0.687622 0.474799
2.113699 0.721811 0.473963
2.113463 0.691620 0.474488
1.984999 0.704923 0.431852
2.028362 0.710594 0.432181
1.984500 0.680000 0.430094
2.027674 0.683777 0.432179
2.071727 0.716221 0.432476
2.071327 0.687581 0.432341
2.114186 0.721536 0.432364
2.114061 0.691414 0.432210
1.984547 0.706445 0.390674
2.028110 0.711328 0.390725
1.984594 0.679991 0.388442
2.027829 0.683844 0.389894
2.071674 0.716254 0.390806
2.071396 0.687628 0.390151
2.114675 0.721260 0.390786
2.114600 0.691196 0.390066
1.986194 0.651192 0.636263
1.984677 0.651980 0.594538
2.027052 0.656734 0.594052
2.027066 0.657261 0.636162
2.068779 0.661457 0.592045
2.067833 0.663450 0.636157
2.109849 0.664825 0.590077
2.108849 0.667534 0.636061
1.983235 0.653731 0.553132
2.026320 0.656559 0.556977
2.069667 0.659491 0.551742
2.111338 0.662358 0.547352
1.983640 0.653398 0.511336
2.026449 0.656415 0.517762
2.069981 0.659141 0.517705
2.112222 0.661470 0.516047
1.983820 0.654237 0.469833
2.026645 0.656674 0.474983
2.070405 0.659026 0.474687
2.113096 0.661359 0.473406
1.984232 0.653886 0.428020
2.026999 0.656543 0.432134
2.070737 0.659028 0.431968
2.113888 0.661233 0.430930
1.984409 0.654732 0.386521
2.027440 0.656810 0.388991
2.071160 0.658901 0.389039
2.114504 0.661120 0.388770
1.988601 0.710499 0.734445
1.988722 0.705936 0.686480
2.028535 0.719088 0.686205
2.028415 0.723824 0.733429
1.989230 0.681542 0.717304
1.988235 0.679609 0.677339
2.028672 0.689180 0.677259
2.029477 0.692010 0.717279
2.068374 0.732165 0.685857
2.068154 0.737224 0.732492
2.069056 0.698842 0.677263
2.069795 0.702386 0.717127
2.109378 0.740760 0.686257
2.109218 0.745523 0.733619
2.110096 0.704980 0.678054
2.111055 0.708131 0.718637
1.989533 0.653943 0.700086
1.987989 0.652001 0.668149
2.028804 0.658700 0.668625
2.030572 0.660479 0.700783
2.069618 0.665316 0.669006
2.071458 0.667130 0.701588
2.110894 0.669113 0.669852
2.112940 0.670658 0.703653
2.031853 0.718651 0.746725
1.992159 0.709971 0.746125
2.033684 0.687643 0.736789
1.993265 0.681994 0.733707
2.071546 0.727331 0.747324
2.074070 0.693335 0.739817
2.111386 0.735589 0.747897
2.114672 0.699741 0.740635
2.035531 0.656002 0.727347
1.994622 0.652488 0.721949
2.076463 0.659577 0.732566
2.118095 0.663742 0.733392
