3.302302 1.084044 0.787515
3.302454 1.083971 0.818891
3.274567 1.084678 0.819548
3.275044 1.084373 0.788871
3.303047 1.123997 0.787370
3.303199 1.123924 0.818746
3.275312 1.124631 0.819403
3.275789 1.124326 0.788726
3.275012 1.084377 0.789136
3.274535 1.084681 0.819814
3.246653 1.085440 0.820474
3.247767 1.084716 0.791897
3.275766 1.124324 0.788463
3.275289 1.124628 0.819140
3.247407 1.125387 0.819801
3.248521 1.124663 0.791223
3.247545 1.084730 0.792249
3.246431 1.085454 0.820826
3.218571 1.086571 0.821618
3.220308 1.085259 0.793433
3.248688 1.124650 0.790874
3.247574 1.125374 0.819451
3.219714 1.126491 0.820243
3.221451 1.125179 0.792059
3.220117 1.085275 0.793684
3.218380 1.086587 0.821868
3.190510 1.087732 0.822763
3.192840 1.086209 0.793796
3.221586 1.125164 0.791810
3.219849 1.126476 0.819994
3.191979 1.127621 0.820889
3.194309 1.126098 0.791922
3.192856 1.086220 0.794011
3.190526 1.087743 0.822978
3.162664 1.088990 0.823863
3.165631 1.087000 0.795183
3.194238 1.126089 0.791709
3.191908 1.127612 0.820676
3.164046 1.128860 0.821560
3.167013 1.126870 0.792881
3.302019 1.101085 0.767674
3.274761 1.101414 0.769031
3.277606 1.107646 0.767509
3.301980 1.107964 0.767152
3.303331 1.106962 0.807178
3.276073 1.107292 0.808534
3.278919 1.113524 0.807013
3.303293 1.113842 0.806655
3.274453 1.095980 0.770667
3.247208 1.096319 0.773427
3.252895 1.101786 0.769100
3.277298 1.102212 0.769145
3.276330 1.112725 0.806900
3.249085 1.113065 0.809661
3.254771 1.118532 0.805333
3.279175 1.118957 0.805379
3.247310 1.092475 0.775756
3.220073 1.093004 0.776941
3.229126 1.098152 0.772297
3.252997 1.097942 0.771429
3.248932 1.116909 0.807334
3.221695 1.117438 0.808518
3.230747 1.122586 0.803875
3.254618 1.122376 0.803007
3.219056 1.099317 0.773729
3.191779 1.100251 0.773841
3.206292 1.109734 0.771702
3.228109 1.104465 0.769085
3.222661 1.111128 0.811733
3.195384 1.112062 0.811845
3.209897 1.121545 0.809706
3.231714 1.116276 0.807089
3.192382 1.104239 0.772992
3.165157 1.105020 0.774164
3.183050 1.119700 0.772048
3.206895 1.113722 0.770852
3.194731 1.108080 0.812697
3.167506 1.108861 0.813869
3.185399 1.123541 0.811753
3.209244 1.117563 0.810558
3.302220 1.109260 0.766995
3.277847 1.108942 0.767353
3.280688 1.115168 0.766957
3.302176 1.116272 0.766236
3.303055 1.112558 0.806810
3.278681 1.112240 0.807168
3.281522 1.118467 0.806772
3.303011 1.119571 0.806050
3.277986 1.110583 0.767282
3.253583 1.110157 0.767237
3.259336 1.115866 0.767518
3.280827 1.116809 0.766887
3.278496 1.110598 0.807239
3.254092 1.110172 0.807193
3.259846 1.115881 0.807475
3.281337 1.116824 0.806843
3.253345 1.110565 0.767245
3.229473 1.110775 0.768113
3.237588 1.115202 0.767709
3.259098 1.116274 0.767527
3.254285 1.109763 0.807186
3.230413 1.109973 0.808054
3.238528 1.114401 0.807650
3.260038 1.115472 0.807468
3.227904 1.109933 0.768212
3.206087 1.115201 0.770829
3.217456 1.123069 0.768980
3.236018 1.114360 0.767808
3.231940 1.110822 0.807958
3.210124 1.116091 0.810574
3.221492 1.123958 0.808725
3.240055 1.115249 0.807553
3.206448 1.114168 0.770846
3.182603 1.120146 0.772041
3.200466 1.134713 0.769801
3.217816 1.122035 0.768997
3.209722 1.117141 0.810560
3.185877 1.123119 0.811756
3.203740 1.137686 0.809515
3.221091 1.125008 0.808711
3.164586 1.106643 0.774115
3.148147 1.141762 0.774650
3.161634 1.149940 0.773686
3.182478 1.121323 0.771999
3.168034 1.107273 0.813920
3.151595 1.142392 0.814456
3.165082 1.150569 0.813492
3.185927 1.121953 0.811805
3.182268 1.121836 0.772016
3.161424 1.150452 0.773703
3.174967 1.158739 0.773078
3.200131 1.136403 0.769776
3.186168 1.121463 0.811784
3.165324 1.150080 0.813471
3.178866 1.158366 0.812845
3.204031 1.136031 0.809544
3.149100 1.141327 0.774602
3.142834 1.164376 0.773808
3.148835 1.169088 0.773531
3.162588 1.149504 0.773638
3.150613 1.142881 0.814504
3.144346 1.165930 0.813709
3.150347 1.170642 0.813432
3.164100 1.151058 0.813539
3.162485 1.149104 0.773662
3.148733 1.168688 0.773555
3.154666 1.173269 0.772568
3.176028 1.157391 0.773037
3.164222 1.151471 0.813514
3.150469 1.171055 0.813407
3.156403 1.175636 0.812420
3.177765 1.159757 0.812889
