2.248592 0.916355 -0.963681
2.248914 0.938300 -0.964094
2.216252 0.938767 -0.964785
2.215930 0.916970 -0.964266
2.236366 0.887920 -0.954149
2.265928 0.887466 -0.953538
2.247617 0.893852 -0.932995
2.214955 0.894467 -0.933580
2.237416 0.933932 -0.967610
2.266977 0.933477 -0.966999
2.248667 0.939864 -0.946455
2.216005 0.940479 -0.947041
2.265961 0.887441 -0.953620
2.295522 0.886987 -0.953011
2.280314 0.893213 -0.932494
2.247651 0.893827 -0.933077
2.267006 0.933501 -0.966915
2.296567 0.933048 -0.966306
2.281359 0.939273 -0.945788
2.248696 0.939888 -0.946372
2.295366 0.865546 -0.953777
2.265829 0.866013 -0.954382
2.241294 0.857016 -0.934341
2.274378 0.856397 -0.933583
2.295046 0.821972 -0.973791
2.265509 0.822439 -0.974396
2.240974 0.813441 -0.954356
2.274058 0.812823 -0.953598
2.265800 0.866035 -0.954429
2.236262 0.866503 -0.955034
2.208180 0.857657 -0.935146
2.241264 0.857038 -0.934389
2.265475 0.822418 -0.974350
2.235938 0.822886 -0.974954
2.207855 0.814040 -0.955067
2.240940 0.813420 -0.954310
2.273688 0.833522 -0.919634
2.240603 0.834140 -0.920393
2.240234 0.812381 -0.921307
2.273324 0.811795 -0.920685
2.274726 0.835667 -0.967527
2.241641 0.836286 -0.968286
2.241273 0.814526 -0.969199
2.274362 0.813941 -0.968577
2.240572 0.834290 -0.920387
2.207488 0.834910 -0.921144
2.207116 0.813118 -0.921925
2.240204 0.812531 -0.921301
2.241606 0.836137 -0.968293
2.208521 0.836756 -0.969049
2.208149 0.814964 -0.969830
2.241237 0.814377 -0.969206
2.339916 0.831985 -0.918129
2.306832 0.832601 -0.918889
2.306471 0.810907 -0.920076
2.339560 0.810324 -0.919449
2.340969 0.834736 -0.965990
2.307884 0.835352 -0.966751
2.307524 0.813658 -0.967937
2.340613 0.813075 -0.967311
2.306802 0.832752 -0.918882
2.273717 0.833370 -0.919641
2.273353 0.811643 -0.920691
2.306442 0.811058 -0.920068
2.307847 0.835202 -0.966760
2.274762 0.835819 -0.967519
2.274398 0.814092 -0.968569
2.307487 0.813508 -0.967946
2.354498 0.864569 -0.952473
2.324961 0.865036 -0.953079
2.307522 0.855737 -0.932731
2.340607 0.855121 -0.931971
2.354186 0.821079 -0.972670
2.324649 0.821546 -0.973276
2.307210 0.812247 -0.952928
2.340295 0.811631 -0.952168
2.324932 0.865057 -0.953124
2.295395 0.865524 -0.953730
2.274407 0.856375 -0.933536
2.307492 0.855758 -0.932777
2.324616 0.821525 -0.973231
2.295079 0.821993 -0.973837
2.274092 0.812844 -0.953643
2.307177 0.812227 -0.952884
2.295555 0.886963 -0.953094
2.325116 0.886509 -0.952487
2.313010 0.892575 -0.931996
2.280347 0.893188 -0.932577
2.296596 0.933071 -0.966221
2.326157 0.932618 -0.965613
2.314051 0.938684 -0.945123
2.281388 0.939297 -0.945704
2.325149 0.886485 -0.952571
2.354710 0.886032 -0.951964
2.345706 0.891938 -0.931501
2.313043 0.892551 -0.932080
2.326186 0.932641 -0.965528
2.355747 0.932189 -0.964922
2.346743 0.938095 -0.944458
2.314080 0.938707 -0.945038
2.345758 0.915193 -0.913998
2.346078 0.937584 -0.914090
2.313415 0.938047 -0.914775
2.313095 0.915805 -0.914578
2.346681 0.914869 -0.961940
2.347000 0.937260 -0.962032
2.314338 0.937724 -0.962717
2.314018 0.915481 -0.962520
2.313063 0.915922 -0.914579
2.313383 0.938165 -0.914777
2.280721 0.938629 -0.915466
2.280400 0.916535 -0.915160
2.313985 0.915365 -0.962519
2.314305 0.937607 -0.962717
2.281643 0.938072 -0.963406
2.281322 0.915978 -0.963100
2.411142 0.913735 -0.912842
2.411461 0.936423 -0.912722
2.378798 0.936886 -0.913405
2.378480 0.914347 -0.913432
2.412079 0.913879 -0.960785
2.412397 0.936567 -0.960665
2.379735 0.937029 -0.961348
2.379416 0.914490 -0.961375
2.378458 0.914460 -0.913433
2.378776 0.936999 -0.913405
2.346114 0.937462 -0.914089
2.345795 0.915071 -0.913997
2.379373 0.914378 -0.961376
2.379691 0.936917 -0.961348
2.347029 0.937380 -0.962032
2.346709 0.914989 -0.961940
2.354745 0.886009 -0.952046
2.384306 0.885556 -0.951440
2.378404 0.891304 -0.931018
2.345740 0.891915 -0.931582
2.355775 0.932211 -0.964839
2.385337 0.931758 -0.964234
2.379434 0.937506 -0.943811
2.346771 0.938117 -0.944376
2.384336 0.885532 -0.951526
2.413897 0.885079 -0.950921
2.411096 0.890668 -0.930514
2.378433 0.891279 -0.931103
2.385369 0.931781 -0.964147
2.414930 0.931329 -0.963542
2.412129 0.936918 -0.943134
2.379466 0.937529 -0.943724
2.413650 0.863603 -0.951294
2.384111 0.864067 -0.951794
2.373768 0.854471 -0.931136
2.406853 0.853856 -0.930376
2.413311 0.820181 -0.971636
2.383772 0.820645 -0.972136
2.373429 0.811049 -0.951478
2.406514 0.810434 -0.950718
2.384064 0.864081 -0.951823
2.354528 0.864548 -0.952429
2.340636 0.855100 -0.931926
2.373722 0.854485 -0.931166
2.383756 0.820632 -0.972108
2.354219 0.821098 -0.972713
2.340328 0.811651 -0.952211
2.373413 0.811036 -0.951450
2.406148 0.830455 -0.916626
2.373063 0.831070 -0.917386
2.372710 0.809442 -0.918840
2.405798 0.808859 -0.918213
2.407211 0.833803 -0.964449
2.374126 0.834418 -0.965209
2.373773 0.812789 -0.966663
2.406861 0.812207 -0.966036
2.373032 0.831220 -0.917377
2.339947 0.831835 -0.918137
2.339590 0.810174 -0.919458
2.372679 0.809591 -0.918830
2.374090 0.834269 -0.965220
2.341005 0.834884 -0.965980
2.340649 0.813223 -0.967301
2.373738 0.812640 -0.966674
2.472765 0.862637 -0.949992
2.443229 0.863104 -0.950609
2.439981 0.853209 -0.929548
2.473066 0.852595 -0.928788
2.472467 0.819277 -0.970466
2.442931 0.819744 -0.971084
2.439683 0.809849 -0.950022
2.472768 0.809235 -0.949263
2.443199 0.863126 -0.950657
2.413663 0.863593 -0.951274
2.406866 0.853846 -0.930356
2.439951 0.853232 -0.929596
2.442898 0.819722 -0.971037
2.413361 0.820189 -0.971655
2.406564 0.810442 -0.950736
2.439650 0.809827 -0.949976
2.472380 0.828925 -0.915127
2.439295 0.829539 -0.915887
2.438948 0.807976 -0.917609
2.472037 0.807394 -0.916982
2.473452 0.832873 -0.962904
2.440367 0.833487 -0.963664
2.440020 0.811924 -0.965386
2.473109 0.811343 -0.964760
2.439264 0.829690 -0.915876
2.406179 0.830305 -0.916636
2.405829 0.808709 -0.918223
2.438917 0.808127 -0.917597
2.440331 0.833338 -0.963677
2.407246 0.833952 -0.964437
2.406896 0.812356 -0.966024
2.439985 0.811775 -0.965399
2.413931 0.885055 -0.951009
2.443493 0.884602 -0.950405
2.443793 0.890033 -0.930025
2.411130 0.890643 -0.930601
2.414958 0.931352 -0.963454
2.444519 0.930900 -0.962850
2.444820 0.936330 -0.942470
2.412157 0.936941 -0.943046
2.443526 0.884579 -0.950491
2.473087 0.884126 -0.949888
2.476489 0.889399 -0.929537
2.443826 0.890009 -0.930112
2.444549 0.930923 -0.962762
2.474110 0.930470 -0.962159
2.477512 0.935743 -0.941808
2.444849 0.936353 -0.942383
2.476537 0.912301 -0.911693
2.476855 0.935286 -0.911362
2.444192 0.935747 -0.912041
2.443874 0.912911 -0.912267
2.477466 0.912870 -0.959632
2.477784 0.935855 -0.959302
2.445121 0.936317 -0.959981
2.444803 0.913480 -0.960207
2.443842 0.913020 -0.912267
2.444160 0.935857 -0.912041
2.411498 0.936319 -0.912722
2.411179 0.913631 -0.912842
2.444770 0.913372 -0.960208
2.445088 0.936208 -0.959983
2.412425 0.936670 -0.960663
2.412107 0.913982 -0.960784
2.541645 0.910486 -0.910568
2.541962 0.933768 -0.910030
2.509299 0.934228 -0.910705
2.508962 0.911125 -0.911892
2.543141 0.912246 -0.958465
2.543457 0.935528 -0.957926
2.510795 0.935989 -0.958602
2.510458 0.912886 -0.959788
2.509482 0.911220 -0.911878
2.509819 0.934323 -0.910692
2.477157 0.934784 -0.911369
2.476839 0.911799 -0.911700
2.509873 0.912792 -0.959803
2.510210 0.935895 -0.958616
2.477548 0.936356 -0.959294
2.477230 0.913371 -0.959624
2.473204 0.884129 -0.949871
2.502765 0.883676 -0.949269
2.509249 0.888822 -0.929699
2.476606 0.889401 -0.929520
2.474056 0.930467 -0.962176
2.503617 0.930015 -0.961573
2.510100 0.935161 -0.942003
2.477458 0.935740 -0.941825
2.502627 0.883670 -0.949306
2.532188 0.883218 -0.948705
2.541793 0.888176 -0.928412
2.509110 0.888816 -0.929736
2.503818 0.930021 -0.961535
2.533379 0.929569 -0.960934
2.542984 0.934527 -0.940641
2.510301 0.935167 -0.941965
2.531753 0.861565 -0.948469
2.502216 0.862031 -0.949086
2.506025 0.851880 -0.928645
2.539150 0.851229 -0.926979
2.531752 0.818480 -0.969520
2.502215 0.818947 -0.970137
2.506024 0.808795 -0.949696
2.539149 0.808145 -0.948030
2.502465 0.862072 -0.949174
2.472929 0.862539 -0.949791
2.473229 0.852497 -0.928587
2.506274 0.851921 -0.928733
2.501903 0.818907 -0.970050
2.472366 0.819374 -0.970667
2.472667 0.809331 -0.949463
2.505712 0.808755 -0.949609
2.538292 0.827905 -0.913600
2.505167 0.828556 -0.915265
2.504868 0.807020 -0.916346
2.537956 0.806440 -0.915719
2.540013 0.831437 -0.961390
2.506887 0.832087 -0.963056
2.506588 0.810552 -0.964137
2.539677 0.809972 -0.963510
2.505791 0.828694 -0.915241
2.472746 0.829270 -0.915096
2.472403 0.807740 -0.916951
2.505492 0.807159 -0.916323
2.506197 0.831950 -0.963081
2.473152 0.832526 -0.962935
2.472809 0.810996 -0.964790
2.505898 0.810415 -0.964162
2.604841 0.825877 -0.912141
2.571756 0.826487 -0.912902
2.571424 0.805055 -0.915154
2.604513 0.804476 -0.914523
2.605936 0.831017 -0.959804
2.572851 0.831628 -0.960565
2.572519 0.810195 -0.962817
2.605607 0.809617 -0.962186
2.571727 0.826637 -0.912887
2.538642 0.827249 -0.913647
2.538306 0.805783 -0.915766
2.571394 0.805204 -0.915139
2.572814 0.831480 -0.960581
2.539729 0.832092 -0.961341
2.539393 0.810627 -0.963461
2.572482 0.810047 -0.962833
2.591030 0.860684 -0.947343
2.561494 0.861150 -0.947960
2.572439 0.850668 -0.926326
2.605525 0.850057 -0.925565
2.590746 0.817494 -0.968176
2.561209 0.817960 -0.968793
2.572155 0.807479 -0.947159
2.605240 0.806868 -0.946398
2.561464 0.861171 -0.948004
2.531928 0.861637 -0.948621
2.539325 0.851302 -0.927131
2.572410 0.850690 -0.926371
2.561176 0.817940 -0.968750
2.531639 0.818406 -0.969367
2.539037 0.808071 -0.947877
2.572122 0.807459 -0.947116
2.532309 0.883152 -0.948948
2.561870 0.882701 -0.948348
2.574577 0.887503 -0.928084
2.541914 0.888111 -0.928655
2.533321 0.929633 -0.960690
2.562882 0.929182 -0.960090
2.575589 0.933984 -0.939827
2.542926 0.934592 -0.940397
2.561903 0.882678 -0.948436
2.591465 0.882227 -0.947837
2.607273 0.886873 -0.927604
2.574610 0.887480 -0.928172
2.562912 0.929203 -0.960001
2.592473 0.928752 -0.959402
2.608281 0.933399 -0.939169
2.575618 0.934005 -0.939738
2.607319 0.909449 -0.909415
2.607634 0.933029 -0.908671
2.574972 0.933487 -0.909341
2.574656 0.910056 -0.909983
2.608250 0.910851 -0.957337
2.608566 0.934430 -0.956593
2.575903 0.934888 -0.957263
2.575587 0.911457 -0.957906
2.574622 0.910158 -0.909981
2.574938 0.933588 -0.909338
2.542276 0.934048 -0.910013
2.541959 0.910765 -0.910552
2.575555 0.911357 -0.957909
2.575871 0.934788 -0.957266
2.543209 0.935247 -0.957941
2.542892 0.911965 -0.958479
2.672710 0.908044 -0.908291
2.673024 0.931921 -0.907341
2.640361 0.932376 -0.908010
2.640047 0.908647 -0.908854
2.673643 0.909836 -0.956200
2.673956 0.933713 -0.955251
2.641294 0.934169 -0.955919
2.640980 0.910440 -0.956764
2.640016 0.908746 -0.908851
2.640330 0.932475 -0.908007
2.607668 0.932931 -0.908673
2.607353 0.909351 -0.909417
2.640946 0.910342 -0.956768
2.641259 0.934071 -0.955923
2.608597 0.934527 -0.956589
2.608282 0.910948 -0.957333
2.591498 0.882204 -0.947926
2.621059 0.881753 -0.947328
2.639971 0.886245 -0.927127
2.607307 0.886850 -0.927692
2.592501 0.928774 -0.959312
2.622062 0.928323 -0.958715
2.640974 0.932815 -0.938513
2.608310 0.933420 -0.939079
2.621093 0.881731 -0.947418
2.650654 0.881281 -0.946823
2.672667 0.885619 -0.926652
2.640004 0.886223 -0.927216
2.622091 0.928344 -0.958625
2.651652 0.927894 -0.958030
2.673665 0.932232 -0.937860
2.641002 0.932836 -0.938423
2.650161 0.859710 -0.946013
2.620624 0.860175 -0.946639
2.638666 0.849406 -0.924716
2.671750 0.848798 -0.923951
2.649888 0.816603 -0.967016
2.620352 0.817068 -0.967642
2.638393 0.806299 -0.945718
2.671478 0.805691 -0.944953
2.620597 0.860197 -0.946683
2.591059 0.860663 -0.947300
2.605554 0.850037 -0.925523
2.638638 0.849427 -0.924759
2.620317 0.817048 -0.967600
2.590780 0.817514 -0.968217
2.605274 0.806888 -0.946439
2.638358 0.806279 -0.945676
2.671070 0.824364 -0.910644
2.637986 0.824972 -0.911409
2.637662 0.803604 -0.913920
2.670750 0.803028 -0.913288
2.672177 0.830092 -0.958240
2.639093 0.830700 -0.959005
2.638769 0.809332 -0.961516
2.671857 0.808756 -0.960884
2.637954 0.825120 -0.911393
2.604870 0.825730 -0.912156
2.604541 0.804329 -0.914539
2.637630 0.803752 -0.913904
2.639058 0.830553 -0.959023
2.605974 0.831163 -0.959787
2.605645 0.809762 -0.962169
2.638734 0.809185 -0.961534
2.709000 0.802156 -0.912570
2.714851 0.823354 -0.909654
2.692977 0.823755 -0.910163
2.689892 0.802488 -0.912946
2.710136 0.808298 -0.960114
2.715987 0.829496 -0.957198
2.694113 0.829897 -0.957706
2.691027 0.808630 -0.960490
2.689878 0.802575 -0.912935
2.692964 0.823841 -0.910152
2.671090 0.824243 -0.910659
2.670769 0.802907 -0.913303
2.691000 0.808545 -0.960501
2.694085 0.829811 -0.957718
2.672211 0.830212 -0.958225
2.671891 0.808877 -0.960868
2.650126 0.859648 -0.945886
2.671715 0.848735 -0.923823
2.693589 0.848334 -0.923317
2.668857 0.859301 -0.945169
2.649975 0.816664 -0.967142
2.671564 0.805752 -0.945079
2.693438 0.805351 -0.944572
2.668706 0.816318 -0.966425
2.668871 0.859240 -0.945047
2.693604 0.848273 -0.923194
2.715478 0.847873 -0.922686
2.687601 0.858893 -0.944329
2.668732 0.816378 -0.966546
2.693464 0.805411 -0.944693
2.715339 0.805010 -0.944185
2.687462 0.816031 -0.965828
2.672673 0.885612 -0.926682
2.650660 0.881273 -0.946853
2.667965 0.881059 -0.946164
2.699363 0.885119 -0.926223
2.673713 0.932239 -0.937829
2.651700 0.927900 -0.958000
2.669005 0.927686 -0.957312
2.700402 0.931746 -0.937370
2.699386 0.885115 -0.926240
2.667989 0.881054 -0.946182
2.685293 0.880840 -0.945494
2.726076 0.884624 -0.925784
2.700423 0.931750 -0.937351
2.669025 0.927690 -0.957293
2.686330 0.927476 -0.956605
2.727113 0.931259 -0.936896
2.672742 0.907954 -0.908294
2.699431 0.907462 -0.907834
2.699772 0.931460 -0.906802
2.673055 0.931831 -0.907344
2.673671 0.909924 -0.956196
2.700361 0.909432 -0.955737
2.700702 0.933430 -0.954705
2.673985 0.933801 -0.955247
2.699462 0.907387 -0.907837
2.726152 0.906896 -0.907381
2.726520 0.931015 -0.906270
2.699802 0.931385 -0.906805
2.700384 0.909506 -0.955733
2.727074 0.909015 -0.955277
2.727442 0.933135 -0.954167
2.700725 0.933504 -0.954701
2.108199 0.920440 -0.918284
2.143766 0.919765 -0.917635
2.141254 0.941278 -0.918453
2.104271 0.941812 -0.919256
2.109128 0.918580 -0.966191
2.144694 0.917904 -0.965542
2.142183 0.939418 -0.966360
2.105200 0.939952 -0.967163
2.143804 0.919620 -0.917629
2.179370 0.918946 -0.916984
2.178276 0.940601 -0.917652
2.141292 0.941133 -0.918447
2.144729 0.918048 -0.965546
2.180295 0.917374 -0.964901
2.179201 0.939029 -0.965569
2.142217 0.939561 -0.966364
2.194018 0.888995 -0.953519
2.179319 0.895212 -0.933979
2.143753 0.895886 -0.934624
2.161949 0.889756 -0.953228
2.195064 0.934863 -0.967464
2.180364 0.941080 -0.947925
2.144798 0.941754 -0.948569
2.162995 0.935624 -0.967173
2.161914 0.889798 -0.953093
2.143717 0.895928 -0.934490
2.108151 0.896604 -0.935139
2.129845 0.890560 -0.952805
2.162963 0.935583 -0.967307
2.144766 0.941713 -0.948704
2.109200 0.942389 -0.949353
2.130894 0.936345 -0.967019
2.194725 0.910441 -0.936571
2.162656 0.911202 -0.936280
2.156520 0.900762 -0.936878
2.173291 0.898822 -0.937127
2.194359 0.913400 -0.984431
2.162291 0.914161 -0.984140
2.156155 0.903721 -0.984737
2.172925 0.901780 -0.984986
2.162630 0.911208 -0.936280
2.130561 0.911970 -0.935991
2.139644 0.901766 -0.936687
2.156494 0.900769 -0.936877
2.162268 0.914156 -0.984140
2.130199 0.914918 -0.983851
2.139282 0.904714 -0.984547
2.156132 0.903717 -0.984737
2.173278 0.898814 -0.937127
2.156507 0.900754 -0.936878
2.146502 0.889655 -0.937486
2.151844 0.887195 -0.937679
2.172909 0.901766 -0.984987
2.156138 0.903707 -0.984738
2.146133 0.892608 -0.985345
2.151474 0.890147 -0.985539
2.156495 0.900759 -0.936878
2.139645 0.901756 -0.936688
2.140988 0.891736 -0.937315
2.146490 0.889660 -0.937485
2.156128 0.903705 -0.984738
2.139278 0.904703 -0.984548
2.140621 0.894682 -0.985175
2.146122 0.892607 -0.985345
2.123196 0.836894 -0.923052
2.132379 0.814848 -0.923297
2.151044 0.814514 -0.922953
2.144251 0.836497 -0.922573
2.124208 0.837942 -0.970982
2.133391 0.815895 -0.971227
2.152056 0.815562 -0.970883
2.145263 0.837545 -0.970503
2.144267 0.836404 -0.922575
2.151060 0.814421 -0.922955
2.169726 0.814089 -0.922608
2.165321 0.836008 -0.922096
2.145286 0.837637 -0.970500
2.152079 0.815655 -0.970880
2.170745 0.815322 -0.970534
2.166340 0.837241 -0.970022
2.124022 0.858541 -0.935659
2.145077 0.858145 -0.935180
2.151129 0.867340 -0.952764
2.129265 0.867734 -0.952541
2.123380 0.816325 -0.958392
2.144434 0.815929 -0.957913
2.150487 0.825124 -0.975497
2.128623 0.825518 -0.975274
2.145164 0.858339 -0.935552
2.166218 0.857943 -0.935073
2.193812 0.866766 -0.953569
2.151217 0.867534 -0.953135
2.144400 0.815734 -0.957542
2.165454 0.815337 -0.957063
2.193048 0.824160 -0.975559
2.150453 0.824929 -0.975125
2.193652 0.844067 -0.940639
2.172545 0.854730 -0.939819
2.155257 0.853487 -0.939737
2.151056 0.844835 -0.940205
2.193217 0.846878 -0.988506
2.172111 0.857541 -0.987687
2.154822 0.856298 -0.987605
2.150622 0.847646 -0.988073
2.151032 0.844841 -0.940205
2.155233 0.853493 -0.939736
2.137901 0.853204 -0.939596
2.129169 0.845235 -0.939982
2.150596 0.847641 -0.988073
2.154796 0.856292 -0.987605
2.137464 0.856004 -0.987464
2.128732 0.848035 -0.987850
2.172532 0.854743 -0.939818
2.151426 0.865406 -0.939004
2.145989 0.863155 -0.939087
2.155243 0.853501 -0.939736
2.172101 0.857547 -0.987686
2.150995 0.868210 -0.986872
2.145558 0.865959 -0.986955
2.154812 0.856305 -0.987604
2.155232 0.853501 -0.939736
2.145978 0.863156 -0.939086
2.140396 0.861294 -0.939146
2.137900 0.853213 -0.939595
2.154800 0.856301 -0.987604
2.145546 0.865956 -0.986955
2.139964 0.864094 -0.987014
2.137468 0.856013 -0.987463
2.846829 0.845058 -0.918786
2.818707 0.856044 -0.938463
2.802398 0.856345 -0.939102
2.816655 0.845604 -0.919496
2.846735 0.803054 -0.941918
2.818613 0.814040 -0.961594
2.802304 0.814341 -0.962233
2.816561 0.803600 -0.942628
2.816639 0.845685 -0.919644
2.802382 0.856426 -0.939250
2.786072 0.856728 -0.939887
2.786464 0.846232 -0.920354
2.816530 0.803521 -0.942481
2.802273 0.814261 -0.962087
2.785963 0.814563 -0.962724
2.786356 0.804068 -0.943191
2.845227 0.811993 -0.907800
2.846145 0.820767 -0.906601
2.815971 0.821313 -0.907311
2.815355 0.806311 -0.909436
2.846522 0.818549 -0.955284
2.847439 0.827323 -0.954085
2.817265 0.827869 -0.954795
2.816650 0.812867 -0.956920
2.815326 0.806196 -0.909453
2.815941 0.821198 -0.907328
2.785767 0.821746 -0.908037
2.785454 0.800519 -0.911114
2.816619 0.812976 -0.956906
2.817235 0.827978 -0.954781
2.787061 0.828526 -0.955490
2.786748 0.807299 -0.958566
2.793313 0.844685 -0.926411
2.785055 0.834153 -0.927406
2.801365 0.833851 -0.926768
2.805530 0.842800 -0.926038
2.795238 0.847690 -0.974230
2.786979 0.837158 -0.975225
2.803289 0.836856 -0.974587
2.807455 0.845805 -0.973857
2.805544 0.842803 -0.926037
2.801378 0.833854 -0.926767
2.817688 0.833553 -0.926128
2.817872 0.841931 -0.925597
2.807470 0.845801 -0.973857
2.803304 0.836852 -0.974587
2.819614 0.836551 -0.973948
2.819798 0.844929 -0.973416
2.801978 0.855223 -0.925402
2.793321 0.844699 -0.926410
2.805538 0.842814 -0.926037
2.809722 0.851807 -0.925305
2.803900 0.858220 -0.973222
2.795243 0.847695 -0.974230
2.807460 0.845811 -0.973856
2.811644 0.854804 -0.973125
2.809731 0.851805 -0.925305
2.805547 0.842812 -0.926037
2.817874 0.841940 -0.925596
2.818058 0.850318 -0.925062
2.811656 0.854802 -0.973125
2.807471 0.845809 -0.973856
2.819799 0.844938 -0.973415
2.819983 0.853316 -0.972882
2.081045 0.837862 -0.924007
2.095007 0.815689 -0.923984
2.113671 0.815357 -0.923639
2.109282 0.837331 -0.923365
2.082067 0.838560 -0.971943
2.096028 0.816387 -0.971920
2.114693 0.816054 -0.971575
2.110304 0.838029 -0.971301
2.109319 0.837244 -0.923366
2.113708 0.815270 -0.923640
2.132373 0.814937 -0.923296
2.123190 0.836983 -0.923050
2.110307 0.838115 -0.971299
2.114696 0.816140 -0.971574
2.133361 0.815807 -0.971230
2.124178 0.837853 -0.970984
2.077201 0.868250 -0.951256
2.081845 0.858911 -0.935861
2.110083 0.858379 -0.935219
2.103199 0.867781 -0.951520
2.076607 0.826882 -0.975500
2.081251 0.817543 -0.960105
2.109489 0.817012 -0.959463
2.102604 0.826413 -0.975764
2.103294 0.868018 -0.951937
2.110178 0.858616 -0.935635
2.124050 0.858355 -0.935320
2.129293 0.867548 -0.952202
2.102556 0.826176 -0.975347
2.109440 0.816774 -0.959046
2.123311 0.816512 -0.958731
2.128554 0.825705 -0.975613
2.077130 0.846187 -0.939451
2.103127 0.845718 -0.939715
2.120589 0.854614 -0.939357
2.103320 0.856012 -0.939120
2.076694 0.848965 -0.987320
2.102692 0.848495 -0.987585
2.120153 0.857392 -0.987227
2.102884 0.858790 -0.986989
2.103149 0.845711 -0.939716
2.129147 0.845241 -0.939981
2.137879 0.853210 -0.939595
2.120610 0.854607 -0.939358
2.102713 0.848500 -0.987585
2.128712 0.848030 -0.987850
2.137444 0.855999 -0.987464
2.120175 0.857396 -0.987227
2.137889 0.853216 -0.939595
2.140385 0.861297 -0.939146
2.134883 0.863374 -0.938975
2.120619 0.854613 -0.939357
2.137456 0.856010 -0.987464
2.139953 0.864091 -0.987015
2.134450 0.866167 -0.986844
2.120187 0.857407 -0.987226
2.120607 0.854619 -0.939357
2.134870 0.863379 -0.938975
2.129528 0.865840 -0.938784
2.103338 0.856017 -0.939120
2.120177 0.857405 -0.987226
2.134440 0.866166 -0.986844
2.129098 0.868627 -0.986653
2.102908 0.858803 -0.986989
2.046260 0.828389 -0.923801
2.071034 0.823541 -0.923966
2.064074 0.839825 -0.924432
2.046612 0.840154 -0.924830
2.046211 0.825826 -0.971685
2.070985 0.820978 -0.971849
2.064025 0.837262 -0.972315
2.046563 0.837590 -0.972713
2.070862 0.822470 -0.923933
2.095327 0.816254 -0.923978
2.081365 0.838427 -0.924001
2.063902 0.838754 -0.924399
2.071199 0.822043 -0.971882
2.095663 0.815826 -0.971927
2.081702 0.837999 -0.971950
2.064239 0.838327 -0.972348
2.046885 0.859085 -0.935870
2.064347 0.858757 -0.935472
2.057284 0.868129 -0.950267
2.037403 0.868487 -0.950065
2.046278 0.818682 -0.961688
2.063740 0.818354 -0.961290
2.056677 0.827725 -0.976085
2.036796 0.828084 -0.975884
2.064373 0.858986 -0.935839
2.081836 0.858659 -0.935441
2.077191 0.867998 -0.950835
2.057310 0.868358 -0.950633
2.063752 0.818124 -0.960924
2.081215 0.817796 -0.960526
2.076570 0.827135 -0.975921
2.056689 0.827495 -0.975718
2.087723 0.891662 -0.952114
2.072526 0.897384 -0.935475
2.054743 0.897724 -0.935803
2.063397 0.892241 -0.951900
2.088757 0.937245 -0.966964
2.073560 0.942967 -0.950325
2.055777 0.943307 -0.950653
2.064431 0.937824 -0.966750
2.063370 0.892274 -0.951800
2.054716 0.897757 -0.935704
2.036933 0.898097 -0.936032
2.045633 0.892696 -0.951645
2.064419 0.937791 -0.966850
2.055765 0.943274 -0.950753
2.037983 0.943614 -0.951082
2.046683 0.938213 -0.966695
2.037511 0.929182 -0.918765
2.037668 0.920020 -0.919589
2.055450 0.919680 -0.919260
2.054445 0.931238 -0.919344
2.037082 0.930868 -0.966686
2.037239 0.921707 -0.967509
2.055022 0.921367 -0.967180
2.054016 0.932925 -0.967264
2.054164 0.932779 -0.919338
2.055169 0.921221 -0.919255
2.072952 0.920882 -0.918926
2.071046 0.935276 -0.919607
2.054332 0.931386 -0.967270
2.055337 0.919828 -0.967186
2.073120 0.919488 -0.966858
2.071215 0.933882 -0.967539
1.996302 0.839428 -0.924059
2.021457 0.837358 -0.924465
2.022166 0.846119 -0.926339
1.997520 0.846582 -0.926901
1.995756 0.825865 -0.970049
2.020911 0.823795 -0.970456
2.021620 0.832556 -0.972330
1.996974 0.833020 -0.972892
2.021340 0.833925 -0.923720
2.046344 0.830461 -0.924003
2.046696 0.842225 -0.925031
2.022050 0.842687 -0.925594
2.021077 0.827224 -0.971200
2.046081 0.823759 -0.971484
2.046433 0.835523 -0.972512
2.021787 0.835985 -0.973075
1.997496 0.859391 -0.936071
2.022142 0.858928 -0.935509
2.017425 0.868228 -0.948940
1.997544 0.868587 -0.948740
1.996997 0.820228 -0.963737
2.021643 0.819765 -0.963175
2.016926 0.829065 -0.976606
1.997045 0.829424 -0.976405
2.022174 0.859261 -0.935993
2.046820 0.858799 -0.935431
2.037338 0.868201 -0.949626
2.017457 0.868561 -0.949424
2.021655 0.819431 -0.962691
2.046301 0.818969 -0.962128
2.036819 0.828371 -0.976323
2.016938 0.828732 -0.976121
2.045619 0.892732 -0.951537
2.036919 0.898133 -0.935924
2.019137 0.898472 -0.936253
2.024588 0.893233 -0.951353
2.046659 0.938177 -0.966803
2.037959 0.943579 -0.951190
2.020177 0.943917 -0.951518
2.025628 0.938678 -0.966619
2.024570 0.893272 -0.951238
2.019119 0.898512 -0.936138
2.001336 0.898849 -0.936466
2.003538 0.893772 -0.951055
2.025607 0.938639 -0.966734
2.020156 0.943879 -0.951634
2.002373 0.944216 -0.951962
2.004575 0.939140 -0.966551
2.004076 0.917637 -0.918709
2.002624 0.911940 -0.922248
2.020407 0.911603 -0.921919
2.021061 0.918810 -0.919892
2.002535 0.936833 -0.962624
2.001082 0.931136 -0.966163
2.018865 0.930799 -0.965834
2.019519 0.938006 -0.963807
2.020830 0.924281 -0.918238
2.020176 0.917074 -0.920265
2.037959 0.916735 -0.919936
2.037802 0.925896 -0.919113
2.019785 0.932537 -0.965462
2.019130 0.925330 -0.967489
2.036913 0.924991 -0.967161
2.036756 0.934152 -0.966337
2.726181 0.906824 -0.907384
2.752870 0.906335 -0.906931
2.753266 0.930576 -0.905743
2.726549 0.930944 -0.906273
2.727099 0.909086 -0.955274
2.753788 0.908597 -0.954820
2.754184 0.932838 -0.953633
2.727467 0.933206 -0.954163
2.752898 0.906264 -0.906934
2.779589 0.905777 -0.906484
2.780011 0.930139 -0.905218
2.753294 0.930505 -0.905746
2.753813 0.908666 -0.954817
2.780504 0.908179 -0.954367
2.780926 0.932541 -0.953101
2.754209 0.932907 -0.953629
2.779512 0.883635 -0.924926
2.752822 0.884123 -0.925376
2.710669 0.880516 -0.944535
2.735989 0.880204 -0.943533
2.780537 0.930293 -0.935945
2.753847 0.930780 -0.936394
2.711694 0.927174 -0.955554
2.737014 0.926862 -0.954552
2.752794 0.884128 -0.925354
2.726104 0.884618 -0.925807
2.685321 0.880834 -0.945517
2.710641 0.880522 -0.944513
2.753823 0.930775 -0.936418
2.727133 0.931264 -0.936871
2.686350 0.927481 -0.956581
2.711670 0.927169 -0.955577
2.705122 0.890819 -0.927057
2.723058 0.892722 -0.926214
2.710176 0.902370 -0.926143
2.684856 0.902683 -0.927147
2.707056 0.893755 -0.974880
2.724992 0.895657 -0.974037
2.712110 0.905306 -0.973966
2.686790 0.905618 -0.974970
2.723084 0.892727 -0.926212
2.741124 0.892517 -0.925500
2.735522 0.902064 -0.925140
2.710202 0.902376 -0.926142
2.725010 0.895652 -0.974036
2.743050 0.895443 -0.973324
2.737448 0.904989 -0.972964
2.712128 0.905301 -0.973966
2.724847 0.878954 -0.926985
2.735394 0.883033 -0.926305
2.723070 0.892713 -0.926214
2.705134 0.890810 -0.927057
2.726789 0.881886 -0.974808
2.737336 0.885965 -0.974127
2.725013 0.895645 -0.974036
2.707077 0.893742 -0.974880
2.735421 0.883050 -0.926302
2.746740 0.882974 -0.925856
2.741138 0.892520 -0.925499
2.723098 0.892730 -0.926211
2.737337 0.885950 -0.974128
2.748656 0.885875 -0.973682
2.743054 0.895421 -0.973325
2.725014 0.895630 -0.974037
2.747254 0.801319 -0.911847
2.758635 0.822381 -0.908655
2.736762 0.822779 -0.909166
2.728146 0.801649 -0.912223
2.748399 0.807813 -0.959344
2.759780 0.828875 -0.956151
2.737906 0.829272 -0.956663
2.729290 0.808143 -0.959720
2.728131 0.801737 -0.912212
2.736747 0.822867 -0.909155
2.714873 0.823266 -0.909665
2.709022 0.802067 -0.912581
2.729264 0.808056 -0.959732
2.737880 0.829185 -0.956675
2.716006 0.829584 -0.957186
2.710155 0.808386 -0.960102
2.687606 0.858821 -0.944186
2.715482 0.847800 -0.922542
2.737356 0.847401 -0.922032
2.711545 0.858378 -0.943267
2.687501 0.816103 -0.965970
2.715377 0.805082 -0.944327
2.737251 0.804683 -0.943817
2.711440 0.815661 -0.965052
2.711563 0.858306 -0.943127
2.737374 0.847329 -0.921892
2.759247 0.846931 -0.921380
2.735493 0.857865 -0.942215
2.711468 0.815732 -0.965190
2.737279 0.804754 -0.943955
2.759153 0.804356 -0.943443
2.735398 0.815290 -0.964278
2.704390 0.846570 -0.929826
2.686605 0.836010 -0.931175
2.710545 0.835568 -0.930257
2.722253 0.844029 -0.929281
2.706273 0.849494 -0.977652
2.688489 0.838934 -0.979001
2.712428 0.838492 -0.978082
2.724137 0.846952 -0.977107
2.722274 0.844027 -0.929280
2.710566 0.835566 -0.930256
2.734496 0.835125 -0.929344
2.740304 0.843588 -0.928594
2.724157 0.846952 -0.977106
2.712449 0.838491 -0.978081
2.736379 0.838050 -0.977169
2.742187 0.846513 -0.976420
2.724437 0.857095 -0.928395
2.704410 0.846576 -0.929825
2.722274 0.844035 -0.929280
2.734802 0.852523 -0.928271
2.726310 0.860026 -0.976221
2.706283 0.849507 -0.977651
2.724147 0.846965 -0.977106
2.736675 0.855454 -0.976096
2.734803 0.852535 -0.928270
2.722275 0.844046 -0.929279
2.740305 0.843608 -0.928593
2.746113 0.852071 -0.927845
2.736703 0.855439 -0.976096
2.724175 0.846950 -0.977105
2.742205 0.846511 -0.976419
2.748013 0.854975 -0.975671
2.070818 0.935766 -0.919629
2.072724 0.921372 -0.918948
2.088332 0.921074 -0.918660
2.087634 0.938699 -0.919601
2.071476 0.933394 -0.967518
2.073382 0.919000 -0.966836
2.088990 0.918702 -0.966549
2.088292 0.936327 -0.967490
2.087433 0.938624 -0.919601
2.088130 0.920999 -0.918660
2.108088 0.920619 -0.918294
2.104160 0.941991 -0.919266
2.088529 0.936405 -0.967489
2.089226 0.918780 -0.966548
2.109184 0.918400 -0.966182
2.105256 0.939772 -0.967154
2.129820 0.890599 -0.952683
2.108126 0.896643 -0.935017
2.088168 0.897023 -0.935383
2.108789 0.891099 -0.952495
2.130864 0.936307 -0.967142
2.109170 0.942351 -0.949476
2.089212 0.942731 -0.949842
2.109833 0.936807 -0.966954
2.108774 0.891130 -0.952398
2.088153 0.897054 -0.935286
2.072545 0.897352 -0.935573
2.087743 0.891630 -0.952212
2.109809 0.936776 -0.967052
2.089188 0.942701 -0.949940
2.073580 0.942999 -0.950227
2.088777 0.937276 -0.966865
2.130538 0.911976 -0.935991
2.109507 0.912475 -0.935803
2.122748 0.901558 -0.936572
2.139621 0.901771 -0.936687
2.130179 0.914914 -0.983851
2.109147 0.915414 -0.983664
2.122389 0.904497 -0.984432
2.139261 0.904709 -0.984548
2.109487 0.912481 -0.935803
2.088456 0.912981 -0.935617
2.105896 0.900392 -0.936515
2.122729 0.901564 -0.936571
2.109129 0.915408 -0.983664
2.088097 0.915908 -0.983478
2.105538 0.903319 -0.984377
2.122371 0.904491 -0.984433
2.139633 0.901759 -0.936688
2.122760 0.901547 -0.936573
2.135395 0.889879 -0.937385
2.140976 0.891739 -0.937314
2.139268 0.904700 -0.984548
2.122395 0.904487 -0.984433
2.135030 0.892819 -0.985246
2.140610 0.894679 -0.985175
2.122750 0.901549 -0.936572
2.105917 0.900377 -0.936516
2.129948 0.887632 -0.937480
2.135384 0.889882 -0.937385
2.122383 0.904481 -0.984433
2.105551 0.903310 -0.984377
2.129582 0.890564 -0.985341
2.135018 0.892814 -0.985246
2.785512 0.800511 -0.911113
2.785825 0.821738 -0.908037
2.772251 0.821984 -0.908356
2.766404 0.800840 -0.911492
2.786643 0.807304 -0.958568
2.786956 0.828531 -0.955492
2.773382 0.828777 -0.955810
2.767536 0.807633 -0.958947
2.766391 0.800907 -0.911483
2.772237 0.822051 -0.908346
2.758663 0.822298 -0.908665
2.747282 0.801236 -0.911858
2.767517 0.807566 -0.958957
2.773363 0.828711 -0.955820
2.759789 0.828957 -0.956139
2.748408 0.807895 -0.959332
2.786009 0.856797 -0.940016
2.760754 0.857262 -0.940986
2.772828 0.846548 -0.920801
2.786402 0.846302 -0.920482
2.785983 0.814494 -0.962597
2.760728 0.814960 -0.963567
2.772802 0.804245 -0.943382
2.786376 0.803999 -0.943063
2.760740 0.857322 -0.941099
2.735485 0.857788 -0.942068
2.759240 0.846854 -0.921233
2.772813 0.846608 -0.920914
2.760704 0.814901 -0.963455
2.735448 0.815366 -0.964424
2.759203 0.804433 -0.943589
2.772777 0.804186 -0.943270
2.740321 0.843576 -0.928594
2.734512 0.835113 -0.929344
2.759768 0.834647 -0.928375
2.758363 0.843291 -0.927896
2.742214 0.846524 -0.976418
2.736405 0.838061 -0.977168
2.761660 0.837595 -0.976199
2.760256 0.846239 -0.975720
2.758383 0.843279 -0.927896
2.759788 0.834635 -0.928375
2.785043 0.834170 -0.927405
2.776330 0.845105 -0.927069
2.760279 0.846251 -0.975718
2.761684 0.837607 -0.976197
2.786938 0.837142 -0.975227
2.778226 0.848077 -0.974891
2.746124 0.852053 -0.927846
2.740315 0.843589 -0.928594
2.758357 0.843304 -0.927895
2.757443 0.851978 -0.927395
2.748032 0.854993 -0.975669
2.742224 0.846529 -0.976418
2.760266 0.846244 -0.975719
2.759351 0.854918 -0.975218
2.757455 0.851955 -0.927395
2.758370 0.843281 -0.927896
2.776317 0.845107 -0.927069
2.768002 0.856035 -0.926714
2.759368 0.854944 -0.975216
2.760282 0.846270 -0.975717
2.778229 0.848096 -0.974890
2.769915 0.859024 -0.974534
2.746760 0.882963 -0.925856
2.757851 0.882595 -0.925440
2.759177 0.892147 -0.924800
2.741158 0.892509 -0.925499
2.748665 0.885886 -0.973681
2.759756 0.885519 -0.973265
2.761082 0.895071 -0.972625
2.743063 0.895432 -0.973324
2.757869 0.882572 -0.925441
2.768453 0.877905 -0.925315
2.777057 0.889661 -0.924240
2.759195 0.892124 -0.924800
2.759767 0.885538 -0.973263
2.770351 0.880871 -0.973138
2.778955 0.892627 -0.972062
2.761093 0.895090 -0.972623
2.741149 0.892512 -0.925499
2.759168 0.892151 -0.924800
2.760590 0.901751 -0.924152
2.735547 0.902059 -0.925139
2.743068 0.895448 -0.973323
2.761087 0.895087 -0.972623
2.762509 0.904686 -0.971976
2.737466 0.904994 -0.972963
2.759192 0.892141 -0.924800
2.777053 0.889678 -0.924239
2.785657 0.901434 -0.923166
2.760614 0.901741 -0.924152
2.761106 0.895095 -0.972622
2.778968 0.892631 -0.972061
2.787572 0.904388 -0.970989
2.762528 0.904695 -0.971974
2.817200 0.882939 -0.924340
2.798382 0.883281 -0.924654
2.761084 0.879885 -0.942589
2.786127 0.879579 -0.941603
2.818214 0.929618 -0.935270
2.799396 0.929960 -0.935583
2.762098 0.926564 -0.953519
2.787141 0.926257 -0.952533
2.798358 0.883286 -0.924635
2.779540 0.883629 -0.924950
2.736017 0.880198 -0.943557
2.761060 0.879890 -0.942570
2.799376 0.929956 -0.935604
2.780557 0.930298 -0.935919
2.737034 0.926867 -0.954526
2.762078 0.926560 -0.953539
2.816619 0.919906 -0.903664
2.797999 0.924002 -0.904420
2.797899 0.903875 -0.906313
2.816717 0.903534 -0.905999
2.818633 0.925418 -0.951255
2.800013 0.929514 -0.952012
2.799913 0.909387 -0.953904
2.818731 0.909046 -0.953591
2.797959 0.925076 -0.904322
2.779464 0.929655 -0.905264
2.779041 0.905292 -0.906530
2.797860 0.904949 -0.906214
2.800014 0.928445 -0.952111
2.781519 0.933023 -0.953053
2.781096 0.908661 -0.954320
2.799915 0.908318 -0.954004
2.684846 0.902668 -0.927148
2.685130 0.885857 -0.928170
2.703400 0.879832 -0.927808
2.705112 0.890805 -0.927058
2.686778 0.905618 -0.974971
2.687061 0.888807 -0.975992
2.705331 0.882783 -0.975630
2.707044 0.893755 -0.974880
2.685138 0.885846 -0.928171
2.684872 0.869363 -0.929194
2.702578 0.868743 -0.928526
2.703408 0.879821 -0.927808
2.687052 0.888791 -0.975994
2.686786 0.872308 -0.977017
2.704492 0.871688 -0.976349
2.705322 0.882766 -0.975631
2.667524 0.902896 -0.927836
2.667387 0.886278 -0.928858
2.685112 0.885871 -0.928170
2.684829 0.902682 -0.927148
2.669454 0.905828 -0.975660
2.669317 0.889210 -0.976681
2.687042 0.888802 -0.975994
2.686758 0.905614 -0.974972
2.667394 0.886261 -0.928858
2.667257 0.869643 -0.929881
2.684853 0.869371 -0.929194
2.685118 0.885854 -0.928171
2.669310 0.889193 -0.976682
2.669174 0.872575 -0.977705
2.686769 0.872304 -0.977018
2.687035 0.888786 -0.975995
2.650201 0.903118 -0.928525
2.649919 0.886529 -0.929545
2.667369 0.886286 -0.928858
2.667506 0.902904 -0.927836
2.652132 0.906035 -0.976349
2.651850 0.889445 -0.977369
2.669300 0.889202 -0.976682
2.669437 0.905820 -0.975661
2.649926 0.886511 -0.929546
2.649644 0.869922 -0.930567
2.667240 0.869650 -0.929881
2.667376 0.886268 -0.928859
2.651843 0.889430 -0.977371
2.651561 0.872840 -0.978392
2.669156 0.872569 -0.977706
2.669293 0.889187 -0.976683
2.649508 0.870953 -0.930532
2.649790 0.887542 -0.929511
2.620268 0.888175 -0.931531
2.619959 0.871410 -0.931134
2.651650 0.871810 -0.978429
2.651932 0.888400 -0.977408
2.622410 0.889033 -0.979428
2.622101 0.872268 -0.979030
2.649761 0.885502 -0.929637
2.650043 0.902091 -0.928616
2.620482 0.902541 -0.929211
2.620240 0.886135 -0.931657
2.651961 0.890473 -0.977280
2.652243 0.907062 -0.976259
2.622681 0.907512 -0.976854
2.622439 0.891106 -0.979300
2.620507 0.872443 -0.931120
2.620817 0.889208 -0.931517
2.591262 0.889667 -0.932154
2.590958 0.872901 -0.931721
2.621493 0.871237 -0.979046
2.621802 0.888002 -0.979444
2.592248 0.888462 -0.980081
2.591944 0.871695 -0.979647
2.620760 0.885065 -0.931775
2.621002 0.901471 -0.929329
2.591441 0.901922 -0.929926
2.591206 0.885525 -0.932412
2.621860 0.892178 -0.979184
2.622102 0.908584 -0.976738
2.592541 0.909035 -0.977335
2.592305 0.892637 -0.979821
2.590929 0.872953 -0.931723
2.591233 0.889719 -0.932156
2.561679 0.890180 -0.932794
2.561380 0.873411 -0.932324
2.591914 0.871644 -0.979647
2.592218 0.888411 -0.980080
2.562664 0.888871 -0.980718
2.562365 0.872103 -0.980248
2.591174 0.885467 -0.932422
2.591410 0.901864 -0.929935
2.561849 0.902316 -0.930534
2.561620 0.885928 -0.933059
2.592277 0.892696 -0.979813
2.592513 0.909093 -0.977326
2.562952 0.909544 -0.977925
2.562723 0.893156 -0.980450
2.561351 0.873463 -0.932326
2.561650 0.890232 -0.932796
2.532095 0.890692 -0.933435
2.531801 0.873922 -0.932929
2.562335 0.872052 -0.980248
2.562634 0.888820 -0.980717
2.533080 0.889280 -0.981356
2.532786 0.872511 -0.980850
2.561589 0.885871 -0.933069
2.561818 0.902259 -0.930544
2.532256 0.902711 -0.931144
2.532035 0.886332 -0.933708
2.562695 0.893214 -0.980442
2.562924 0.909602 -0.977917
2.533362 0.910053 -0.978517
2.533141 0.893674 -0.981081
2.531772 0.873975 -0.932931
2.532066 0.890745 -0.933437
2.502512 0.891206 -0.934077
2.502223 0.874434 -0.933533
2.532756 0.872459 -0.980849
2.533050 0.889228 -0.981355
2.503495 0.889689 -0.981995
2.503207 0.872918 -0.981451
2.532004 0.886275 -0.933717
2.532225 0.902655 -0.931153
2.502664 0.903106 -0.931754
2.502449 0.886736 -0.934357
2.533113 0.893732 -0.981073
2.533334 0.910111 -0.978509
2.503773 0.910563 -0.979110
2.503558 0.894193 -0.981713
2.502194 0.874488 -0.933536
2.502483 0.891259 -0.934079
2.472928 0.891720 -0.934720
2.472645 0.874947 -0.934139
2.503177 0.872865 -0.981450
2.503466 0.889637 -0.981994
2.473911 0.890098 -0.982634
2.473628 0.873325 -0.982053
2.502418 0.886680 -0.934366
2.502633 0.903050 -0.931764
2.473071 0.903502 -0.932366
2.472864 0.887141 -0.935007
2.503530 0.894250 -0.981704
2.503744 0.910620 -0.979102
2.474183 0.911072 -0.979704
2.473976 0.894710 -0.982345
2.472616 0.875000 -0.934141
2.472899 0.891773 -0.934722
2.443345 0.892235 -0.935363
2.443067 0.875459 -0.934745
2.473598 0.873272 -0.982052
2.473881 0.890045 -0.982633
2.444327 0.890507 -0.983274
2.444049 0.873732 -0.982656
2.472833 0.887085 -0.935017
2.473040 0.903447 -0.932376
2.443479 0.903899 -0.932979
2.443279 0.887547 -0.935657
2.473948 0.894767 -0.982336
2.474155 0.911128 -0.979695
2.444593 0.911580 -0.980298
2.444393 0.895228 -0.982977
2.443118 0.875364 -0.934741
2.443397 0.892139 -0.935359
2.413838 0.892648 -0.935796
2.413569 0.875824 -0.935345
2.443938 0.873828 -0.982661
2.444216 0.890603 -0.983279
2.414657 0.891112 -0.983716
2.414388 0.874287 -0.983266
2.443329 0.887629 -0.935643
2.443529 0.903982 -0.932964
2.413967 0.904434 -0.933568
2.413770 0.888138 -0.936080
2.444285 0.895146 -0.982993
2.444485 0.911499 -0.980314
2.414923 0.911951 -0.980918
2.414726 0.895655 -0.983430
2.412868 0.876800 -0.935419
2.413137 0.893625 -0.935869
2.383619 0.894365 -0.938025
2.383319 0.877260 -0.936024
2.415031 0.873312 -0.983195
2.415300 0.890136 -0.983645
2.385782 0.890876 -0.985801
2.385481 0.873771 -0.983800
2.413026 0.887133 -0.936288
2.413223 0.903429 -0.933776
2.383662 0.903881 -0.934381
2.383508 0.887873 -0.938444
2.415411 0.896661 -0.983224
2.415608 0.912957 -0.980711
2.386047 0.913410 -0.981316
2.385894 0.897401 -0.985380
2.384499 0.877291 -0.936002
2.384800 0.894395 -0.938004
2.355209 0.894587 -0.937128
2.354951 0.877750 -0.936608
2.384242 0.873742 -0.983822
2.384542 0.890846 -0.985824
2.354951 0.891039 -0.984948
2.354693 0.874202 -0.984428
2.384726 0.887801 -0.938429
2.384879 0.903810 -0.934366
2.355318 0.904263 -0.934971
2.355135 0.887993 -0.937554
2.384617 0.897473 -0.985396
2.384771 0.913482 -0.981332
2.355209 0.913935 -0.981937
2.355026 0.897666 -0.984520
2.354298 0.876750 -0.936559
2.354557 0.893587 -0.937080
2.325003 0.894053 -0.937722
2.324749 0.877210 -0.937165
2.355286 0.875202 -0.984476
2.355544 0.892040 -0.984997
2.325990 0.892505 -0.985639
2.325737 0.875662 -0.985082
2.354492 0.889051 -0.937368
2.354676 0.905320 -0.934785
2.325114 0.905773 -0.935391
2.324938 0.889517 -0.938010
2.355609 0.896609 -0.984707
2.355793 0.912878 -0.982124
2.326231 0.913331 -0.982731
2.326055 0.897074 -0.985349
2.324720 0.877262 -0.937168
2.324973 0.894104 -0.937724
2.295419 0.894573 -0.938368
2.295171 0.877722 -0.937774
2.325707 0.875612 -0.985081
2.325960 0.892454 -0.985638
2.296407 0.892923 -0.986281
2.296158 0.876072 -0.985688
2.324907 0.889463 -0.938019
2.325083 0.905720 -0.935401
2.295522 0.906173 -0.936008
2.295353 0.889932 -0.938662
2.326027 0.897129 -0.985341
2.326203 0.913385 -0.982723
2.296642 0.913838 -0.983330
2.296474 0.897597 -0.985984
2.295206 0.877657 -0.937771
2.295454 0.894508 -0.938365
2.265946 0.894878 -0.938841
2.265657 0.878118 -0.938379
2.296064 0.876137 -0.985692
2.296312 0.892988 -0.986285
2.266804 0.893358 -0.986762
2.266515 0.876598 -0.986299
2.295396 0.890007 -0.938649
2.295565 0.906248 -0.935995
2.266004 0.906702 -0.936605
2.265888 0.890377 -0.939126
2.296371 0.897522 -0.985998
2.296540 0.913764 -0.983345
2.266979 0.914217 -0.983954
2.266863 0.897892 -0.986475
2.266163 0.876950 -0.938367
2.266452 0.893711 -0.938829
2.236811 0.893951 -0.937947
2.236614 0.877411 -0.938974
2.265950 0.877766 -0.986311
2.266239 0.894526 -0.986774
2.236598 0.894766 -0.985892
2.236401 0.878227 -0.986919
2.266425 0.891560 -0.938963
2.266541 0.907885 -0.936442
2.236980 0.908340 -0.937054
2.236784 0.891800 -0.938081
2.266267 0.896709 -0.986638
2.266383 0.913035 -0.984117
2.236822 0.913489 -0.984728
2.236626 0.896949 -0.985755
2.215460 0.876778 -0.938812
2.236678 0.876336 -0.939017
2.236876 0.892875 -0.937990
2.215696 0.893346 -0.937790
2.215067 0.879746 -0.986671
2.236285 0.879303 -0.986875
2.236482 0.895843 -0.985848
2.215303 0.896314 -0.985648
2.215689 0.893363 -0.937789
2.236869 0.892891 -0.937989
2.237065 0.909431 -0.936961
2.215926 0.909931 -0.936766
2.215310 0.896331 -0.985647
2.236490 0.895859 -0.985847
2.236686 0.912399 -0.984820
2.215547 0.912899 -0.984625
2.194219 0.877230 -0.938607
2.215438 0.876788 -0.938811
2.215674 0.893357 -0.937789
2.194495 0.893828 -0.937590
2.193828 0.880179 -0.986466
2.215046 0.879736 -0.986671
2.215283 0.896305 -0.985648
2.194103 0.896777 -0.985450
2.194487 0.893844 -0.937589
2.215666 0.893373 -0.937788
2.215903 0.909941 -0.936765
2.194763 0.910442 -0.936572
2.194111 0.896794 -0.985449
2.215291 0.896322 -0.985647
2.215527 0.912891 -0.984625
2.194387 0.913392 -0.984431
2.194179 0.877235 -0.938606
2.194455 0.893833 -0.937590
2.174623 0.887797 -0.937814
2.175074 0.876713 -0.938497
2.193827 0.880172 -0.986467
2.194102 0.896770 -0.985450
2.174270 0.890734 -0.985675
2.174721 0.879650 -0.986358
2.194455 0.893845 -0.937589
2.194731 0.910443 -0.936571
2.173297 0.898824 -0.937127
2.174623 0.887809 -0.937813
2.194102 0.896785 -0.985449
2.194378 0.913383 -0.984432
2.172944 0.901764 -0.984987
2.174269 0.890749 -0.985674
2.684878 0.869350 -0.929195
2.685732 0.853296 -0.930147
2.703040 0.857622 -0.929194
2.702583 0.868729 -0.928527
2.686780 0.872295 -0.977018
2.687634 0.856241 -0.977971
2.704942 0.860567 -0.977018
2.704486 0.871674 -0.976350
2.685741 0.853280 -0.930148
2.686593 0.836005 -0.931176
2.704377 0.846565 -0.929827
2.703049 0.857606 -0.929195
2.687627 0.856229 -0.977972
2.688479 0.838955 -0.979000
2.706263 0.849515 -0.977651
2.704935 0.860556 -0.977019
2.684859 0.869355 -0.929195
2.667263 0.869626 -0.929882
2.667549 0.853000 -0.930887
2.685713 0.853301 -0.930148
2.686764 0.872287 -0.977019
2.669168 0.872559 -0.977706
2.669454 0.855932 -0.978712
2.687618 0.856233 -0.977972
2.685719 0.853284 -0.930149
2.667556 0.852983 -0.930888
2.667842 0.836356 -0.931894
2.686572 0.836010 -0.931177
2.687612 0.856217 -0.977973
2.669449 0.855916 -0.978713
2.669734 0.839289 -0.979719
2.688464 0.838943 -0.979001
2.667246 0.869633 -0.929882
2.649651 0.869904 -0.930568
2.649369 0.853315 -0.931590
2.667532 0.853006 -0.930888
2.669150 0.872553 -0.977707
2.651555 0.872825 -0.978393
2.651273 0.856236 -0.979415
2.669436 0.855926 -0.978713
2.667538 0.852990 -0.930888
2.649375 0.853300 -0.931591
2.649093 0.836710 -0.932612
2.667823 0.836364 -0.931894
2.669430 0.855909 -0.978714
2.651267 0.856218 -0.979417
2.650985 0.839629 -0.980437
2.669716 0.839282 -0.979720
2.649245 0.837148 -0.932584
2.649527 0.853737 -0.931563
2.619997 0.854213 -0.932795
2.619709 0.837613 -0.933210
2.650784 0.839193 -0.980467
2.651066 0.855782 -0.979446
2.621536 0.856258 -0.980678
2.621248 0.839658 -0.981093
2.649525 0.852862 -0.931616
2.649807 0.869451 -0.930594
2.620258 0.869908 -0.931196
2.619995 0.853338 -0.932848
2.651069 0.856690 -0.979390
2.651351 0.873279 -0.978368
2.621801 0.873737 -0.978970
2.621539 0.857167 -0.980622
2.619939 0.838045 -0.933189
2.620228 0.854645 -0.932774
2.590685 0.855107 -0.933390
2.590402 0.838511 -0.933806
2.620958 0.839227 -0.981115
2.621247 0.855828 -0.980701
2.591704 0.856290 -0.981316
2.591421 0.839693 -0.981733
2.620209 0.852872 -0.932885
2.620472 0.869442 -0.931232
2.590923 0.869900 -0.931833
2.590666 0.853334 -0.933500
2.621266 0.857634 -0.980588
2.621528 0.874205 -0.978935
2.591979 0.874663 -0.979536
2.591723 0.858097 -0.981204
2.590373 0.838508 -0.933807
2.590656 0.855105 -0.933390
2.561113 0.855568 -0.934006
2.560836 0.838974 -0.934424
2.591391 0.839697 -0.981733
2.591674 0.856293 -0.981317
2.562131 0.856756 -0.981932
2.561854 0.840163 -0.982350
2.590636 0.853314 -0.933503
2.590893 0.869880 -0.931836
2.561343 0.870338 -0.932438
2.561094 0.853776 -0.934118
2.591694 0.858118 -0.981202
2.591950 0.874684 -0.979535
2.562401 0.875143 -0.980137
2.562151 0.858581 -0.981817
2.560807 0.838973 -0.934425
2.561083 0.855566 -0.934006
2.531540 0.856029 -0.934622
2.531270 0.839439 -0.935041
2.561825 0.840166 -0.982351
2.562102 0.856759 -0.981933
2.532559 0.857222 -0.982548
2.532288 0.840632 -0.982967
2.561064 0.853757 -0.934121
2.561313 0.870318 -0.932440
2.531764 0.870778 -0.933042
2.531521 0.854219 -0.934737
2.562122 0.858601 -0.981816
2.562372 0.875163 -0.980135
2.532822 0.875622 -0.980737
2.532579 0.859064 -0.982432
2.531240 0.839438 -0.935042
2.531511 0.856028 -0.934623
2.501968 0.856491 -0.935238
2.501704 0.839904 -0.935658
2.532259 0.840634 -0.982968
2.532529 0.857224 -0.982549
2.502987 0.857687 -0.983165
2.502722 0.841101 -0.983585
2.531490 0.854200 -0.934739
2.531734 0.870758 -0.933045
2.502185 0.871217 -0.933648
2.501948 0.854663 -0.935355
2.532550 0.859084 -0.982430
2.532793 0.875642 -0.980736
2.503244 0.876101 -0.981338
2.503007 0.859547 -0.983046
2.501674 0.839904 -0.935659
2.501938 0.856490 -0.935239
2.472396 0.856953 -0.935855
2.472137 0.840370 -0.936276
2.502693 0.841102 -0.983585
2.502957 0.857689 -0.983165
2.473415 0.858152 -0.983781
2.473156 0.841569 -0.984202
2.501917 0.854644 -0.935358
2.502155 0.871198 -0.933650
2.472605 0.871658 -0.934253
2.472375 0.855107 -0.935974
2.502978 0.859567 -0.983044
2.503216 0.876121 -0.981337
2.473666 0.876580 -0.981940
2.473436 0.860030 -0.983661
2.472107 0.840370 -0.936276
2.472366 0.856952 -0.935856
2.442823 0.857416 -0.936473
2.442571 0.840837 -0.936894
2.473127 0.841570 -0.984203
2.473386 0.858153 -0.983782
2.443843 0.858616 -0.984399
2.443591 0.842037 -0.984820
2.472345 0.855088 -0.935977
2.472575 0.871639 -0.934256
2.443026 0.872098 -0.934860
2.442802 0.855552 -0.936593
2.473407 0.860050 -0.983659
2.473638 0.876600 -0.981939
2.444089 0.877060 -0.982543
2.443864 0.860514 -0.984276
2.442541 0.840836 -0.936894
2.442793 0.857415 -0.936473
2.413250 0.857879 -0.937090
2.413005 0.841303 -0.937512
2.443561 0.842039 -0.984821
2.443813 0.858618 -0.984400
2.414271 0.859081 -0.985016
2.414025 0.842506 -0.985438
2.442772 0.855533 -0.936596
2.442996 0.872079 -0.934862
2.413447 0.872539 -0.935467
2.413229 0.855997 -0.937213
2.443835 0.860533 -0.984275
2.444060 0.877079 -0.982541
2.414510 0.877539 -0.983146
2.414292 0.860996 -0.984892
2.413024 0.841388 -0.937509
2.413270 0.857963 -0.937088
2.383727 0.858427 -0.937706
2.383484 0.841852 -0.938009
2.413946 0.842422 -0.985441
2.414192 0.858997 -0.985020
2.384650 0.859461 -0.985638
2.384407 0.842886 -0.985941
2.413198 0.855978 -0.937216
2.413416 0.872521 -0.935469
2.383867 0.872980 -0.936075
2.383656 0.856442 -0.937833
2.414264 0.861016 -0.984890
2.414482 0.877558 -0.983144
