1.552851 0.954203 -0.958357
1.556066 1.065661 -0.939936
1.554725 1.179428 -0.931695
1.555737 1.071071 -0.963249
1.400504 1.074146 -0.961177
1.399860 1.182869 -0.929774
1.554881 1.172751 -0.908668
1.555893 1.064394 -0.940223
1.400660 1.067469 -0.938150
1.400016 1.176192 -0.906747
1.555712 1.069602 -0.963584
1.552498 0.958144 -0.982005
1.397126 0.960969 -0.980400
1.400478 1.072677 -0.961512
1.555916 1.065643 -0.939938
1.552702 0.954185 -0.958359
1.397331 0.957009 -0.956754
1.400683 1.068718 -0.937866
1.399719 1.182856 -0.929777
1.400363 1.074134 -0.961180
1.245130 1.077264 -0.959390
1.244848 1.186332 -0.927954
1.399846 1.176210 -0.906740
1.400490 1.067488 -0.938144
1.245256 1.070618 -0.936354
1.244974 1.179686 -0.904918
1.400327 1.072700 -0.961507
1.396975 0.960991 -0.980395
1.241607 0.963795 -0.978611
1.245094 1.075829 -0.959717
1.400523 1.068702 -0.937867
1.397171 0.956993 -0.956756
1.241803 0.959797 -0.954972
1.245289 1.071831 -0.936078
1.244684 1.186334 -0.927952
1.244966 1.077266 -0.959389
1.089731 1.080388 -0.957540
1.089814 1.189743 -0.925981
1.244828 1.179691 -0.904916
1.245110 1.070622 -0.936352
1.089874 1.073744 -0.934504
1.089958 1.183100 -0.902944
1.244939 1.075835 -0.959715
1.241453 0.963800 -0.978609
1.086084 0.966614 -0.976908
1.089704 1.078957 -0.957866
1.245133 1.071832 -0.936076
1.241646 0.959797 -0.954970
1.086278 0.962611 -0.953270
1.089898 1.074954 -0.934228
1.089665 1.189753 -0.925977
1.089581 1.080397 -0.957537
0.934340 1.083527 -0.955779
0.934798 1.193190 -0.924058
1.089797 1.183097 -0.902944
1.089713 1.073741 -0.934503
0.934472 1.076872 -0.932746
0.934930 1.186534 -0.901024
1.089551 1.078963 -0.957864
1.085931 0.966621 -0.976906
0.930566 0.969432 -0.975172
0.934310 1.082093 -0.956107
1.089740 1.074953 -0.934227
1.086120 0.962611 -0.953269
0.930755 0.965423 -0.951534
0.934499 1.078084 -0.932469
0.934635 1.193195 -0.924055
0.934178 1.083533 -0.955777
0.778940 1.086638 -0.953874
0.779768 1.196610 -0.922096
0.934782 1.186535 -0.901023
0.934324 1.076873 -0.932745
0.779087 1.079978 -0.930842
0.779914 1.189950 -0.899063
0.934154 1.082108 -0.956103
0.930411 0.969447 -0.975168
0.775041 0.972269 -0.973575
0.778917 1.085213 -0.954200
0.934343 1.078075 -0.932470
0.930600 0.965414 -0.951534
0.775230 0.968236 -0.949942
0.779106 1.081180 -0.930567
0.779610 1.196616 -0.922093
0.778782 1.086644 -0.953871
0.623545 1.089743 -0.951998
0.624738 1.200015 -0.920047
0.779761 1.189950 -0.899062
0.778934 1.079978 -0.930841
0.623697 1.083077 -0.928968
0.624889 1.193350 -0.897016
0.778760 1.085237 -0.954195
0.774884 0.972293 -0.973570
0.619518 0.975104 -0.971899
0.623523 1.088336 -0.952322
0.778952 1.081161 -0.930568
0.775076 0.968217 -0.949943
0.619710 0.971028 -0.948273
0.623714 1.084261 -0.928696
0.624575 1.200022 -0.920043
0.623383 1.089750 -0.951995
0.468142 1.092818 -0.949980
0.469712 1.203398 -0.917953
0.624741 1.193349 -0.897015
0.623549 1.083077 -0.928967
0.468308 1.086145 -0.926952
0.469878 1.196725 -0.894925
0.623356 1.088354 -0.952317
0.619351 0.975122 -0.971895
0.463992 0.977888 -0.970068
0.468115 1.091422 -0.950302
0.623571 1.084248 -0.928697
0.619567 0.971016 -0.948274
0.464207 0.973782 -0.946447
0.468330 1.087316 -0.926682
0.469557 1.203397 -0.917952
0.467987 1.092816 -0.949980
0.312754 1.095867 -0.947935
0.314687 1.206792 -0.915896
0.469723 1.196733 -0.894922
0.468153 1.086152 -0.926949
0.312920 1.089203 -0.924905
0.314853 1.200128 -0.892866
0.467955 1.091436 -0.950299
0.463832 0.977902 -0.970064
0.308464 0.980649 -0.968146
0.312722 1.094486 -0.948254
0.468179 1.087308 -0.926682
0.464056 0.973775 -0.946447
0.308688 0.976521 -0.944529
0.312946 1.090359 -0.924637
0.314534 1.206790 -0.915896
0.312600 1.095865 -0.947935
0.157368 1.098932 -0.945947
0.159666 1.210171 -0.913840
0.314696 1.200136 -0.892862
0.312762 1.089211 -0.924901
0.157530 1.092279 -0.922913
0.159828 1.203517 -0.890806
0.312921 1.094930 -0.948167
0.308663 0.981092 -0.968059
0.159891 0.983202 -0.975183
0.157688 1.097997 -0.946179
0.312439 1.089921 -0.924725
0.308182 0.976083 -0.944617
0.159410 0.978193 -0.951741
0.157207 1.092988 -0.922737
0.159513 1.210174 -0.913838
0.157215 1.098936 -0.945945
0.001976 1.102010 -0.944003
0.004651 1.213560 -0.911783
0.159671 1.203520 -0.890804
0.157373 1.092282 -0.922911
0.002134 1.095356 -0.920969
0.004809 1.206906 -0.888750
0.157120 1.098321 -0.946107
0.159324 0.983526 -0.975111
0.010737 0.987286 -0.970834
0.001882 1.101395 -0.944165
0.157470 1.092671 -0.922809
0.159673 0.977876 -0.951813
0.011087 0.981637 -0.947535
0.002232 1.095745 -0.920867
0.004501 1.213562 -0.911782
0.001826 1.102012 -0.944001
-0.153405 1.105097 -0.942083
-0.150368 1.216972 -0.909828
0.004649 1.206911 -0.888747
0.001974 1.095361 -0.920967
-0.153257 1.098446 -0.919048
-0.150219 1.210322 -0.886794
0.001573 1.100979 -0.944252
0.010428 0.986871 -0.970920
-0.158322 0.989319 -0.962687
-0.153658 1.104065 -0.942333
0.002226 1.096167 -0.920773
0.011082 0.982058 -0.947441
-0.157668 0.984507 -0.939208
-0.153005 1.099252 -0.918854
-0.150521 1.216981 -0.909825
-0.153559 1.105106 -0.942079
-0.308794 1.108221 -0.940286
-0.305385 1.220368 -0.907788
-0.150376 1.210320 -0.886793
-0.153414 1.098444 -0.919048
-0.308649 1.101560 -0.917254
-0.305240 1.213707 -0.884756
-0.153583 1.103761 -0.942392
-0.158247 0.989015 -0.962747
-0.313616 0.991819 -0.961043
-0.308819 1.106876 -0.940599
-0.153398 1.099562 -0.918788
-0.158061 0.984817 -0.939142
-0.313431 0.987621 -0.937438
-0.308633 1.102678 -0.916994
-0.305535 1.220381 -0.907783
-0.308945 1.108234 -0.940281
-0.464182 1.111350 -0.938475
-0.460401 1.223800 -0.905864
-0.305399 1.213701 -0.884757
-0.308809 1.101554 -0.917255
-0.464046 1.104671 -0.915449
-0.460265 1.217121 -0.882838
-0.308972 1.106887 -0.940596
-0.313770 0.991829 -0.961040
-0.469138 0.994645 -0.959399
-0.464209 1.110003 -0.938790
-0.308790 1.102674 -0.916994
-0.313588 0.987616 -0.937437
-0.468957 0.990432 -0.935796
-0.464027 1.105790 -0.915188
-0.460562 1.223813 -0.905860
-0.464342 1.111363 -0.938471
-0.619579 1.114475 -0.936661
-0.615427 1.227196 -0.903807
-0.460415 1.217115 -0.882839
-0.464196 1.104665 -0.915450
-0.619433 1.107777 -0.913640
-0.615281 1.220498 -0.880786
-0.464363 1.110018 -0.938786
-0.469293 0.994660 -0.959395
-0.624660 0.997475 -0.957768
-0.619601 1.113130 -0.936976
-0.464183 1.105781 -0.915188
-0.469113 0.990423 -0.935797
-0.624479 0.993238 -0.934170
-0.619420 1.108893 -0.913378
-0.615582 1.227203 -0.903804
-0.619734 1.114482 -0.936658
-0.774973 1.117568 -0.934733
-0.770446 1.230625 -0.901869
-0.615436 1.220497 -0.880785
-0.619588 1.107776 -0.913639
-0.774828 1.110862 -0.911714
-0.770300 1.223919 -0.878851
-0.619755 1.113159 -0.936970
-0.624814 0.997504 -0.957761
-0.780181 1.000339 -0.956275
-0.774994 1.116245 -0.935045
-0.619577 1.108870 -0.913381
-0.624636 0.993215 -0.934173
-0.780004 0.996051 -0.932686
-0.774817 1.111957 -0.911456
-0.775302 1.297727 -0.854642
-0.811298 1.302570 -0.850645
-0.817426 1.304212 -0.785636
-0.774359 1.303127 -0.785906
-0.777028 1.273843 -0.853451
-0.813024 1.278685 -0.849455
-0.819153 1.280328 -0.784445
-0.776085 1.279243 -0.784715
-0.825624 1.301181 -0.788330
-0.819495 1.299539 -0.853339
-0.837638 1.260617 -0.871883
-0.870436 1.278582 -0.797071
-0.811026 1.283331 -0.781763
-0.804898 1.281688 -0.846772
-0.823041 1.242767 -0.865316
-0.855838 1.260732 -0.790504
-0.777131 1.291713 -0.864454
-0.771439 1.233321 -0.900678
-0.831270 1.257634 -0.879001
-0.813127 1.296555 -0.860457
-0.775202 1.279805 -0.843733
-0.769511 1.221413 -0.879958
-0.829342 1.245726 -0.858281
-0.811199 1.284647 -0.839737
0.768365 0.749710 -0.984784
0.688604 0.741708 -0.990343
0.663365 0.797290 -0.999485
0.769005 0.859541 -0.987559
0.765627 0.751016 -0.961001
0.685866 0.743014 -0.966560
0.660627 0.798596 -0.975702
0.766267 0.860847 -0.963776
0.619561 0.976467 -0.971573
0.511675 0.886120 -0.997539
0.392661 0.897143 -0.998731
0.464201 0.979234 -0.969746
0.619263 0.969471 -0.948643
0.511377 0.879124 -0.974609
0.392363 0.890146 -0.975801
0.463903 0.972237 -0.946816
0.392338 0.897721 -0.998541
0.271658 0.901338 -0.997272
0.308511 0.982559 -0.967637
0.463878 0.979812 -0.969555
0.392410 0.889578 -0.975990
0.271730 0.893195 -0.974721
0.308583 0.974416 -0.945087
0.463951 0.971669 -0.947005
0.271925 0.900848 -0.997433
0.163897 0.901104 -0.997755
0.160006 0.984178 -0.974923
0.308778 0.982068 -0.967799
0.271196 0.893690 -0.974562
0.163168 0.893947 -0.974884
0.159277 0.977021 -0.952052
0.308049 0.974911 -0.944928
0.163075 0.900566 -0.997911
0.057151 0.893339 -0.995869
0.010598 0.987400 -0.970802
0.159185 0.983640 -0.975079
0.163733 0.894484 -0.974728
0.057810 0.887258 -0.972687
0.011257 0.981319 -0.947619
0.159843 0.977559 -0.951896
-0.032227 0.863153 -0.989427
-0.064277 0.837626 -0.986760
-0.171329 0.875086 -0.974527
-0.159200 0.987909 -0.962846
-0.029880 0.860857 -0.965677
-0.061930 0.835329 -0.963010
-0.168982 0.872789 -0.950777
-0.156853 0.985612 -0.939096
1.708277 0.716385 -0.973241
1.553137 0.719201 -0.972939
1.555629 0.730312 -0.978409
1.713179 0.727255 -0.977185
1.708388 0.725792 -0.951188
1.553249 0.728608 -0.950886
1.555741 0.739718 -0.956355
1.713291 0.736662 -0.955132
1.552954 0.718115 -0.972408
1.397835 0.720922 -0.972054
1.397887 0.732292 -0.979013
1.555446 0.729225 -0.977877
1.553119 0.729701 -0.951418
1.398000 0.732508 -0.951064
1.398052 0.743878 -0.958023
1.555611 0.740811 -0.956887
1.397658 0.720027 -0.971506
1.242523 0.722841 -0.971102
1.240162 0.734449 -0.979576
1.397710 0.731397 -0.978465
1.397864 0.733409 -0.951613
1.242729 0.736223 -0.951209
1.240368 0.747831 -0.959683
1.397916 0.744779 -0.958572
1.242352 0.722102 -0.970561
1.087230 0.724919 -0.970176
1.082437 0.736770 -0.980154
1.239991 0.733710 -0.979035
1.242587 0.736968 -0.951751
1.087465 0.739785 -0.951367
1.082672 0.751636 -0.961344
1.240227 0.748576 -0.960226
1.087060 0.724311 -0.969660
0.931930 0.727129 -0.969248
0.924715 0.739203 -0.980747
1.082267 0.736162 -0.979637
1.087322 0.740399 -0.951884
0.932191 0.743217 -0.951473
0.924976 0.755291 -0.962972
1.082529 0.752250 -0.961862
0.931758 0.726634 -0.968770
0.776628 0.729457 -0.968305
0.766979 0.741776 -0.981290
0.924543 0.738708 -0.980270
0.932050 0.743718 -0.951951
0.776920 0.746541 -0.951486
0.767271 0.758860 -0.964470
0.924835 0.755792 -0.963450
1.707042 0.693515 -0.966660
1.704017 0.678132 -0.980675
1.541957 0.680909 -0.980969
1.553165 0.696345 -0.966688
1.706737 0.677378 -0.948931
1.703713 0.661994 -0.962945
1.541653 0.664772 -0.963240
1.552861 0.680207 -0.948958
1.553003 0.696381 -0.966657
1.541795 0.680945 -0.980939
1.379779 0.683726 -0.981171
1.399103 0.699196 -0.966595
1.552707 0.680177 -0.948989
1.541499 0.664741 -0.963270
1.379483 0.667522 -0.963502
1.398806 0.682992 -0.948926
1.398948 0.699235 -0.966562
1.379624 0.683765 -0.981137
1.217574 0.686558 -0.981406
1.245064 0.702063 -0.966533
1.398645 0.682959 -0.948960
1.379321 0.667488 -0.963536
1.217271 0.670281 -0.963804
1.244761 0.685786 -0.948931
1.244901 0.702103 -0.966498
1.217412 0.686598 -0.981371
1.055381 0.689380 -0.981536
1.091005 0.704919 -0.966400
1.244608 0.685751 -0.948966
1.217118 0.670247 -0.963839
1.055088 0.673029 -0.964003
1.090712 0.688568 -0.948867
1.090852 0.704953 -0.966371
1.055228 0.689414 -0.981507
0.893196 0.692216 -0.981771
0.936962 0.707794 -0.966301
1.090549 0.688540 -0.948896
1.054924 0.673001 -0.964032
0.892892 0.675803 -0.964296
0.936658 0.691381 -0.948826
0.936674 0.707435 -0.966627
0.892908 0.691858 -0.982097
0.712619 0.694557 -0.978431
0.782788 0.710243 -0.966510
0.936621 0.691745 -0.948498
0.892855 0.676168 -0.963968
0.712566 0.678867 -0.960302
0.782735 0.694553 -0.948380
0.776743 0.737087 -0.971843
0.931872 0.734264 -0.972308
0.936635 0.698728 -0.969512
0.782748 0.701536 -0.969394
0.776820 0.738863 -0.947933
0.931950 0.736040 -0.948398
0.936712 0.700503 -0.945602
0.782826 0.703311 -0.945484
0.932029 0.734148 -0.972299
1.087159 0.731330 -0.972711
1.090681 0.695771 -0.969573
0.936791 0.698611 -0.969503
0.932103 0.736150 -0.948407
1.087233 0.733333 -0.948819
1.090755 0.697773 -0.945681
0.936865 0.700614 -0.945611
1.087312 0.731224 -0.972702
1.242434 0.728407 -0.973087
1.244730 0.692848 -0.969663
1.090834 0.695665 -0.969564
1.087390 0.733433 -0.948828
1.242512 0.730616 -0.949213
1.244808 0.695057 -0.945789
1.090912 0.697874 -0.945690
1.242589 0.728296 -0.973076
1.397724 0.725482 -0.973480
1.398768 0.689910 -0.969682
1.244885 0.692737 -0.969653
1.242666 0.730722 -0.949224
1.397801 0.727908 -0.949628
1.398846 0.692335 -0.945829
1.244962 0.695163 -0.945800
1.397877 0.725371 -0.973469
1.552996 0.722563 -0.973823
1.552822 0.686983 -0.969733
1.398922 0.689798 -0.969670
1.397957 0.728014 -0.949639
1.553076 0.725206 -0.949993
1.552903 0.689626 -0.945903
1.399002 0.692441 -0.945840
1.553154 0.722459 -0.973811
1.708294 0.719643 -0.974113
1.706857 0.684050 -0.969694
1.552981 0.686879 -0.969721
1.553227 0.725304 -0.950005
1.708367 0.722488 -0.950307
1.706930 0.686894 -0.945887
1.553054 0.689724 -0.945915
1.708060 0.953685 -0.983912
1.705175 0.842756 -0.987068
1.542400 0.845888 -0.987183
1.552698 0.956495 -0.982175
1.708165 0.952796 -0.959953
1.705280 0.841866 -0.963109
1.542505 0.844999 -0.963224
1.552803 0.955605 -0.958216
1.705262 0.841296 -0.987040
1.713264 0.731115 -0.978119
1.555714 0.734171 -0.979342
1.542487 0.844428 -0.987155
1.705197 0.843105 -0.963132
1.713199 0.732924 -0.954211
1.555649 0.735980 -0.955435
1.542422 0.846237 -0.963248
1.552547 0.956689 -0.982165
1.542249 0.846082 -0.987174
1.395454 0.848901 -0.987257
1.397175 0.959514 -0.980561
1.552644 0.955417 -0.958223
1.542346 0.844810 -0.963232
1.395551 0.847629 -0.963315
1.397272 0.958242 -0.956619
1.542331 0.844547 -0.987164
1.555558 0.734290 -0.979351
1.397999 0.737357 -0.980487
1.395536 0.847366 -0.987247
1.542266 0.846125 -0.963240
1.555493 0.735868 -0.955427
1.397934 0.738935 -0.956563
1.395471 0.848944 -0.963324
1.397024 0.959712 -0.980548
1.395303 0.849100 -0.987244
1.240517 0.852077 -0.987420
1.241656 0.962516 -0.978764
1.397117 0.958050 -0.956630
1.395396 0.847437 -0.963326
1.240610 0.850415 -0.963502
1.241749 0.960853 -0.954846
1.395385 0.847473 -0.987255
1.397848 0.737464 -0.980494
1.240300 0.740516 -0.981605
1.240599 0.850451 -0.987430
1.395313 0.848842 -0.963318
1.397776 0.738833 -0.956557
1.240228 0.741885 -0.957668
1.240527 0.851820 -0.963494
1.241501 0.962717 -0.978748
1.240362 0.852278 -0.987404
1.085578 0.855244 -0.987409
1.086133 0.965531 -0.977047
1.241593 0.960658 -0.954860
1.240454 0.850219 -0.963517
1.085670 0.853185 -0.963522
1.086225 0.963472 -0.953160
1.240439 0.850564 -0.987437
1.240140 0.740629 -0.981612
1.082586 0.743689 -0.982730
1.085655 0.853530 -0.987442
1.240375 0.851713 -0.963489
1.240076 0.741779 -0.957663
1.082522 0.744839 -0.958782
1.085591 0.854679 -0.963493
1.085985 0.965726 -0.977028
1.085430 0.855440 -0.987390
0.930645 0.858416 -0.987517
0.930620 0.968538 -0.975294
1.086063 0.963282 -0.953177
1.085508 0.852996 -0.963539
0.930723 0.855971 -0.963666
0.930698 0.966094 -0.951443
1.085505 0.853646 -0.987447
1.082436 0.743805 -0.982736
0.924883 0.746846 -0.983846
0.930720 0.856621 -0.987575
1.085428 0.854570 -0.963489
1.082359 0.744729 -0.958778
0.924806 0.747770 -0.959888
0.930643 0.857545 -0.963616
0.930471 0.968733 -0.975272
0.930496 0.858610 -0.987495
0.767735 0.861734 -0.987562
0.775101 0.971555 -0.973679
0.930532 0.965905 -0.951463
0.930557 0.855782 -0.963687
0.767797 0.858906 -0.963754
0.775162 0.968727 -0.949870
0.930557 0.856731 -0.987579
0.924720 0.746955 -0.983850
0.767156 0.750023 -0.984871
0.767796 0.859854 -0.987646
0.930490 0.857442 -0.963613
0.924653 0.747667 -0.959885
0.767089 0.750735 -0.960905
0.767729 0.860566 -0.963680
0.778956 0.737275 -0.971641
0.784962 0.701723 -0.969193
0.714793 0.686037 -0.981115
0.689546 0.741592 -0.990185
0.774372 0.738672 -0.948149
0.780378 0.703121 -0.945701
0.710209 0.687435 -0.957623
0.684962 0.742989 -0.966693
0.778088 0.729909 -0.968631
0.688678 0.734226 -0.987174
0.768439 0.742228 -0.981616
0.775248 0.746090 -0.951168
0.685838 0.750407 -0.969712
0.765598 0.758409 -0.964153
0.009790 0.882292 -0.993717
0.009722 0.986886 -0.970872
0.056275 0.892825 -0.995939
0.012058 0.877200 -0.970399
0.011990 0.981794 -0.947553
0.058543 0.887733 -0.972620
0.009994 0.881817 -0.993828
-0.031851 0.864105 -0.989331
-0.158824 0.988860 -0.962750
0.009926 0.986411 -0.970983
0.011717 0.877695 -0.970272
-0.030128 0.859982 -0.965775
-0.157101 0.984737 -0.939194
0.011649 0.982289 -0.947427
0.555844 0.877435 -1.000952
0.511400 0.886123 -0.997537
0.619286 0.976470 -0.971571
0.556228 0.870391 -0.978037
0.511784 0.879078 -0.974622
0.619669 0.969425 -0.948656
0.596993 0.861031 -1.002005
0.556936 0.876789 -1.001099
0.620378 0.975823 -0.971718
0.595249 0.855264 -0.978798
0.555192 0.871021 -0.977893
0.618634 0.970056 -0.948512
0.597201 0.859365 -1.002285
0.768585 0.861525 -0.987553
0.632890 0.832489 -1.002136
0.595191 0.856827 -0.978529
0.766575 0.858988 -0.963796
0.630879 0.829952 -0.978380
0.633151 0.831373 -1.002179
0.768846 0.860408 -0.987595
0.663207 0.798157 -0.999521
0.630662 0.831028 -0.978335
0.766358 0.860064 -0.963751
0.660718 0.797813 -0.975677
0.775445 0.972391 -0.973543
0.768079 0.862571 -0.987426
0.596695 0.860410 -1.002159
0.620080 0.975202 -0.971872
0.774495 0.967894 -0.950012
0.767130 0.858073 -0.963895
0.595745 0.855913 -0.978628
0.619130 0.970704 -0.948341
-0.090839 0.803900 -0.981943
-0.171700 0.873358 -0.974531
-0.064648 0.835898 -0.986765
-0.087755 0.804956 -0.958189
-0.168616 0.874413 -0.950778
-0.061564 0.836953 -0.963011
-0.090564 0.803949 -0.981977
-0.113736 0.752754 -0.976068
-0.194662 0.769390 -0.969927
-0.171424 0.873407 -0.974565
-0.088098 0.804831 -0.958144
-0.111271 0.753636 -0.952236
-0.192196 0.770272 -0.946095
-0.168959 0.874289 -0.950733
-0.200883 0.752012 -0.961398
-0.195344 0.764519 -0.968605
-0.114418 0.747883 -0.974746
-0.197107 0.762556 -0.940198
-0.191568 0.775063 -0.947405
-0.110642 0.758426 -0.953546
-0.114372 0.752610 -0.975977
-0.137539 0.701413 -0.970079
-0.211235 0.721096 -0.959488
-0.200837 0.756739 -0.962629
-0.110680 0.753646 -0.952310
-0.133847 0.702450 -0.946412
-0.207544 0.722132 -0.935821
-0.197145 0.757775 -0.938962
-0.620129 1.300592 -0.788548
-0.620777 1.294910 -0.857435
-0.775875 1.297730 -0.855013
-0.774933 1.303130 -0.786277
-0.620513 1.276696 -0.786620
-0.621161 1.271015 -0.855506
-0.776259 1.273835 -0.853084
-0.775317 1.279234 -0.784349
-0.620984 1.289194 -0.866744
-0.615527 1.230200 -0.902481
-0.770391 1.233622 -0.900547
-0.776082 1.292015 -0.864322
-0.620949 1.276666 -0.846302
-0.615492 1.217672 -0.882039
-0.770356 1.221094 -0.880104
-0.776047 1.279486 -0.843880
-0.465163 1.298010 -0.790908
-0.465520 1.292019 -0.859987
-0.620619 1.294903 -0.857485
-0.619972 1.300585 -0.788598
-0.465553 1.274123 -0.788884
-0.465909 1.268132 -0.857964
-0.621008 1.271016 -0.855461
-0.620361 1.276698 -0.786575
-0.465739 1.286205 -0.869311
-0.460516 1.226712 -0.904598
-0.615381 1.230095 -0.902545
-0.620838 1.289089 -0.866809
-0.465686 1.273881 -0.848745
-0.460462 1.214388 -0.884032
-0.615328 1.217771 -0.881979
-0.620785 1.276765 -0.846242
-0.310204 1.295465 -0.793265
-0.310263 1.289127 -0.862590
-0.465367 1.292012 -0.860042
-0.465010 1.298003 -0.790963
-0.310589 1.271586 -0.791137
-0.310648 1.265248 -0.860461
-0.465752 1.268134 -0.857914
-0.465395 1.274125 -0.788835
-0.310479 1.283208 -0.871925
-0.305494 1.223180 -0.906584
-0.460360 1.226600 -0.904665
-0.465583 1.286093 -0.869377
-0.310427 1.271101 -0.851230
-0.305442 1.211074 -0.885889
-0.460308 1.214494 -0.883970
-0.465531 1.273987 -0.848683
-0.155253 1.292885 -0.795636
-0.154988 1.286336 -0.865049
-0.310111 1.289120 -0.862636
-0.310052 1.295458 -0.793311
-0.155632 1.269014 -0.793419
-0.155367 1.262465 -0.862832
-0.310490 1.265250 -0.860420
-0.310431 1.271588 -0.791095
-0.155206 1.280313 -0.874402
-0.150481 1.219682 -0.908685
-0.305344 1.223069 -0.906648
-0.310329 1.283097 -0.871990
-0.155144 1.268422 -0.853583
-0.150419 1.207791 -0.887866
-0.305282 1.211178 -0.885829
-0.310267 1.271206 -0.851170
-0.000279 1.290335 -0.797992
0.000281 1.283437 -0.867642
-0.154831 1.286329 -0.865095
-0.155096 1.292878 -0.795682
-0.000661 1.266473 -0.795687
-0.000102 1.259576 -0.865337
-0.155213 1.262467 -0.862791
-0.155479 1.269016 -0.793377
0.000059 1.277313 -0.877010
0.004541 1.216163 -0.910700
-0.150328 1.219574 -0.908747
-0.155053 1.280205 -0.874464
0.000125 1.265632 -0.856073
0.004607 1.204482 -0.889762
-0.150261 1.207893 -0.887809
-0.154986 1.268523 -0.853526
0.154681 1.287734 -0.800385
0.155565 1.280540 -0.870226
0.000437 1.283430 -0.867695
-0.000123 1.290327 -0.798045
0.154297 1.263883 -0.797979
0.155181 1.256688 -0.867820
0.000053 1.259578 -0.865289
-0.000507 1.266475 -0.795639
0.155336 1.274313 -0.879603
0.159551 1.212667 -0.912816
0.004689 1.216053 -0.910762
0.000207 1.277203 -0.877072
0.155415 1.262846 -0.858547
0.159630 1.201200 -0.891760
0.004769 1.204586 -0.889706
0.000287 1.265736 -0.856016
0.309636 1.285155 -0.802737
0.310854 1.277713 -0.872704
0.155716 1.280533 -0.870271
0.154832 1.287727 -0.800430
0.309259 1.261312 -0.800247
0.310478 1.253870 -0.870213
0.155339 1.256690 -0.867780
0.154455 1.263884 -0.797939
0.310628 1.271396 -0.882089
0.314573 1.209189 -0.914925
0.159706 1.212569 -0.912869
0.155490 1.274216 -0.879656
0.310709 1.260118 -0.860931
0.314654 1.197911 -0.893768
0.159786 1.201291 -0.891712
0.155571 1.262938 -0.858498
0.464592 1.282553 -0.805098
0.466145 1.274786 -0.875252
0.311013 1.277706 -0.872751
0.309795 1.285147 -0.802784
0.464208 1.258720 -0.802518
0.465761 1.250952 -0.872672
0.310629 1.253872 -0.870171
0.309411 1.261314 -0.800205
0.465912 1.268381 -0.884641
0.469595 1.205699 -0.917032
0.314726 1.209094 -0.914976
0.310780 1.271301 -0.882139
0.465999 1.257286 -0.863386
0.469682 1.194604 -0.895778
0.314812 1.197999 -0.893722
0.310867 1.260206 -0.860885
0.619535 1.279990 -0.807421
0.621439 1.271823 -0.877787
0.466299 1.274777 -0.875310
0.464746 1.282544 -0.805156
0.619153 1.256169 -0.804729
0.621056 1.248001 -0.875095
0.465917 1.250955 -0.872618
0.464364 1.258723 -0.802464
0.621204 1.265337 -0.887164
0.624612 1.202233 -0.919169
0.469748 1.205609 -0.917079
0.466065 1.268291 -0.884688
0.621296 1.254416 -0.865821
0.624703 1.191311 -0.897825
0.469839 1.194687 -0.895735
0.466156 1.257370 -0.863344
0.774495 1.277402 -0.809747
0.776722 1.268862 -0.880294
0.621594 1.271813 -0.877849
0.619690 1.279981 -0.807483
0.774113 1.253594 -0.806935
0.776340 1.245054 -0.877482
0.621212 1.248005 -0.875038
0.619308 1.256173 -0.804671
0.776489 1.262301 -0.889653
0.779640 1.198748 -0.921259
0.624767 1.202148 -0.919213
0.621360 1.265252 -0.887208
0.776579 1.251544 -0.868226
0.779730 1.187991 -0.899832
0.624857 1.191391 -0.897786
0.621450 1.254495 -0.865781
0.929449 1.274844 -0.812071
0.932013 1.265929 -0.882826
0.776874 1.268852 -0.880354
0.774647 1.277392 -0.809806
0.929074 1.251051 -0.809144
0.931638 1.242135 -0.879899
0.776499 1.245058 -0.877427
0.774272 1.253598 -0.806880
0.931782 1.259281 -0.892173
0.934662 1.195237 -0.923267
0.779794 1.198652 -0.921308
0.776643 1.262204 -0.889701
0.931874 1.248711 -0.870654
0.934753 1.184667 -0.901748
0.779886 1.188081 -0.899788
0.776735 1.251634 -0.868181
1.084399 1.272277 -0.814387
1.087334 1.263086 -0.885212
0.932165 1.265920 -0.882878
0.929601 1.274836 -0.812123
1.084030 1.248495 -0.811360
1.086965 1.239305 -0.882185
0.931796 1.242139 -0.879851
0.929232 1.251054 -0.809096
1.087109 1.256345 -0.894558
1.089686 1.191698 -0.925237
0.934819 1.195135 -0.923318
0.931940 1.259179 -0.892224
1.087195 1.245972 -0.872941
1.089773 1.181326 -0.903621
0.934906 1.184763 -0.901702
0.932027 1.248807 -0.870608
1.239358 1.269702 -0.816677
1.242642 1.260140 -0.887701
1.087492 1.263077 -0.885264
1.084557 1.272268 -0.814439
1.238983 1.245934 -0.813551
1.242268 1.236372 -0.884575
1.087117 1.239309 -0.882138
1.084182 1.248499 -0.811313
1.242408 1.253310 -0.897042
1.244704 1.188191 -0.927256
1.089835 1.191600 -0.925285
1.087257 1.256247 -0.894605
1.242508 1.243128 -0.875335
1.244805 1.178009 -0.905550
1.089935 1.181418 -0.903578
1.087357 1.246064 -0.872899
1.394308 1.267163 -0.818972
1.397954 1.257180 -0.890166
1.242796 1.260130 -0.887763
1.239511 1.269692 -0.816739
1.393937 1.243411 -0.815726
1.397582 1.233428 -0.886920
1.242424 1.236377 -0.884517
1.239140 1.245939 -0.813493
1.397726 1.250254 -0.899494
1.399736 1.184608 -0.929129
1.244865 1.188084 -0.927306
1.242568 1.253204 -0.897092
1.397816 1.240279 -0.877692
1.399827 1.174633 -0.907327
1.244955 1.178109 -0.905504
1.242658 1.243228 -0.875290
1.549262 1.264596 -0.821226
1.553279 1.254192 -0.892599
1.398110 1.257169 -0.890232
1.394465 1.267151 -0.819038
1.548888 1.240861 -0.817852
1.552905 1.230458 -0.889225
1.397736 1.233434 -0.886858
1.394091 1.243417 -0.815665
1.553045 1.247173 -0.901909
1.554752 1.181062 -0.931098
1.399886 1.184503 -0.929177
1.397876 1.250149 -0.899542
1.553145 1.237401 -0.880015
1.554852 1.171291 -0.909204
1.399987 1.174732 -0.907283
1.397976 1.240378 -0.877648
1.708359 1.244069 -0.904253
1.709757 1.177608 -0.933263
1.554899 1.180991 -0.931130
1.553193 1.247101 -0.901942
1.708475 1.234433 -0.882298
1.709872 1.167973 -0.911309
1.555015 1.171356 -0.909176
1.553308 1.237466 -0.879987
1.720396 0.396220 -0.004569
1.719682 0.397402 -0.141066
1.717252 0.468491 -0.156747
1.717618 0.467148 -0.003938
1.696436 0.395349 -0.004487
1.695722 0.396532 -0.140984
1.693292 0.467621 -0.156665
1.693658 0.466277 -0.003856
1.717625 0.466767 -0.003925
1.717259 0.468110 -0.156734
1.717716 0.585500 -0.162094
1.717942 0.584107 -0.002893
1.693649 0.466847 -0.003879
1.693283 0.468190 -0.156688
1.693740 0.585580 -0.162048
1.693966 0.584187 -0.002846
1.717938 0.583883 -0.002890
1.717712 0.585277 -0.162091
1.721484 0.703518 -0.161567
1.721694 0.702113 -0.001867
1.693974 0.584646 -0.002851
1.693748 0.586040 -0.162052
1.697520 0.704281 -0.161528
1.697730 0.702876 -0.001828
1.721694 0.702993 -0.001866
1.721484 0.704399 -0.161565
1.717535 0.826811 -0.163060
1.717904 0.825383 -0.000777
1.697730 0.702236 -0.001829
1.697520 0.703641 -0.161529
1.693571 0.826053 -0.163023
1.693940 0.824626 -0.000741
1.717907 0.824890 -0.000789
1.717537 0.826318 -0.163071
1.720009 0.951346 -0.161441
1.720407 0.949925 0.000301
1.693936 0.825366 -0.000728
1.693566 0.826794 -0.163010
1.696038 0.951821 -0.161380
1.696436 0.950401 0.000362
1.720409 0.949997 0.000306
1.720010 0.951418 -0.161436
1.723074 1.074979 -0.157120
1.723343 1.073585 0.001387
1.696440 0.950578 0.000361
1.696041 0.951998 -0.161381
1.699105 1.075559 -0.157065
1.699374 1.074165 0.001442
1.723343 1.074289 0.001411
1.723074 1.075682 -0.157096
1.720418 1.189886 -0.150731
1.720385 1.188536 0.002421
1.699374 1.073699 0.001424
1.699106 1.075093 -0.157083
1.696450 1.189297 -0.150718
1.696416 1.187947 0.002433
1.719932 1.191570 0.002544
1.719965 1.192920 -0.150608
1.705252 1.248616 -0.137742
1.703085 1.247705 0.003042
1.696851 1.185083 0.002321
1.696884 1.186433 -0.150831
1.682172 1.242129 -0.137965
1.680005 1.241218 0.002820
1.719682 0.397384 -0.141185
1.719518 0.398589 -0.277685
1.716956 0.469811 -0.309681
1.717252 0.468473 -0.156866
1.695721 0.396553 -0.141154
1.695557 0.397759 -0.277655
1.692994 0.468981 -0.309650
1.693291 0.467642 -0.156836
1.717258 0.468094 -0.156883
1.716962 0.469433 -0.309697
1.717609 0.586882 -0.321431
1.717716 0.585484 -0.162243
1.693283 0.468209 -0.156851
1.692986 0.469548 -0.309665
1.693633 0.586997 -0.321399
1.693740 0.585599 -0.162211
1.717712 0.585292 -0.162253
1.717606 0.586689 -0.321441
1.721099 0.704936 -0.321440
1.721484 0.703533 -0.161729
1.693747 0.586028 -0.162209
1.693641 0.587426 -0.321398
1.697134 0.705672 -0.321397
1.697519 0.704269 -0.161685
1.721483 0.704401 -0.161729
1.721098 0.705804 -0.321440
1.717279 0.828239 -0.325500
1.717534 0.826813 -0.163223
1.697519 0.703642 -0.161688
1.697134 0.705045 -0.321399
1.693315 0.827479 -0.325459
1.693570 0.826054 -0.163182
1.717537 0.826323 -0.163226
1.717282 0.827748 -0.325503
1.719707 0.952776 -0.323341
1.720009 0.951351 -0.161595
1.693566 0.826791 -0.163180
1.693311 0.828217 -0.325457
1.695736 0.953244 -0.323296
1.696037 0.951819 -0.161550
1.720010 0.951413 -0.161594
1.719708 0.952838 -0.323340
1.722771 1.076366 -0.315785
1.723074 1.074974 -0.157278
1.696041 0.952005 -0.161544
1.695740 0.953430 -0.323289
1.698802 1.076958 -0.315735
1.699105 1.075566 -0.157227
1.723075 1.075653 -0.157255
1.722772 1.077045 -0.315762
1.720411 1.191209 -0.304044
1.720419 1.189857 -0.150890
1.699105 1.075125 -0.157235
1.698802 1.076517 -0.315743
1.696441 1.190681 -0.304024
1.696449 1.189329 -0.150871
1.720081 1.192483 -0.150758
1.720073 1.193835 -0.303912
1.707917 1.249201 -0.302640
1.705368 1.248178 -0.137893
1.696771 1.186873 -0.150987
1.696763 1.188224 -0.304140
1.684607 1.243591 -0.302868
1.682058 1.242568 -0.138121
1.719518 0.398602 -0.277848
1.719155 0.399803 -0.414357
1.716414 0.471177 -0.462652
1.716955 0.469824 -0.309844
1.695557 0.397748 -0.277781
1.695194 0.398950 -0.414289
1.692453 0.470323 -0.462585
1.692994 0.468970 -0.309776
1.716961 0.469453 -0.309906
1.716420 0.470805 -0.462715
1.716367 0.588311 -0.480829
1.717608 0.586902 -0.321640
1.692986 0.469531 -0.309769
1.692445 0.470884 -0.462577
1.692391 0.588389 -0.480691
1.693633 0.586980 -0.321503
1.717604 0.586672 -0.321652
1.716363 0.588082 -0.480840
1.720494 0.706318 -0.481358
1.721097 0.704919 -0.321651
1.693641 0.587445 -0.321506
1.692399 0.588855 -0.480695
1.696531 0.707090 -0.481213
1.697134 0.705692 -0.321505
1.721098 0.705788 -0.321615
1.720495 0.707186 -0.481322
1.716887 0.829654 -0.487953
1.717279 0.828222 -0.325675
1.697133 0.705064 -0.321547
1.696530 0.706463 -0.481255
1.692922 0.828930 -0.487886
1.693314 0.827498 -0.325607
1.717282 0.827749 -0.325671
1.716889 0.829181 -0.487950
1.719372 0.954199 -0.485255
1.719707 0.952777 -0.323510
1.693310 0.828219 -0.325613
1.692918 0.829651 -0.487892
1.695400 0.954669 -0.485197
1.695735 0.953246 -0.323452
1.719708 0.952828 -0.323493
1.719373 0.954250 -0.485239
1.722688 1.077748 -0.474444
1.722770 1.076355 -0.315938
1.695740 0.953444 -0.323457
1.695405 0.954866 -0.485202
1.698720 1.078365 -0.474408
1.698802 1.076971 -0.315902
1.722772 1.077021 -0.315906
1.722690 1.078414 -0.474411
1.720506 1.192537 -0.457345
1.720411 1.191184 -0.304187
1.698801 1.076544 -0.315911
1.698719 1.077937 -0.474417
1.696534 1.192060 -0.457350
1.696440 1.190708 -0.304193
1.720175 1.193375 -0.304070
1.720269 1.194727 -0.457228
1.710428 1.249720 -0.459556
1.708019 1.248741 -0.302799
1.696663 1.188686 -0.304296
1.696757 1.190039 -0.457453
1.686916 1.245031 -0.459781
1.684507 1.244053 -0.303024
1.719152 0.399881 -0.414512
1.719032 0.401115 -0.551017
1.715352 0.472603 -0.615612
1.716410 0.471255 -0.462808
1.695197 0.398874 -0.414423
1.695078 0.400109 -0.550929
1.691397 0.471596 -0.615523
1.692456 0.470248 -0.462719
1.716419 0.470824 -0.462873
1.715361 0.472172 -0.615677
1.715589 0.589736 -0.640186
1.716366 0.588330 -0.480987
1.692444 0.470868 -0.462732
1.691385 0.472216 -0.615536
1.691613 0.589779 -0.640044
1.692390 0.588373 -0.480846
1.716360 0.588035 -0.480978
1.715583 0.589441 -0.640177
1.720021 0.707668 -0.641194
1.720492 0.706271 -0.481496
1.692400 0.588904 -0.480877
1.691623 0.590310 -0.640075
1.696060 0.708537 -0.641092
1.696532 0.707140 -0.481394
1.720496 0.707158 -0.481467
1.720024 0.708555 -0.641164
1.716820 0.831052 -0.650383
1.716887 0.829626 -0.488098
1.696529 0.706494 -0.481432
1.696058 0.707891 -0.641130
1.692853 0.830387 -0.650348
1.692920 0.828961 -0.488063
1.716889 0.829168 -0.488082
1.716821 0.830595 -0.650367
1.719532 0.955605 -0.647131
1.719371 0.954186 -0.485387
1.692918 0.829666 -0.488084
1.692851 0.831092 -0.650369
1.695561 0.956103 -0.647133
1.695401 0.954684 -0.485389
1.719373 0.954248 -0.485379
1.719533 0.955667 -0.647123
1.722635 1.079136 -0.633092
1.722688 1.077746 -0.474585
1.695405 0.954871 -0.485382
1.695565 0.956290 -0.647126
1.698667 1.079760 -0.633094
1.698720 1.078369 -0.474587
1.722690 1.078409 -0.474574
1.722637 1.079799 -0.633081
1.720408 1.193869 -0.610666
1.720506 1.192532 -0.457507
1.698719 1.077944 -0.474566
1.698666 1.079334 -0.633073
1.696436 1.193404 -0.610658
1.696534 1.192067 -0.457500
1.720359 1.194234 -0.457394
1.720261 1.195571 -0.610553
1.713256 1.250321 -0.640453
1.710517 1.249227 -0.459723
1.696671 1.190535 -0.457609
1.696573 1.191872 -0.610768
1.689568 1.246622 -0.640667
1.686829 1.245527 -0.459937
1.719032 0.401106 -0.551185
1.717840 0.402294 -0.687672
1.714804 0.473942 -0.768594
1.715351 0.472594 -0.615780
1.695076 0.400120 -0.551050
1.693884 0.401308 -0.687536
1.690848 0.472955 -0.768459
1.691396 0.471607 -0.615645
1.715360 0.472146 -0.615791
1.714813 0.473494 -0.768605
1.715409 0.591109 -0.799495
1.715588 0.589710 -0.640299
1.691384 0.472244 -0.615734
1.690837 0.473592 -0.768548
1.691434 0.591206 -0.799438
1.691613 0.589808 -0.640243
1.715582 0.589418 -0.640296
1.715403 0.590816 -0.799491
1.720030 0.709041 -0.801018
1.720019 0.707644 -0.641313
1.691624 0.590336 -0.640275
1.691445 0.591735 -0.799471
1.696072 0.709960 -0.800997
1.696061 0.708563 -0.641292
1.720025 0.708530 -0.641298
1.720036 0.709926 -0.801003
1.717016 0.832453 -0.812796
1.716820 0.831026 -0.650516
1.696057 0.707919 -0.641319
1.696068 0.709315 -0.801024
1.693048 0.831842 -0.812817
1.692852 0.830416 -0.650537
1.716821 0.830569 -0.650506
1.717017 0.831995 -0.812786
1.720051 0.956989 -0.809017
1.719531 0.955579 -0.647270
1.692851 0.831121 -0.650554
1.693047 0.832547 -0.812834
1.696082 0.957542 -0.809066
1.695562 0.956132 -0.647318
1.719533 0.955671 -0.647246
1.720054 0.957081 -0.808994
1.723209 1.080523 -0.791719
1.722635 1.079141 -0.633215
1.695565 0.956288 -0.647323
1.696086 0.957698 -0.809070
1.699241 1.081140 -0.791796
1.698667 1.079758 -0.633292
1.722637 1.079823 -0.633206
1.723211 1.081205 -0.791710
1.720479 1.195230 -0.763951
1.720408 1.193893 -0.610791
1.698666 1.079314 -0.633260
1.699241 1.080696 -0.791764
1.696509 1.194720 -0.764005
1.696437 1.193384 -0.610845
1.720365 1.194694 -0.610555
1.720436 1.196031 -0.763715
1.720036 1.247113 -0.788329
1.713360 1.249444 -0.640454
1.696474 1.192750 -0.611084
1.696545 1.194086 -0.764244
1.696145 1.245169 -0.788858
1.689469 1.247500 -0.640983
1.717839 0.402297 -0.687834
1.717338 0.403497 -0.824336
1.714611 0.441111 -0.896538
1.714803 0.473944 -0.768757
1.693884 0.401290 -0.687651
1.693384 0.402490 -0.824152
1.690657 0.440104 -0.896355
1.690848 0.472938 -0.768573
1.717016 0.831972 -0.812963
1.717291 0.842007 -0.974998
1.720176 0.952937 -0.971842
1.720051 0.956967 -0.809195
1.693048 0.832574 -0.812982
1.693323 0.842609 -0.975017
1.696208 0.953539 -0.971860
1.696083 0.957569 -0.809213
1.720054 0.957062 -0.809166
1.720179 0.953032 -0.971813
1.723274 1.064167 -0.953427
1.723209 1.080504 -0.791891
1.696086 0.957709 -0.809221
1.696212 0.953679 -0.971868
1.699307 1.064814 -0.953481
1.699242 1.081151 -0.791946
1.723212 1.081157 -0.791866
1.723277 1.064820 -0.953401
1.721879 1.172926 -0.922208
1.720480 1.195181 -0.764107
1.699240 1.080727 -0.791924
1.699305 1.064390 -0.953459
1.697907 1.172496 -0.922266
1.696508 1.194751 -0.764165
-0.329083 0.574242 -0.940944
-0.332131 0.517501 -0.912648
-0.468802 0.523571 -0.907641
-0.477855 0.578602 -0.935569
-0.327910 0.585053 -0.919576
-0.330958 0.528312 -0.891280
-0.467630 0.534382 -0.886273
-0.476683 0.589413 -0.914201
-0.332256 0.513866 -0.909823
-0.332136 0.471644 -0.862227
-0.455651 0.479429 -0.859417
-0.468927 0.519936 -0.904816
-0.330824 0.531850 -0.894030
-0.330704 0.489628 -0.846435
-0.454219 0.497412 -0.843624
-0.467495 0.537920 -0.889024
-0.478000 0.578431 -0.935472
-0.468947 0.523400 -0.907545
-0.605577 0.529360 -0.902532
-0.626774 0.582790 -0.930079
-0.476824 0.589595 -0.914287
-0.467770 0.534564 -0.886359
-0.604401 0.540524 -0.881346
-0.625598 0.593954 -0.908893
-0.469057 0.519853 -0.904708
-0.455782 0.479345 -0.859309
-0.579298 0.487130 -0.856437
-0.605687 0.525813 -0.899695
-0.467625 0.538017 -0.889124
-0.454349 0.497510 -0.843725
-0.577866 0.505295 -0.840853
-0.604255 0.543977 -0.884111
1.067665 0.515051 -0.947633
1.081331 0.446597 -0.904584
0.926212 0.449702 -0.904061
0.909159 0.517975 -0.947279
1.067968 0.527892 -0.927388
1.081634 0.459438 -0.884339
0.926515 0.462543 -0.883816
0.909462 0.530816 -0.927034
1.081225 0.442420 -0.900102
1.094782 0.403153 -0.829253
0.942415 0.407191 -0.828272
0.926106 0.445525 -0.899580
1.081770 0.463508 -0.888706
1.095328 0.424240 -0.817856
0.942961 0.428279 -0.816875
0.926651 0.466613 -0.888183
1.226301 0.511922 -0.948535
1.236589 0.443422 -0.905126
1.081464 0.446594 -0.904584
1.067798 0.515048 -0.947633
1.226652 0.524764 -0.928291
1.236940 0.456263 -0.884882
1.081815 0.459435 -0.884340
1.068149 0.527889 -0.927389
1.236583 0.439251 -0.900659
1.247416 0.400937 -0.829202
1.095015 0.403155 -0.829267
1.081458 0.442423 -0.900116
1.236970 0.460327 -0.889235
1.247803 0.422013 -0.817779
1.095402 0.424231 -0.817843
1.081845 0.463499 -0.888693
1.385005 0.508928 -0.949054
1.391862 0.440336 -0.905596
1.236765 0.443409 -0.905121
1.226478 0.511910 -0.948530
1.385317 0.521787 -0.928821
1.392175 0.453196 -0.885363
1.237078 0.456269 -0.884888
1.226790 0.524770 -0.928297
1.391791 0.436144 -0.901075
1.399932 0.397623 -0.829682
1.247527 0.400903 -0.829144
1.236694 0.439217 -0.900600
1.392265 0.457281 -0.889769
1.400406 0.418761 -0.818376
1.248000 0.422040 -0.817838
1.237167 0.460354 -0.889294
1.543637 0.505821 -0.949874
1.547147 0.437206 -0.906086
1.392006 0.440322 -0.905589
1.385148 0.508913 -0.949048
1.543977 0.518703 -0.929655
1.547488 0.450088 -0.885868
1.392346 0.453204 -0.885371
1.385488 0.521795 -0.928829
1.547121 0.433010 -0.901546
1.552499 0.395135 -0.829719
1.400121 0.397605 -0.829656
1.391979 0.436126 -0.901049
1.547526 0.454177 -0.890293
1.552904 0.416303 -0.818467
1.400526 0.418773 -0.818403
1.392384 0.457294 -0.889796
1.702338 0.502777 -0.950518
1.702390 0.434198 -0.906670
1.547311 0.437188 -0.906078
1.543800 0.505803 -0.949865
1.702666 0.515688 -0.930318
1.702718 0.447110 -0.886470
1.547639 0.450099 -0.885878
1.544128 0.518715 -0.929665
1.702345 0.429980 -0.902067
1.705071 0.392366 -0.829865
1.552643 0.395095 -0.829648
1.547265 0.432969 -0.901475
1.702769 0.451222 -0.890957
1.705496 0.413608 -0.818755
1.553068 0.416338 -0.818539
1.547690 0.454212 -0.890365
0.909224 0.518436 -0.947558
0.926277 0.450163 -0.904340
0.768262 0.459395 -0.914665
0.750692 0.521611 -0.946528
0.909081 0.530364 -0.926760
0.926134 0.462091 -0.883542
0.768119 0.471324 -0.893868
0.750549 0.533539 -0.925730
0.926040 0.445550 -0.899623
0.942350 0.407216 -0.828315
0.789907 0.409153 -0.828524
0.768025 0.454782 -0.909949
0.926408 0.466597 -0.888145
0.942717 0.428263 -0.816837
0.790275 0.430199 -0.817046
0.768392 0.475829 -0.898470
-0.775698 0.586945 -0.924635
-0.626923 0.582594 -0.929965
-0.605725 0.529164 -0.902418
-0.737981 0.528439 -0.893807
-0.774509 0.598507 -0.903664
-0.625733 0.594156 -0.908994
-0.604536 0.540726 -0.881447
-0.736792 0.540001 -0.872837
-0.605703 0.525553 -0.899380
-0.579313 0.486871 -0.856122
-0.702817 0.494812 -0.853162
-0.737958 0.524828 -0.890770
-0.604498 0.544247 -0.884415
-0.578109 0.505565 -0.841158
-0.701613 0.513506 -0.838197
-0.736754 0.543522 -0.875805
1.055024 0.678904 -0.984543
1.061425 0.598420 -0.969372
0.901178 0.601260 -0.969192
0.892992 0.681706 -0.984808
1.055097 0.683415 -0.960996
1.061498 0.602931 -0.945825
0.901251 0.605772 -0.945645
0.893064 0.686218 -0.961260
1.061396 0.597631 -0.969196
1.067732 0.518580 -0.949158
0.909226 0.521504 -0.948804
0.901149 0.600471 -0.969016
1.061542 0.603561 -0.945965
1.067878 0.524510 -0.925927
0.909372 0.527435 -0.925573
0.901295 0.606402 -0.945785
1.217213 0.676176 -0.984389
1.221843 0.595646 -0.969556
1.061584 0.598474 -0.969383
1.055183 0.678958 -0.984554
1.217290 0.680573 -0.960820
1.221921 0.600043 -0.945987
1.061661 0.602871 -0.945814
1.055260 0.683355 -0.960985
1.221794 0.594868 -0.969387
1.226375 0.515521 -0.950077
1.067871 0.518646 -0.949175
1.061535 0.597697 -0.969214
1.221981 0.600661 -0.946122
1.226562 0.521313 -0.926812
1.068058 0.524438 -0.925910
1.061721 0.603489 -0.945949
1.379426 0.673443 -0.984133
1.382254 0.592854 -0.969813
1.222007 0.595706 -0.969568
1.217377 0.676236 -0.984401
1.379499 0.677715 -0.960540
1.382327 0.597126 -0.946221
1.222080 0.599978 -0.945976
1.217450 0.680508 -0.960809
1.382214 0.592093 -0.969652
1.385075 0.512615 -0.950621
1.226548 0.515597 -0.950097
1.221967 0.594945 -0.969407
1.382374 0.597726 -0.946348
1.385234 0.518248 -0.927317
1.226707 0.521231 -0.926793
1.222127 0.600578 -0.946103
1.541608 0.670723 -0.983912
1.542707 0.590098 -0.969951
1.382419 0.592915 -0.969824
1.379592 0.673504 -0.984144
1.541673 0.674867 -0.960297
1.542772 0.594242 -0.946336
1.382484 0.597059 -0.946209
1.379656 0.677648 -0.960529
1.542656 0.589349 -0.969797
1.543718 0.509596 -0.951466
1.385229 0.512688 -0.950640
1.382368 0.592167 -0.969671
1.542827 0.594830 -0.946457
1.543889 0.515077 -0.928125
1.385400 0.518169 -0.927299
1.382539 0.597647 -0.946330
1.703829 0.668007 -0.983629
1.703089 0.587181 -0.970162
1.542868 0.590159 -0.969962
1.541769 0.670784 -0.983923
1.703894 0.672023 -0.959991
1.703154 0.591196 -0.946525
1.542933 0.594175 -0.946325
1.541834 0.674800 -0.960286
1.703040 0.586455 -0.970018
1.702420 0.506654 -0.952139
1.543882 0.509680 -0.951487
1.542820 0.589433 -0.969818
1.703203 0.591761 -0.946637
1.702582 0.511960 -0.928759
1.544045 0.514986 -0.928106
1.542982 0.594740 -0.946437
-0.136177 0.699825 -0.970045
-0.159015 0.633880 -0.958289
-0.326402 0.641609 -0.953320
-0.323756 0.707205 -0.965249
-0.135353 0.703917 -0.946435
-0.158191 0.637971 -0.934679
-0.325578 0.645700 -0.929710
-0.322933 0.711297 -0.941639
-0.159081 0.633864 -0.958284
-0.181915 0.567911 -0.946564
-0.328810 0.577704 -0.942096
-0.326468 0.641593 -0.953314
-0.158149 0.637856 -0.934661
-0.180983 0.571903 -0.922941
-0.327878 0.581697 -0.918473
-0.325536 0.645585 -0.929691
-0.323965 0.707136 -0.965229
-0.326611 0.641539 -0.953300
-0.481361 0.646152 -0.948210
-0.484941 0.711503 -0.959805
-0.323059 0.711379 -0.941649
-0.325705 0.645782 -0.929719
-0.480455 0.650395 -0.924630
-0.484035 0.715746 -0.936225
-0.326626 0.641498 -0.953292
-0.328967 0.577609 -0.942073
-0.477740 0.581970 -0.936698
-0.481376 0.646111 -0.948202
-0.325688 0.645694 -0.929704
-0.328030 0.581805 -0.918486
-0.476802 0.586166 -0.913111
-0.480439 0.650307 -0.924615
-0.485094 0.711524 -0.959803
-0.481515 0.646173 -0.948208
-0.636349 0.650773 -0.943207
-0.646073 0.715894 -0.954399
-0.484198 0.715734 -0.936217
-0.480618 0.650384 -0.924621
-0.635452 0.654984 -0.919621
-0.645176 0.720105 -0.930813
-0.481527 0.646021 -0.948180
-0.477891 0.581879 -0.936676
-0.626665 0.586239 -0.931282
-0.636362 0.650621 -0.943179
-0.480592 0.650406 -0.924627
-0.476955 0.586265 -0.913123
-0.625729 0.590624 -0.907729
-0.635426 0.655006 -0.919626
-0.646231 0.715919 -0.954398
-0.636507 0.650798 -0.943206
-0.792137 0.655226 -0.938131
-0.807210 0.720283 -0.949006
-0.645335 0.720089 -0.930804
-0.635611 0.654968 -0.919612
-0.791241 0.659396 -0.914538
-0.806315 0.724453 -0.925413
-0.636514 0.650528 -0.943155
-0.626817 0.586146 -0.931258
-0.775593 0.590496 -0.925928
-0.792144 0.654956 -0.938081
-0.635578 0.655108 -0.919640
-0.625881 0.590726 -0.907742
-0.774657 0.595076 -0.902412
-0.791208 0.659536 -0.914565
-0.807914 0.719888 -0.948886
-0.792841 0.654830 -0.938011
-0.842254 0.658340 -0.932719
-0.858328 0.721212 -0.946256
-0.805819 0.724856 -0.925524
-0.790746 0.659799 -0.914649
-0.840159 0.663308 -0.909357
-0.856234 0.726180 -0.922895
-0.793410 0.654500 -0.937871
-0.776859 0.590039 -0.925718
-0.826745 0.595141 -0.919026
-0.842824 0.658010 -0.932578
-0.790145 0.660001 -0.914764
-0.773593 0.595541 -0.902611
-0.823479 0.600642 -0.895920
-0.839558 0.663511 -0.909472
-0.865738 0.720373 -0.942420
-0.849664 0.657502 -0.928882
-0.879018 0.657574 -0.901646
-0.891232 0.721151 -0.911275
-0.848901 0.727021 -0.926698
-0.832827 0.664149 -0.913160
-0.862181 0.664221 -0.885924
-0.874394 0.727798 -0.895554
-0.848463 0.657496 -0.929996
-0.832384 0.594627 -0.916443
-0.865592 0.593993 -0.893128
-0.877817 0.657568 -0.902759
-0.834000 0.664029 -0.912023
-0.817921 0.601160 -0.898471
-0.851129 0.600526 -0.875156
-0.863354 0.664100 -0.884787
-0.894054 0.721790 -0.906632
-0.881841 0.658212 -0.897003
-0.898210 0.657656 -0.839569
-0.914411 0.723328 -0.838629
-0.871618 0.727161 -0.900105
-0.859404 0.663584 -0.890475
-0.875774 0.663028 -0.833042
-0.891974 0.728699 -0.832102
-0.881851 0.658134 -0.896902
-0.869626 0.594560 -0.887271
-0.881885 0.591938 -0.840370
-0.898221 0.657578 -0.839468
-0.859365 0.663532 -0.890568
-0.847141 0.599958 -0.880936
-0.859400 0.597336 -0.834036
-0.875735 0.662976 -0.833134
-0.173863 0.568484 -0.898153
-0.150996 0.634426 -0.909897
-0.217166 0.661241 -0.852133
-0.243450 0.585608 -0.838745
-0.189095 0.570504 -0.916558
-0.166228 0.636447 -0.928302
-0.232398 0.663262 -0.870538
-0.258682 0.587629 -0.857150
-0.150964 0.634494 -0.909916
-0.128104 0.700441 -0.921649
-0.190851 0.736940 -0.865551
-0.217134 0.661308 -0.852152
-0.166211 0.636522 -0.928308
-0.143352 0.702469 -0.940040
-0.206099 0.738968 -0.883942
-0.232381 0.663336 -0.870544
0.762281 0.718543 -0.776637
0.777928 0.641028 -0.770462
0.776107 0.640083 -0.665645
0.761496 0.717817 -0.665554
0.785809 0.723142 -0.776317
0.801457 0.645626 -0.770142
0.799636 0.644682 -0.665326
0.785024 0.722415 -0.665235
0.777955 0.640900 -0.770534
0.793423 0.563304 -0.764442
0.791546 0.562429 -0.665670
0.776134 0.639956 -0.665717
0.801461 0.645598 -0.770065
0.816930 0.568002 -0.763973
0.815053 0.567128 -0.665202
0.799640 0.644654 -0.665248
0.762427 0.718843 -0.887739
0.779980 0.641730 -0.875432
0.777977 0.640796 -0.770541
0.762329 0.718312 -0.776716
0.785861 0.723906 -0.887477
0.803414 0.646793 -0.875169
0.801411 0.645859 -0.770279
0.785763 0.723375 -0.776454
0.780004 0.641644 -0.875668
0.797503 0.564562 -0.863326
0.793469 0.563113 -0.764686
0.778001 0.640710 -0.770778
0.803423 0.646725 -0.874914
0.820922 0.569644 -0.862571
0.816888 0.568194 -0.763932
0.801420 0.645791 -0.770024
0.704644 0.686151 -0.932880
0.722712 0.619482 -0.920471
0.783838 0.643867 -0.866310
0.766286 0.720980 -0.878618
0.720300 0.686911 -0.951023
0.738368 0.620242 -0.938614
0.799495 0.644627 -0.884453
0.781942 0.721740 -0.896760
0.722847 0.619861 -0.920349
0.743062 0.527551 -0.899576
0.801473 0.567165 -0.853846
0.783974 0.644246 -0.866189
0.738269 0.619706 -0.938706
0.758485 0.527396 -0.917932
0.816896 0.567010 -0.872203
0.799396 0.644091 -0.884546
-0.240042 0.580670 -0.758414
-0.213767 0.656185 -0.764467
-0.213904 0.654020 -0.667703
-0.240316 0.578685 -0.668989
-0.262676 0.588579 -0.758288
-0.236400 0.664094 -0.764341
-0.236537 0.661929 -0.667576
-0.262950 0.586594 -0.668862
-0.213741 0.656259 -0.764479
-0.187393 0.731748 -0.770530
-0.187524 0.729451 -0.666423
-0.213878 0.654094 -0.667715
-0.236374 0.664171 -0.764334
-0.210025 0.739660 -0.770385
-0.210157 0.737363 -0.666278
-0.236510 0.662006 -0.667569
-0.239779 0.582685 -0.847927
-0.213496 0.658318 -0.861315
-0.213763 0.656198 -0.764553
-0.240038 0.580683 -0.758499
-0.262421 0.590572 -0.847816
-0.236137 0.666205 -0.861204
-0.236404 0.664085 -0.764442
-0.262679 0.588570 -0.758389
-0.213471 0.658387 -0.861329
-0.187189 0.734020 -0.874727
-0.187390 0.731757 -0.770618
-0.213739 0.656267 -0.764567
-0.236108 0.666286 -0.861209
-0.209826 0.741919 -0.874608
-0.210027 0.739656 -0.770498
-0.236376 0.664167 -0.764447
-0.329010 0.574265 -0.940960
-0.182115 0.564471 -0.945428
-0.198106 0.500591 -0.911968
-0.332058 0.517524 -0.912664
-0.327700 0.585011 -0.919567
-0.180805 0.575217 -0.924035
-0.196796 0.511337 -0.890575
-0.330748 0.528270 -0.891271
-0.332235 0.471443 -0.861982
-0.332355 0.513665 -0.909577
-0.198403 0.496732 -0.908881
-0.208711 0.463677 -0.864831
-0.330345 0.489809 -0.846686
-0.330465 0.532031 -0.894281
-0.196514 0.515098 -0.893586
-0.206822 0.482043 -0.849535
1.714568 0.509228 -0.940386
1.714812 0.473484 -0.768757
1.714620 0.440650 -0.896538
1.690592 0.509233 -0.940351
1.690836 0.473488 -0.768722
1.690644 0.440654 -0.896503
1.714812 0.473467 -0.768738
1.714568 0.509212 -0.940367
1.715409 0.591082 -0.799628
