3.515485 0.550922 0.311304
3.517328 0.538881 0.299360
3.533786 0.540269 0.299466
3.531937 0.552214 0.311703
3.513622 0.579119 0.283051
3.515466 0.567079 0.271107
3.531923 0.568467 0.271213
3.530075 0.580411 0.283451
3.531878 0.552010 0.311501
3.533727 0.540065 0.299264
3.550185 0.541371 0.299447
3.548338 0.553277 0.311938
3.530167 0.580618 0.283654
3.532016 0.568673 0.271416
3.548475 0.569979 0.271600
3.546627 0.581884 0.284091
3.548384 0.553131 0.311784
3.550232 0.541226 0.299293
3.566690 0.542533 0.299484
3.564843 0.554414 0.312195
3.546614 0.582033 0.284246
3.548461 0.570127 0.271755
3.564920 0.571435 0.271946
3.563073 0.583316 0.284657
3.564890 0.554302 0.312073
3.566737 0.542420 0.299361
3.583196 0.543728 0.299559
3.581347 0.555613 0.312462
3.563058 0.583432 0.284780
3.564905 0.571550 0.272068
3.581363 0.572858 0.272266
3.579515 0.584743 0.285169
3.581457 0.555458 0.312286
3.583305 0.543573 0.299384
3.599755 0.544997 0.299483
3.597915 0.556752 0.312692
3.579439 0.584901 0.285345
3.581287 0.573016 0.272442
3.597737 0.574440 0.272542
3.595897 0.586195 0.285750
3.517656 0.538902 0.299356
3.519506 0.526872 0.287407
3.535955 0.528342 0.287220
3.534113 0.540290 0.299462
3.515143 0.567034 0.271087
3.516993 0.555004 0.259139
3.533442 0.556474 0.258952
3.531600 0.568422 0.271193
3.533985 0.540074 0.299254
3.535827 0.528126 0.287013
3.552286 0.529488 0.286936
3.550444 0.541380 0.299438
3.531760 0.568640 0.271401
3.533602 0.556692 0.259159
3.550061 0.558055 0.259082
3.548219 0.569946 0.271584
3.550468 0.541207 0.299256
3.552310 0.529315 0.286754
3.568769 0.530679 0.286691
3.566926 0.542514 0.299447
3.548229 0.570122 0.271766
3.550071 0.558231 0.259264
3.566529 0.559595 0.259202
3.564687 0.571429 0.271957
3.566950 0.542349 0.299269
3.568792 0.530514 0.286514
3.585250 0.531881 0.286465
3.583408 0.543657 0.299467
3.564697 0.571597 0.272135
3.566539 0.559763 0.259380
3.582997 0.561129 0.259331
3.581155 0.572906 0.272333
3.583583 0.543539 0.299323
3.585425 0.531762 0.286321
3.601875 0.533202 0.286217
3.600033 0.544963 0.299422
3.581013 0.573027 0.272477
3.582854 0.561250 0.259476
3.599305 0.562690 0.259372
3.597462 0.574450 0.272577
3.519775 0.526538 0.287040
3.521286 0.514831 0.274746
3.537654 0.516313 0.274385
3.536224 0.528008 0.286853
3.516726 0.555314 0.259482
3.518237 0.543606 0.247187
3.534606 0.545089 0.246826
3.533176 0.556784 0.259294
3.536050 0.527889 0.286745
3.537480 0.516193 0.274277
3.553877 0.517546 0.274029
3.552509 0.529251 0.286668
3.533383 0.556906 0.259402
3.534813 0.545211 0.246934
3.551210 0.546564 0.246686
3.549842 0.558269 0.259325
3.552528 0.529159 0.286568
3.553896 0.517454 0.273929
3.570304 0.518806 0.273679
3.568987 0.530523 0.286506
3.549856 0.558363 0.259425
3.551224 0.546658 0.246786
3.567632 0.548011 0.246536
3.566315 0.559727 0.259362
3.569006 0.530426 0.286399
3.570323 0.518709 0.273573
3.586745 0.520062 0.273320
3.585464 0.531793 0.286351
3.566328 0.559827 0.259469
3.567646 0.548110 0.246642
3.584067 0.549462 0.246390
3.582786 0.561193 0.259420
3.585577 0.531718 0.286256
3.586858 0.519987 0.273226
3.603288 0.521378 0.272928
3.602027 0.533157 0.286152
3.582705 0.561271 0.259514
3.583987 0.549540 0.246484
3.600417 0.550932 0.246186
3.599156 0.562711 0.259410
3.521431 0.514279 0.274129
3.522403 0.503059 0.261325
3.538506 0.504455 0.260836
3.537799 0.515761 0.273768
3.518095 0.544135 0.247779
3.519067 0.532915 0.234975
3.535170 0.534311 0.234486
3.534463 0.545617 0.247418
3.537568 0.515733 0.273763
3.538275 0.504427 0.260831
3.554400 0.505651 0.260497
3.553965 0.517086 0.273515
3.534727 0.545648 0.247422
3.535434 0.534342 0.234491
3.551559 0.535566 0.234156
3.551124 0.547000 0.247175
3.553981 0.517102 0.273532
3.554416 0.505667 0.260514
3.570548 0.506891 0.260178
3.570389 0.518454 0.273282
3.551140 0.546987 0.247157
3.551576 0.535552 0.234139
3.567707 0.536776 0.233803
3.567549 0.548339 0.246907
3.570406 0.518471 0.273299
3.570564 0.506908 0.260195
3.586702 0.508132 0.259858
3.586827 0.519823 0.273047
3.567565 0.548325 0.246890
3.567723 0.536762 0.233786
3.583861 0.537986 0.233449
3.583986 0.549678 0.246637
3.586868 0.519868 0.273092
3.586743 0.508176 0.259904
3.602883 0.509384 0.259570
3.603298 0.521259 0.272794
3.583978 0.549636 0.246591
3.583853 0.537944 0.233403
3.599993 0.539152 0.233068
3.600408 0.551027 0.246293
3.522336 0.503105 0.261385
3.523321 0.491890 0.248567
3.539162 0.493066 0.248084
3.538439 0.504501 0.260897
3.519136 0.532846 0.234889
3.520120 0.521631 0.222071
3.535962 0.522807 0.221588
3.535239 0.534242 0.234400
3.538285 0.504528 0.260944
3.539008 0.493093 0.248131
3.554852 0.494231 0.247665
3.554410 0.505751 0.260609
3.535425 0.534218 0.234353
3.536148 0.522783 0.221540
3.551993 0.523922 0.221074
3.551550 0.535442 0.234018
3.554409 0.505729 0.260584
3.554851 0.494209 0.247640
3.570699 0.495329 0.247199
3.570540 0.506953 0.260249
3.551584 0.535467 0.234042
3.552026 0.523947 0.221098
3.567874 0.525067 0.220656
3.567715 0.536691 0.233707
3.570542 0.506952 0.260248
3.570701 0.495328 0.247197
3.586549 0.496428 0.246767
3.586680 0.508176 0.259911
3.567745 0.536694 0.233707
3.567904 0.525070 0.220657
3.583752 0.526170 0.220227
3.583883 0.537918 0.233370
3.586673 0.508187 0.259924
3.586542 0.496439 0.246781
3.602398 0.497521 0.246364
3.602813 0.509395 0.259590
3.583922 0.537909 0.233356
3.583791 0.526161 0.220213
3.599648 0.527243 0.219796
3.600062 0.539117 0.233022
3.514513 0.567811 0.316969
3.530966 0.569103 0.317368
3.532115 0.582352 0.314962
3.515014 0.581548 0.315589
3.514592 0.562255 0.277397
3.531045 0.563547 0.277796
3.532194 0.576796 0.275390
3.515093 0.575991 0.276017
3.530726 0.570579 0.317102
3.547186 0.571846 0.317539
3.548965 0.584708 0.314301
3.531875 0.583828 0.314696
3.531319 0.562074 0.278062
3.547779 0.563340 0.278499
3.549558 0.576202 0.275261
3.532468 0.575322 0.275656
3.547449 0.573544 0.317093
3.563908 0.574827 0.317504
3.566319 0.587128 0.312904
3.549228 0.586406 0.313854
3.547549 0.561644 0.278946
3.564008 0.562928 0.279357
3.566419 0.575228 0.274757
3.549328 0.574506 0.275707
3.563461 0.576587 0.316857
3.579918 0.577898 0.317245
3.582954 0.589809 0.311870
3.565872 0.588887 0.312257
3.564489 0.561171 0.280004
3.580946 0.562482 0.280393
3.583982 0.574393 0.275017
3.566900 0.573471 0.275404
3.579988 0.579292 0.316600
3.596446 0.580586 0.317006
3.600112 0.592066 0.310584
3.583024 0.591202 0.311225
3.580909 0.561091 0.281038
3.597368 0.562385 0.281443
3.601033 0.573866 0.275022
3.583945 0.573002 0.275662
3.522761 0.489394 0.225479
3.519732 0.495118 0.214960
3.536547 0.496327 0.214691
3.538603 0.490570 0.224996
3.520678 0.524122 0.245136
3.517649 0.529847 0.234618
3.534464 0.531055 0.234349
3.536520 0.525298 0.244653
3.538432 0.490508 0.225089
3.536376 0.496265 0.214785
3.553214 0.497204 0.214399
3.554276 0.491647 0.224623
3.536724 0.525362 0.244559
3.534668 0.531119 0.234255
3.551506 0.532058 0.233869
3.552568 0.526501 0.244093
3.554693 0.491820 0.224363
3.553631 0.497377 0.214139
3.570432 0.498895 0.214123
3.570540 0.492940 0.223921
3.552184 0.526330 0.244352
3.551123 0.531887 0.234128
3.567924 0.533405 0.234113
3.568032 0.527450 0.243911
3.570164 0.493111 0.223593
3.570056 0.499066 0.213795
3.586887 0.500050 0.213504
3.586012 0.494211 0.223163
3.568441 0.527281 0.244238
3.568333 0.533236 0.234440
3.585164 0.534220 0.234149
3.584289 0.528381 0.243808
3.586177 0.494269 0.223082
3.587053 0.500108 0.213423
3.603861 0.501310 0.213276
3.602034 0.495351 0.222665
3.584156 0.528325 0.243889
3.585032 0.534164 0.234230
3.601839 0.535366 0.234083
3.600013 0.529407 0.243472
3.502934 0.500669 0.238394
3.501949 0.511884 0.251211
3.496859 0.520654 0.240909
3.499904 0.506394 0.227875
3.540488 0.512858 0.232235
3.539503 0.524073 0.245053
3.534413 0.532844 0.234751
3.537458 0.518583 0.221717
3.502390 0.511129 0.252140
3.501417 0.522349 0.264944
3.494353 0.534191 0.254871
3.497300 0.519899 0.241838
3.539058 0.524854 0.244150
3.538086 0.536074 0.256954
3.531021 0.547916 0.246882
3.533969 0.533624 0.233848
3.501186 0.523424 0.265537
3.499675 0.535132 0.277831
3.494714 0.547923 0.270332
3.494121 0.535266 0.255464
3.538315 0.535023 0.256388
3.536804 0.546731 0.268682
3.531843 0.559522 0.261182
3.531250 0.546865 0.246315
3.498890 0.536923 0.276208
3.497040 0.548953 0.288156
3.494775 0.562214 0.283721
3.493929 0.549713 0.268708
3.537589 0.544965 0.270332
3.535738 0.556995 0.282281
3.533473 0.570256 0.277846
3.532628 0.557755 0.262833
3.496450 0.551774 0.285654
3.494606 0.563815 0.297599
3.495107 0.577551 0.296219
3.494185 0.565035 0.281219
3.536327 0.554198 0.284810
3.534483 0.566239 0.296754
3.534984 0.579975 0.295374
3.534062 0.567459 0.280374
3.499195 0.508120 0.225458
3.496150 0.522381 0.238492
3.494485 0.530740 0.236342
3.495890 0.521492 0.225097
3.538161 0.516875 0.224122
3.535116 0.531136 0.237157
3.533452 0.539495 0.235007
3.534857 0.530247 0.223761
3.495980 0.523167 0.237584
3.493033 0.537459 0.250617
3.492394 0.542129 0.246079
3.494315 0.531526 0.235434
3.535281 0.530373 0.238089
3.532334 0.544665 0.251122
3.531696 0.549335 0.246584
3.533617 0.538733 0.235939
3.492907 0.539108 0.252946
3.493500 0.551764 0.267814
3.492045 0.554706 0.259551
3.492268 0.543778 0.248408
3.532458 0.543040 0.248818
3.533051 0.555697 0.263685
3.531596 0.558638 0.255423
3.531819 0.547710 0.244279
3.493595 0.551710 0.268542
3.494440 0.564210 0.283554
3.492482 0.565134 0.270478
3.492140 0.554651 0.260279
3.532957 0.555774 0.262983
3.533802 0.568275 0.277995
3.531844 0.569198 0.264919
3.531502 0.558716 0.254720
3.494504 0.563917 0.283764
3.495425 0.576433 0.298764
3.492284 0.575370 0.278128
3.492545 0.564840 0.270688
3.533740 0.568591 0.277809
3.534662 0.581106 0.292809
3.531521 0.580043 0.272173
3.531782 0.569514 0.264733
3.495935 0.521542 0.226048
3.494530 0.530791 0.237294
3.493209 0.537184 0.235216
3.492644 0.534909 0.225688
3.534807 0.530217 0.222808
3.533402 0.539465 0.234053
3.532081 0.545858 0.231976
3.531516 0.543583 0.222448
3.494293 0.531649 0.235908
3.492371 0.542252 0.246553
3.491741 0.546386 0.241084
3.492972 0.538043 0.233831
3.533637 0.538621 0.235458
3.531716 0.549224 0.246102
3.531085 0.553358 0.240634
3.532316 0.545015 0.233380
3.492260 0.543358 0.247800
3.492037 0.554286 0.258944
3.490806 0.557493 0.251232
3.491629 0.547492 0.242331
3.531825 0.548137 0.244874
3.531602 0.559065 0.256017
3.530372 0.562272 0.248306
3.531194 0.552272 0.239405
3.492121 0.554572 0.260078
3.492463 0.565055 0.270277
3.490894 0.565794 0.259899
3.490890 0.557779 0.252366
3.531518 0.558798 0.254902
3.531860 0.569281 0.265101
3.530291 0.570020 0.254723
3.530287 0.562005 0.247190
3.492599 0.564393 0.270660
3.492338 0.574923 0.278100
3.489250 0.573870 0.257459
3.491030 0.565133 0.260281
3.531723 0.569961 0.264729
3.531462 0.580490 0.272169
3.528373 0.579438 0.251528
3.530154 0.570700 0.254351
3.493022 0.538043 0.235028
3.491791 0.546387 0.242281
3.491116 0.548748 0.234981
3.492457 0.535768 0.225500
3.532264 0.545019 0.232171
3.531033 0.553362 0.239424
3.530358 0.555724 0.232124
3.531699 0.542744 0.222643
3.491643 0.547194 0.241951
3.490820 0.557194 0.250851
3.489704 0.562393 0.244317
3.490968 0.549555 0.234650
3.531179 0.552577 0.239772
3.530356 0.562578 0.248673
3.529240 0.567776 0.242139
3.530503 0.554939 0.232472
3.490900 0.557217 0.251876
3.490904 0.565232 0.259408
3.489123 0.573969 0.256585
3.489784 0.562415 0.245341
3.530275 0.562577 0.247667
3.530278 0.570591 0.255200
3.528498 0.579329 0.252377
3.529158 0.567775 0.241133
3.489207 0.573354 0.256492
3.487626 0.577381 0.248972
3.488069 0.569612 0.239303
3.489868 0.561800 0.245248
3.528411 0.579957 0.252458
3.526830 0.583984 0.244938
3.527272 0.576215 0.235269
3.529071 0.568403 0.241215
3.489829 0.561865 0.244961
3.488030 0.569677 0.239015
3.488704 0.561880 0.232282
3.491093 0.549027 0.235294
3.529111 0.568318 0.241484
3.527312 0.576130 0.235538
3.527986 0.568334 0.228805
3.530375 0.555481 0.231817
3.491120 0.548941 0.235424
3.488731 0.561794 0.232412
3.489721 0.551217 0.224812
3.492461 0.535961 0.225944
3.530351 0.555545 0.231670
3.527962 0.568398 0.228658
3.528952 0.557822 0.221058
3.531692 0.542565 0.222190
3.487663 0.576986 0.248607
3.486056 0.581010 0.241088
3.486076 0.577056 0.230058
3.488105 0.569217 0.238938
3.526790 0.584390 0.245288
3.525183 0.588414 0.237769
3.525203 0.584460 0.226739
3.527233 0.576621 0.235619
3.488015 0.569747 0.238970
3.485986 0.577586 0.230090
3.488689 0.561951 0.232237
3.527324 0.576078 0.235576
3.525295 0.583916 0.226695
3.527998 0.568281 0.228842
3.488730 0.561916 0.232605
3.486027 0.577551 0.230458
3.487041 0.566616 0.223866
3.489720 0.551340 0.225005
3.527958 0.568306 0.228461
3.525254 0.583940 0.226314
3.526269 0.573005 0.219722
3.528948 0.557729 0.220861
3.620712 0.509557 0.235044
3.622539 0.515516 0.225655
3.623144 0.529121 0.238850
3.621127 0.521431 0.248270
3.581352 0.515215 0.231106
3.583178 0.521174 0.221717
3.583783 0.534779 0.234912
3.581766 0.527089 0.244332
3.621144 0.521513 0.248217
3.623161 0.529203 0.238798
3.623763 0.542813 0.251996
3.621559 0.533388 0.261442
3.581750 0.527033 0.244411
3.583767 0.534723 0.234991
3.584370 0.548333 0.248190
3.582166 0.538908 0.257636
3.621478 0.534134 0.262761
3.623683 0.543559 0.253315
3.623054 0.556391 0.267187
3.620217 0.545913 0.275986
3.582246 0.538187 0.256343
3.584450 0.547612 0.246897
3.583822 0.560445 0.260769
3.580985 0.549967 0.269568
3.619998 0.545759 0.277043
3.622835 0.556238 0.268245
3.621343 0.568495 0.282633
3.618156 0.557520 0.290249
3.581201 0.550145 0.268537
3.584038 0.560623 0.259739
3.582546 0.572881 0.274127
3.579359 0.561905 0.281742
3.617948 0.556831 0.290750
3.621135 0.567807 0.283135
3.619774 0.580067 0.297537
3.616108 0.568587 0.303959
3.579563 0.562618 0.281268
3.582750 0.573593 0.273652
3.581389 0.585853 0.288055
3.577723 0.574373 0.294476
3.622836 0.517979 0.223580
3.623472 0.537148 0.221990
3.623374 0.543838 0.233634
3.623441 0.531584 0.236775
3.582883 0.518733 0.223780
3.583519 0.537902 0.222190
3.583422 0.544593 0.233834
3.583488 0.532338 0.236975
3.623420 0.532485 0.236028
3.623353 0.544739 0.232887
3.623195 0.554059 0.243686
3.624022 0.546095 0.249227
3.583510 0.531459 0.237747
3.583444 0.543714 0.234605
3.583286 0.553034 0.245405
3.584112 0.545070 0.250945
3.623973 0.547207 0.249490
3.623146 0.555171 0.243949
3.622648 0.565488 0.254618
3.623344 0.560040 0.263362
3.584162 0.543981 0.250706
3.583335 0.551945 0.245166
3.582837 0.562262 0.255834
3.583533 0.556814 0.264578
3.623298 0.560623 0.264022
3.622602 0.566071 0.255279
3.621556 0.576448 0.264686
3.621806 0.572880 0.278410
3.583578 0.556253 0.263942
3.582881 0.561702 0.255198
3.581836 0.572078 0.264605
3.582085 0.568511 0.278330
3.621832 0.572616 0.278577
3.621582 0.576183 0.264852
3.620495 0.587295 0.271266
3.620471 0.584876 0.292979
3.582057 0.568798 0.278186
3.581807 0.572365 0.264461
3.580720 0.583477 0.270875
3.580696 0.581058 0.292588
3.623457 0.537493 0.222945
3.623958 0.556669 0.221356
3.623110 0.553762 0.231916
3.623360 0.544184 0.234589
3.583534 0.537587 0.221230
3.584035 0.556763 0.219641
3.583187 0.553856 0.230201
3.583437 0.544278 0.232874
3.623357 0.545149 0.233623
3.623107 0.554727 0.230950
3.622643 0.561390 0.238692
3.623199 0.554469 0.244423
3.583439 0.543322 0.233860
3.583190 0.552900 0.231187
3.582726 0.559562 0.238929
3.583281 0.552642 0.244659
3.623155 0.555120 0.244158
3.622600 0.562040 0.238428
3.621994 0.570733 0.247123
3.622657 0.565436 0.254827
3.583324 0.552009 0.244942
3.582769 0.558929 0.239212
3.582163 0.567622 0.247907
3.582826 0.562326 0.255611
3.622621 0.565880 0.255082
3.621958 0.571177 0.247377
3.621292 0.579061 0.253686
3.621576 0.576257 0.264489
3.582861 0.561901 0.255374
3.582198 0.567197 0.247670
3.581532 0.575082 0.253978
3.581815 0.572278 0.264782
3.621605 0.575941 0.264766
3.621321 0.578745 0.253963
3.620573 0.589449 0.249465
3.620517 0.587053 0.271180
3.581784 0.572613 0.264513
3.581501 0.575418 0.253710
3.580753 0.586121 0.249212
3.580697 0.583725 0.270927
3.623074 0.554568 0.232336
3.623921 0.557476 0.221776
3.622580 0.566128 0.233263
3.622610 0.561230 0.240078
3.583223 0.553071 0.229788
3.584070 0.555979 0.219228
3.582730 0.564631 0.230716
3.582759 0.559734 0.237531
3.622603 0.562003 0.239183
3.622573 0.566900 0.232368
3.621419 0.576795 0.242483
3.621997 0.570696 0.247878
3.582765 0.558978 0.238444
3.582735 0.563875 0.231630
3.581580 0.573770 0.241744
3.582159 0.567671 0.247139
3.621999 0.570717 0.247433
3.621420 0.576816 0.242038
3.620585 0.589305 0.249244
3.621333 0.578602 0.253742
3.582156 0.567669 0.247600
3.581577 0.573768 0.242205
3.580742 0.586258 0.249410
3.581489 0.575554 0.253908
3.619232 0.584445 0.255900
3.620067 0.571955 0.248694
3.623178 0.576739 0.240846
3.622382 0.586258 0.249429
3.582097 0.591130 0.242743
3.582932 0.578640 0.235537
3.586043 0.583424 0.227689
3.585247 0.592942 0.236272
3.622307 0.584514 0.248449
3.623104 0.574995 0.239865
3.626013 0.579818 0.231959
3.625563 0.586299 0.242016
3.585327 0.594693 0.237239
3.586124 0.585175 0.228655
3.589033 0.589998 0.220750
3.588583 0.596478 0.230807
3.621560 0.561667 0.237278
3.622901 0.553015 0.225791
3.624919 0.561951 0.225483
3.624084 0.571405 0.234482
3.583753 0.569104 0.226690
3.585093 0.560452 0.215203
3.587112 0.569388 0.214895
3.586277 0.578842 0.223894
3.623857 0.571680 0.235397
3.624692 0.562227 0.226397
3.626843 0.571143 0.226118
3.626198 0.581444 0.232553
3.586509 0.578586 0.222977
3.587344 0.569132 0.213978
3.589495 0.578048 0.213698
3.588850 0.588350 0.220134
3.623676 0.577004 0.239394
3.624243 0.572064 0.234331
3.626585 0.581828 0.231488
3.585552 0.583153 0.229116
3.586120 0.578212 0.224054
3.588461 0.587976 0.221211
3.620431 0.571927 0.247543
3.621586 0.562032 0.237428
3.624110 0.571770 0.234632
3.623542 0.576710 0.239694
3.582570 0.578651 0.236673
3.583725 0.568756 0.226558
3.586249 0.578494 0.223762
3.585681 0.583435 0.228825
