4.314803 0.951845 -0.032953
4.314729 0.951035 -0.062493
4.311710 0.966665 -0.061278
4.311932 0.967063 -0.032936
4.293217 0.947716 -0.032757
4.293143 0.946906 -0.062296
4.290124 0.962536 -0.061082
4.290346 0.962935 -0.032739
4.314755 0.950852 -0.062821
4.313603 0.949329 -0.091967
4.310895 0.967304 -0.089957
4.311736 0.966482 -0.061607
4.293116 0.947088 -0.062025
4.291965 0.945565 -0.091171
4.289256 0.963539 -0.089161
4.290097 0.962718 -0.060811
4.321003 0.865544 -0.058547
4.318393 0.862438 -0.062875
4.316637 0.882268 -0.081501
4.318990 0.883937 -0.076748
4.301253 0.871153 -0.050704
4.298644 0.868047 -0.055032
4.296887 0.887877 -0.073659
4.299241 0.889546 -0.068905
4.319053 0.884047 -0.076665
4.316700 0.882377 -0.081419
4.315014 0.902199 -0.100070
4.317032 0.902474 -0.094831
4.299174 0.889475 -0.069025
4.296820 0.887805 -0.073778
4.295135 0.907627 -0.092429
4.297153 0.907902 -0.087190
4.315301 0.965403 0.137750
4.310232 0.966365 0.145942
4.314153 0.934296 0.143968
4.317125 0.934684 0.138333
4.296319 0.963910 0.126773
4.291250 0.964872 0.134966
4.295171 0.932803 0.132991
4.298143 0.933191 0.127356
4.315149 0.951274 0.016454
4.312877 0.965166 0.016006
4.314262 0.965808 0.041234
4.315843 0.952184 0.038336
4.293422 0.948137 0.017516
4.291150 0.962029 0.017068
4.292535 0.962671 0.042296
4.294116 0.949047 0.039398
4.315894 0.951792 0.038384
4.314314 0.965416 0.041282
4.315664 0.966055 0.066512
4.316565 0.952699 0.060273
4.294066 0.949441 0.039397
4.292485 0.963065 0.042295
4.293835 0.963704 0.067525
4.294736 0.950348 0.061286
4.311950 0.966968 -0.032908
4.312400 0.966266 -0.008254
4.314955 0.951699 -0.008045
4.314821 0.951749 -0.032926
4.290328 0.963031 -0.032713
4.290779 0.962329 -0.008059
4.293333 0.947762 -0.007850
4.293199 0.947812 -0.032731
4.312424 0.966132 -0.008228
4.312847 0.965432 0.016416
4.315120 0.951540 0.016865
4.314979 0.951565 -0.008019
4.290756 0.962461 -0.008035
4.291178 0.961761 0.016609
4.293451 0.947870 0.017058
4.293310 0.947894 -0.007826
4.362759 0.946895 0.125558
4.365387 0.945771 0.112406
4.347609 0.963567 0.110319
4.343835 0.967941 0.128132
4.346787 0.931811 0.124935
4.349415 0.930686 0.111783
4.331637 0.948482 0.109696
4.327863 0.952857 0.127509
4.365466 0.946952 0.073645
4.343474 0.970043 0.078932
4.347519 0.963068 0.088632
4.364399 0.946776 0.086122
4.349677 0.931909 0.070915
4.327685 0.955000 0.076201
4.331731 0.948025 0.085902
4.348611 0.931732 0.083392
4.368159 0.870835 0.071074
4.367705 0.893861 0.087108
4.367665 0.894867 0.098549
4.368536 0.880654 0.095632
4.346212 0.869790 0.071594
4.345758 0.892816 0.087628
4.345718 0.893822 0.099068
4.346589 0.879609 0.096152
4.368489 0.881232 0.095496
4.367618 0.895445 0.098412
4.367511 0.896438 0.109874
4.368880 0.891042 0.120039
4.346636 0.879042 0.096325
4.345765 0.893255 0.099241
4.345658 0.894249 0.110703
4.347027 0.888853 0.120868
4.322997 0.843965 0.059109
4.322988 0.855457 0.073598
4.319974 0.850566 0.074902
4.320431 0.840260 0.061573
4.304297 0.852899 0.051795
4.304287 0.864391 0.066283
4.301273 0.859500 0.067587
4.301730 0.849194 0.054259
4.326837 0.797639 0.025613
4.325011 0.821684 0.042911
4.322498 0.818925 0.046011
4.324569 0.795728 0.029450
4.307774 0.802929 0.016039
4.305948 0.826973 0.033337
4.303435 0.824214 0.036437
4.305506 0.801017 0.019876
4.324770 0.821425 0.043224
4.322941 0.845488 0.060519
4.320374 0.841783 0.062983
4.322257 0.818666 0.046324
4.306185 0.827279 0.033058
4.304355 0.851341 0.050353
4.301789 0.847637 0.052817
4.303672 0.824520 0.036158
4.323266 0.855162 0.072252
4.322509 0.868089 0.101212
4.319933 0.863801 0.104279
4.320253 0.850271 0.073557
4.304008 0.864710 0.067672
4.303251 0.877637 0.096632
4.300674 0.873350 0.099699
4.300994 0.859819 0.068976
4.322750 0.868565 0.101130
4.321984 0.881493 0.130067
4.319455 0.878044 0.134829
4.320173 0.864278 0.104197
4.303009 0.877188 0.096774
4.302243 0.890115 0.125711
4.299714 0.886667 0.130474
4.300432 0.872900 0.099841
4.321795 0.886158 0.133091
4.319551 0.910191 0.135544
4.316898 0.908273 0.140804
4.319265 0.882709 0.137854
4.302430 0.885488 0.122719
4.300187 0.909521 0.125172
4.297533 0.907603 0.130432
4.299900 0.882039 0.127482
4.319591 0.910269 0.135463
4.317361 0.934297 0.137945
4.314390 0.933909 0.143580
4.316938 0.908350 0.140723
4.300142 0.909493 0.125258
4.297912 0.933522 0.127740
4.294940 0.933134 0.133375
4.297489 0.907575 0.130518
4.367565 0.895669 0.110007
4.367928 0.917082 0.110893
4.367351 0.914946 0.122573
4.368934 0.890273 0.120172
4.345604 0.895047 0.110588
4.345967 0.916459 0.111474
4.345389 0.914324 0.123154
4.346972 0.889651 0.120754
4.367843 0.916958 0.112598
4.368307 0.938372 0.113507
4.365679 0.939496 0.126659
4.367266 0.914823 0.124278
4.346050 0.916629 0.109772
4.346514 0.938043 0.110681
4.343886 0.939167 0.123833
4.345473 0.914493 0.121452
4.368766 0.866806 0.013861
4.368343 0.891364 0.014246
4.368470 0.892392 0.042939
4.368411 0.868595 0.042590
4.346788 0.866642 0.013781
4.346366 0.891200 0.014166
4.346493 0.892228 0.042859
4.346433 0.868431 0.042511
4.368342 0.891460 0.014153
4.368002 0.916032 0.014539
4.368135 0.916268 0.043203
4.368469 0.892488 0.042846
4.346367 0.891152 0.014259
4.346027 0.915724 0.014645
4.346159 0.915960 0.043310
4.346493 0.892180 0.042953
4.367999 0.916152 0.014434
4.367171 0.940698 0.014832
4.367871 0.940189 0.043447
4.368132 0.916388 0.043098
4.346029 0.915652 0.014751
4.345201 0.940198 0.015149
4.345901 0.939689 0.043764
4.346162 0.915888 0.043415
4.368410 0.868443 0.042638
4.368470 0.892239 0.042986
4.368418 0.893251 0.071686
4.368175 0.870237 0.071361
4.346433 0.868586 0.042520
4.346493 0.892383 0.042869
4.346441 0.893394 0.071569
4.346198 0.870381 0.071244
4.368470 0.892373 0.042849
4.368136 0.916153 0.043206
4.368595 0.916414 0.071859
4.368418 0.893384 0.071549
4.346493 0.892297 0.043007
4.346159 0.916077 0.043364
4.346618 0.916338 0.072016
4.346441 0.893308 0.071707
4.368134 0.916208 0.043064
4.367873 0.940009 0.043413
4.368568 0.939479 0.072037
4.368593 0.916470 0.071717
4.346161 0.916068 0.043507
4.345900 0.939869 0.043855
4.346595 0.939339 0.072479
4.346620 0.916330 0.072159
4.366963 0.851815 0.014501
4.368698 0.865494 0.013948
4.368343 0.867283 0.042678
4.367010 0.852360 0.033396
4.345120 0.854237 0.014241
4.346855 0.867915 0.013689
4.346500 0.869705 0.042418
4.345168 0.854781 0.033137
4.367035 0.852608 0.033399
4.368367 0.867531 0.042680
4.368132 0.869325 0.071404
4.367007 0.853163 0.052300
4.345143 0.854536 0.033182
4.346475 0.869459 0.042463
4.346239 0.871253 0.071187
4.345115 0.855091 0.052084
4.352428 0.799921 0.012201
4.359613 0.824929 0.013356
4.361854 0.833665 0.026340
4.359524 0.825499 0.032253
4.331293 0.805942 0.011921
4.338478 0.830950 0.013076
4.340718 0.839686 0.026060
4.338389 0.831520 0.031973
4.359623 0.824964 0.013329
4.366611 0.850014 0.014480
4.366658 0.850559 0.033375
4.361864 0.833700 0.026314
4.338478 0.830953 0.013104
4.345466 0.856003 0.014254
4.345513 0.856548 0.033149
4.340719 0.839689 0.026088
4.361859 0.833683 0.026296
4.366653 0.850542 0.033357
4.366625 0.851097 0.052259
4.359530 0.825517 0.032209
4.340723 0.839707 0.026135
4.345518 0.856565 0.033196
4.345489 0.857120 0.052098
4.338394 0.831540 0.032048
4.368164 0.870324 0.071812
4.368407 0.893337 0.072137
4.367476 0.908638 0.086959
4.367710 0.893350 0.087846
4.346208 0.870315 0.070838
4.346451 0.893328 0.071163
4.345520 0.908629 0.085984
4.345753 0.893341 0.086872
4.368389 0.893258 0.072436
4.368566 0.916289 0.072746
4.367647 0.923829 0.086422
4.367459 0.908559 0.087258
4.346468 0.893446 0.070863
4.346645 0.916476 0.071173
4.345726 0.924017 0.084848
4.345538 0.908747 0.085685
4.368565 0.916470 0.072772
4.368540 0.939479 0.073091
4.367473 0.939303 0.085568
4.367646 0.924010 0.086448
4.346647 0.916334 0.071146
4.346623 0.939343 0.071466
4.345556 0.939166 0.083942
4.345728 0.923874 0.084822
4.367374 0.866400 -0.032086
4.366729 0.891894 -0.032762
4.367558 0.891731 -0.009501
4.368202 0.866696 -0.009361
4.345417 0.865852 -0.031293
4.344772 0.891347 -0.031969
4.345602 0.891184 -0.008708
4.346245 0.866149 -0.008568
4.366727 0.891914 -0.032798
4.365987 0.917419 -0.033471
4.367029 0.916776 -0.009684
4.367557 0.891751 -0.009537
4.344772 0.891378 -0.031934
4.344033 0.916883 -0.032607
4.345075 0.916240 -0.008820
4.345602 0.891214 -0.008672
4.365981 0.917573 -0.033503
4.365046 0.943059 -0.034167
4.366097 0.941957 -0.009843
4.367023 0.916930 -0.009715
4.344037 0.916779 -0.032577
4.343102 0.942265 -0.033241
4.344153 0.941163 -0.008917
4.345079 0.916136 -0.008789
4.368206 0.866660 -0.009258
4.367563 0.891695 -0.009398
4.368336 0.891519 0.013863
4.368759 0.866961 0.013478
4.346242 0.866185 -0.008624
4.345599 0.891220 -0.008764
4.346373 0.891044 0.014497
4.346795 0.866486 0.014112
4.367560 0.891676 -0.009482
4.367033 0.916701 -0.009630
4.367994 0.916072 0.014165
4.368334 0.891500 0.013779
4.345600 0.891288 -0.008679
4.345073 0.916313 -0.008827
4.346034 0.915684 0.014968
4.346374 0.891112 0.014582
4.367025 0.916923 -0.009675
4.366099 0.941950 -0.009803
4.367158 0.940839 0.014517
4.367986 0.916293 0.014120
4.345079 0.916141 -0.008781
4.344153 0.941168 -0.008910
4.345212 0.940057 0.015411
4.346040 0.915512 0.015013
4.368666 0.865405 0.013103
4.367446 0.855084 -0.001263
4.366211 0.856509 -0.008915
4.368114 0.865104 -0.009634
4.346886 0.868007 0.014480
4.345666 0.857686 0.000115
4.344431 0.859110 -0.007537
4.346334 0.867706 -0.008256
4.368109 0.864905 -0.008992
4.366206 0.856309 -0.008273
4.366833 0.855796 -0.016117
4.367281 0.864609 -0.031717
4.346337 0.867905 -0.008928
4.344434 0.859310 -0.008210
4.345061 0.858796 -0.016053
4.345509 0.867609 -0.031653
4.366779 0.852618 -0.030353
4.367348 0.865232 -0.031555
4.366900 0.856419 -0.015954
4.366201 0.853047 -0.017590
4.344872 0.854364 -0.030629
4.345442 0.866978 -0.031831
4.344993 0.858165 -0.016231
4.344294 0.854793 -0.017866
4.345622 0.750985 -0.038860
4.323230 0.751847 -0.043354
4.321436 0.777402 -0.043125
4.344840 0.777670 -0.038690
4.341412 0.750612 -0.017292
4.319020 0.751475 -0.021786
4.317226 0.777030 -0.021557
4.340630 0.777298 -0.017122
4.344704 0.777730 -0.038714
4.321300 0.777462 -0.043149
4.319463 0.803052 -0.042802
4.343878 0.804375 -0.038484
4.340762 0.777290 -0.017097
4.317358 0.777022 -0.021532
4.315521 0.802612 -0.021184
4.339936 0.803934 -0.016867
4.352410 0.801169 -0.026378
4.359350 0.825805 -0.027785
4.358332 0.825995 -0.016572
4.350901 0.801134 -0.016700
4.331432 0.807193 -0.028960
4.338372 0.831829 -0.030367
4.337354 0.832019 -0.019154
4.329923 0.807158 -0.019282
4.359401 0.825809 -0.028297
4.366355 0.850442 -0.029711
4.365777 0.850871 -0.016948
4.358384 0.825999 -0.017084
4.338334 0.831874 -0.029856
4.345288 0.856507 -0.031270
4.344710 0.856936 -0.018507
4.337317 0.832064 -0.018643
4.354479 0.751246 -0.027265
4.353696 0.777931 -0.027095
4.352277 0.784542 -0.015570
4.353267 0.764590 -0.013887
4.332578 0.750361 -0.028870
4.331795 0.777047 -0.028700
4.330376 0.783658 -0.017175
4.331365 0.763706 -0.015492
4.353639 0.777960 -0.026533
4.352813 0.804604 -0.026302
4.351303 0.804569 -0.016625
4.352220 0.784571 -0.015007
4.331850 0.777065 -0.029264
4.331024 0.803709 -0.029034
4.329514 0.803674 -0.019356
4.330431 0.783676 -0.017739
4.340983 0.630519 -0.036833
4.339645 0.629416 -0.040783
4.337030 0.660432 -0.041040
4.338862 0.660924 -0.037272
4.320806 0.629060 -0.028244
4.319468 0.627957 -0.032194
4.316852 0.658973 -0.032450
4.318685 0.659465 -0.028682
4.338600 0.661019 -0.037827
4.336767 0.660527 -0.041595
4.334389 0.691321 -0.041399
4.336157 0.691580 -0.037749
4.318942 0.659432 -0.028127
4.317110 0.658939 -0.031895
4.314732 0.689733 -0.031699
4.316500 0.689992 -0.028049
4.336185 0.691652 -0.037679
4.334418 0.691393 -0.041329
4.331988 0.721903 -0.041050
4.333655 0.722247 -0.037511
4.316467 0.689981 -0.028119
4.314699 0.689722 -0.031769
4.312269 0.720232 -0.031489
4.313936 0.720576 -0.027950
4.333703 0.722335 -0.037394
4.332036 0.721991 -0.040933
4.329374 0.753065 -0.040712
4.331025 0.752526 -0.037237
4.313882 0.720550 -0.028067
4.312216 0.720206 -0.031606
4.309553 0.751280 -0.031386
4.311204 0.750741 -0.027911
4.355895 0.631484 -0.037603
4.333310 0.629583 -0.043255
4.331189 0.659988 -0.043693
4.354072 0.661195 -0.039213
4.351088 0.631900 -0.016161
4.328503 0.629999 -0.021813
4.326382 0.660404 -0.022252
4.349265 0.661611 -0.017771
4.353737 0.661602 -0.039284
4.330854 0.660395 -0.043764
4.328412 0.690955 -0.043686
4.350886 0.691336 -0.039435
4.349595 0.661264 -0.017702
4.326712 0.660057 -0.022182
4.324269 0.690618 -0.022104
4.346744 0.690998 -0.017854
4.350865 0.691437 -0.039437
4.328390 0.691057 -0.043688
4.325860 0.721652 -0.043520
4.348022 0.721225 -0.039284
4.346760 0.690957 -0.017851
4.324286 0.690576 -0.022102
4.321755 0.721171 -0.021934
4.343917 0.720745 -0.017698
4.348087 0.721299 -0.039269
4.325925 0.721726 -0.043505
4.323247 0.751917 -0.043349
4.345640 0.751054 -0.038855
4.343846 0.720731 -0.017712
4.321684 0.721158 -0.021948
4.319007 0.751349 -0.021791
4.341399 0.750487 -0.017297
4.363851 0.644723 -0.015813
4.364435 0.632733 -0.026482
4.362612 0.662444 -0.028093
4.360949 0.667255 -0.020538
4.341986 0.642650 -0.016597
4.342569 0.630660 -0.027267
4.340746 0.660371 -0.028878
4.339083 0.665182 -0.021323
4.360904 0.667127 -0.019759
4.362567 0.662316 -0.027314
4.359717 0.692050 -0.027465
4.359433 0.690846 -0.019656
4.339123 0.665364 -0.022105
4.340786 0.660553 -0.029660
4.337936 0.690287 -0.029811
4.337652 0.689083 -0.022002
4.359458 0.691056 -0.020167
4.359741 0.692260 -0.027977
4.356898 0.722048 -0.027823
4.357086 0.714688 -0.020270
4.337623 0.688926 -0.021490
4.337907 0.690130 -0.029300
4.335063 0.719918 -0.029146
4.335251 0.712557 -0.021593
4.357114 0.714505 -0.020520
4.356926 0.721866 -0.028073
4.354479 0.751621 -0.027658
4.355233 0.737696 -0.015965
4.335218 0.712793 -0.021341
4.335030 0.720153 -0.028894
4.332583 0.749908 -0.028480
4.333338 0.735983 -0.016786
4.355479 0.606552 -0.037675
4.334671 0.607083 -0.043011
4.333605 0.629776 -0.043186
4.356190 0.631677 -0.037534
4.350085 0.606527 -0.016369
4.329277 0.607059 -0.021705
4.328211 0.629752 -0.021880
4.350796 0.631653 -0.016228
4.341903 0.607330 -0.037040
4.342124 0.596170 -0.037526
4.340098 0.596385 -0.041520
4.340097 0.607454 -0.041169
4.322022 0.606778 -0.027686
4.322244 0.595618 -0.028172
4.320218 0.595833 -0.032167
4.320216 0.606902 -0.031815
4.351302 0.592189 -0.036343
4.335603 0.594993 -0.043252
4.335381 0.606152 -0.042766
4.356190 0.605621 -0.037430
4.344485 0.593991 -0.015527
4.328785 0.596794 -0.022436
4.328564 0.607954 -0.021950
4.349372 0.607422 -0.016614
4.338780 0.555893 -0.015029
4.342361 0.555365 -0.021631
4.356779 0.589138 -0.020795
4.321002 0.563736 -0.025298
4.324583 0.563209 -0.031900
4.339001 0.596982 -0.031064
4.346184 0.508948 -0.018346
4.344045 0.534447 -0.019040
4.339750 0.534948 -0.013209
4.341264 0.509456 -0.013240
4.329348 0.507559 -0.032404
4.327208 0.533058 -0.033098
4.322914 0.533559 -0.027267
4.324427 0.508067 -0.027298
4.344915 0.534505 -0.020245
4.342757 0.559990 -0.020940
4.339177 0.560517 -0.014338
4.340620 0.535006 -0.014414
4.326335 0.533051 -0.031894
4.324177 0.558536 -0.032589
4.320596 0.559064 -0.025987
4.322040 0.533552 -0.026063
4.368589 0.864746 0.013733
4.366855 0.851067 0.014285
4.365940 0.850511 0.001625
4.367369 0.854425 -0.000633
4.346962 0.868657 0.013867
4.345228 0.854978 0.014419
4.344313 0.854422 0.001759
4.345743 0.858336 -0.000498
4.345816 0.751633 0.020166
4.345139 0.776849 0.021423
4.321875 0.774887 0.027889
4.323943 0.750363 0.024604
4.340558 0.753286 -0.001109
4.339881 0.778502 0.000148
4.316617 0.776539 0.006614
4.318685 0.752016 0.003328
4.345907 0.776867 0.021205
4.345241 0.802063 0.022472
4.320719 0.799428 0.031227
4.322643 0.774904 0.027671
4.339111 0.778534 0.000371
4.338445 0.803730 0.001638
4.313922 0.801096 0.010393
4.315846 0.776571 0.006837
4.350353 0.800951 -0.000441
4.357708 0.825237 -0.000324
4.359439 0.824913 0.011319
4.352254 0.799905 0.010164
4.329559 0.806988 0.003325
4.336914 0.831274 0.003442
4.338645 0.830950 0.015085
4.331460 0.805942 0.013930
4.357797 0.825160 0.000449
4.365600 0.849330 0.000582
4.366515 0.849886 0.013242
4.359527 0.824836 0.012092
4.336840 0.831400 0.002670
4.344644 0.855570 0.002803
4.345559 0.856126 0.015463
4.338571 0.831076 0.014313
4.354068 0.752927 0.007986
4.352416 0.767149 -0.000969
4.351470 0.785753 -0.000558
4.353392 0.778143 0.009243
4.332325 0.752005 0.011056
4.330673 0.766226 0.002101
4.329727 0.784831 0.002513
4.331649 0.777221 0.012313
4.353343 0.778101 0.008919
4.351421 0.785711 -0.000881
4.350776 0.804343 -0.000418
4.352677 0.803297 0.010187
4.331697 0.777307 0.012639
4.329774 0.784917 0.002838
4.329129 0.803549 0.003301
4.331031 0.802503 0.013906
4.339230 0.630219 0.019278
4.337127 0.660615 0.019481
4.334308 0.660203 0.024544
4.336304 0.630121 0.023694
4.320483 0.629147 0.007857
4.318379 0.659543 0.008061
4.315560 0.659131 0.013124
4.317556 0.629049 0.012274
4.337319 0.660746 0.019138
4.335058 0.691013 0.019563
4.332129 0.690488 0.024860
4.334500 0.660335 0.024201
4.318182 0.659472 0.008406
4.315920 0.689738 0.008831
4.312992 0.689213 0.014128
4.315363 0.659060 0.013469
4.335041 0.691088 0.019583
4.332791 0.721527 0.019754
4.329689 0.720501 0.025353
4.332113 0.690563 0.024880
4.315932 0.689724 0.008812
4.313682 0.720162 0.008983
4.310579 0.719136 0.014582
4.313004 0.689198 0.014109
4.332678 0.721589 0.019941
4.330747 0.751875 0.019543
4.327056 0.751229 0.025670
4.329576 0.720563 0.025540
4.313790 0.720161 0.008795
4.311860 0.750447 0.008397
4.308168 0.749801 0.014524
4.310688 0.719135 0.014394
4.353440 0.631411 0.021123
4.352151 0.661681 0.021484
4.329338 0.660066 0.024643
4.331442 0.629671 0.024439
4.350295 0.631437 -0.000628
4.349006 0.661708 -0.000268
4.326193 0.660093 0.002891
4.328297 0.629697 0.002688
4.352176 0.661764 0.021480
4.349534 0.691982 0.021556
4.327101 0.690416 0.025065
4.329363 0.660150 0.024639
4.348977 0.661685 -0.000263
4.346335 0.691903 -0.000188
4.323902 0.690337 0.003321
4.326164 0.660070 0.002896
4.349730 0.692128 0.021524
4.347203 0.722315 0.021275
4.325047 0.721002 0.025203
4.327297 0.690563 0.025033
4.346134 0.691817 -0.000155
4.343607 0.722004 -0.000405
4.321451 0.720690 0.003524
4.323701 0.690251 0.003353
4.347432 0.722562 0.021228
4.345217 0.752804 0.020321
4.323345 0.751534 0.024759
4.325276 0.721248 0.025157
4.343373 0.721818 -0.000359
4.341159 0.752061 -0.001266
4.319287 0.750790 0.003172
4.321218 0.720504 0.003570
4.362399 0.645230 -0.001522
4.360205 0.668062 0.002467
4.361549 0.662443 0.010308
4.362838 0.632173 0.009947
4.340479 0.643744 -0.000934
4.338285 0.666576 0.003054
4.339629 0.660957 0.010895
4.340918 0.630687 0.010535
4.360169 0.668188 0.001934
4.358679 0.691797 0.002137
4.358871 0.692787 0.009851
4.361512 0.662569 0.009775
4.338318 0.666503 0.003590
4.336828 0.690112 0.003793
4.337020 0.691101 0.011507
4.339662 0.660884 0.011431
4.358688 0.691922 0.002458
4.356594 0.715476 0.002727
4.356353 0.723099 0.009922
4.358880 0.692912 0.010171
4.336814 0.690041 0.003473
4.334720 0.713594 0.003742
4.334479 0.721217 0.010937
4.337007 0.691030 0.011187
4.356619 0.715292 0.003116
4.355219 0.738269 -0.002380
4.354164 0.753158 0.009404
4.356378 0.722915 0.010311
4.334691 0.713832 0.003350
4.333291 0.736808 -0.002146
4.332236 0.751697 0.009638
4.334450 0.721455 0.010545
4.339158 0.630228 0.019394
4.336232 0.630130 0.023810
4.338292 0.606069 0.023148
4.340895 0.606114 0.018724
4.320559 0.629084 0.007740
4.317633 0.628986 0.012157
4.319693 0.604925 0.011494
4.322296 0.604970 0.007071
4.353129 0.605966 0.020461
4.353596 0.631154 0.021097
4.331597 0.629414 0.024413
4.333335 0.605300 0.023743
4.349676 0.606451 -0.001238
4.350142 0.631639 -0.000603
4.328143 0.629899 0.002713
4.329881 0.605785 0.002044
4.340619 0.595557 0.018212
4.341003 0.604884 0.018542
4.338399 0.604839 0.022966
4.337798 0.595917 0.022865
4.321806 0.596840 0.006922
4.322190 0.606166 0.007252
4.319586 0.606122 0.011676
4.318985 0.597200 0.011575
4.350087 0.589697 0.015866
4.354145 0.603708 0.019958
4.334350 0.603042 0.023240
4.333966 0.593715 0.022910
4.344601 0.594662 -0.004829
4.348658 0.608673 -0.000737
4.328864 0.608007 0.002545
4.328480 0.598680 0.002215
4.340134 0.556702 0.015201
4.341402 0.595939 0.016675
4.338580 0.596298 0.021327
4.338386 0.556744 0.021908
4.319755 0.557173 0.006986
4.321022 0.596410 0.008459
4.318201 0.596770 0.013112
4.318006 0.557216 0.013693
4.352588 0.591081 0.015112
4.336467 0.595099 0.022156
4.335199 0.555863 0.020683
4.337996 0.555783 0.016920
4.342091 0.593228 -0.004077
4.325969 0.597247 0.002967
4.324702 0.558010 0.001494
4.327499 0.557931 -0.002270
4.337942 0.555793 -0.004755
4.355684 0.588388 -0.000569
4.341093 0.553091 0.001238
4.321254 0.563314 0.007410
4.338997 0.595909 0.011596
4.324405 0.560612 0.013403
4.340562 0.557779 0.013791
4.338814 0.557822 0.020498
4.340958 0.533505 0.020094
4.342550 0.533690 0.013608
4.319328 0.556032 0.008396
4.317580 0.556074 0.015103
4.319724 0.531758 0.014698
4.321316 0.531943 0.008212
4.342595 0.533695 0.013422
4.341003 0.533510 0.019908
4.343238 0.509188 0.019499
4.344596 0.509621 0.013249
4.321276 0.531889 0.008397
4.319683 0.531705 0.014883
4.321919 0.507382 0.014474
4.323277 0.507815 0.008224
4.341817 0.557441 0.013494
4.339020 0.557520 0.017258
4.341008 0.533431 0.017075
4.343710 0.532893 0.012813
4.323672 0.556212 0.001155
4.320874 0.556291 0.004918
4.322863 0.532202 0.004735
4.325565 0.531665 0.000473
4.344146 0.532922 0.012114
4.341444 0.533459 0.016375
4.343445 0.509385 0.016202
4.346050 0.508359 0.011433
4.325132 0.531587 0.001172
4.322431 0.532125 0.005433
4.324431 0.508051 0.005260
4.327036 0.507025 0.000491
4.339161 0.560256 -0.004030
4.342311 0.557554 0.001962
4.344204 0.533006 0.001281
4.340636 0.534606 -0.004141
4.320027 0.558803 0.006684
4.323177 0.556101 0.012677
4.325070 0.531553 0.011996
4.321502 0.533153 0.006573
4.339981 0.534560 -0.005176
4.343549 0.532960 0.000246
4.345453 0.508398 -0.000435
4.341487 0.508928 -0.005281
4.322160 0.533149 0.007608
4.325728 0.531549 0.013030
4.327632 0.506987 0.012349
4.323666 0.507517 0.007503
4.326708 0.800143 0.026505
4.324440 0.798231 0.030342
4.325555 0.774362 0.027877
4.328632 0.775618 0.022949
4.307906 0.800378 0.015127
4.305639 0.798466 0.018964
4.306754 0.774597 0.016499
4.309830 0.775853 0.011571
4.328602 0.775756 0.023000
4.325525 0.774499 0.027928
4.326979 0.750587 0.025842
4.330670 0.751233 0.019715
4.309864 0.775667 0.011514
4.306787 0.774411 0.016442
4.308242 0.750498 0.014355
4.311933 0.751144 0.008229
4.342182 0.607440 -0.036384
4.340376 0.607564 -0.040514
4.339778 0.629029 -0.040510
4.341116 0.630133 -0.036560
4.321742 0.606701 -0.028341
4.319936 0.606825 -0.032470
4.319338 0.628290 -0.032467
4.320676 0.629394 -0.028517
4.340997 0.559522 -0.034720
4.340185 0.561126 -0.039660
4.340600 0.595681 -0.040242
4.342626 0.595467 -0.036248
4.320112 0.560331 -0.027923
4.319301 0.561935 -0.032863
4.319715 0.596490 -0.033445
4.321741 0.596276 -0.029450
4.353420 0.591700 -0.035331
4.339002 0.557927 -0.036167
4.336092 0.558559 -0.040713
4.337720 0.594504 -0.042240
4.342357 0.594433 -0.016538
4.327939 0.560660 -0.017374
4.325029 0.561291 -0.021920
4.326658 0.597236 -0.023447
4.341451 0.560764 -0.032455
4.343367 0.534814 -0.032297
4.342982 0.535666 -0.036971
4.340639 0.562368 -0.037395
4.319660 0.559027 -0.030187
4.321576 0.533077 -0.030029
4.321191 0.533928 -0.034702
4.318848 0.560631 -0.035127
4.343421 0.534800 -0.031517
4.345349 0.508861 -0.031352
4.345366 0.508939 -0.035763
4.343037 0.535652 -0.036190
4.321526 0.533038 -0.030809
4.323453 0.507099 -0.030645
4.323470 0.507177 -0.035055
4.321141 0.533889 -0.035482
4.342775 0.559904 -0.032577
4.344933 0.534419 -0.031882
4.341781 0.534585 -0.036965
4.339865 0.560535 -0.037123
4.324160 0.558622 -0.020963
4.326318 0.533137 -0.020268
4.323166 0.533304 -0.025351
4.321250 0.559254 -0.025509
4.344993 0.534397 -0.031786
4.347133 0.508899 -0.031092
4.343769 0.508625 -0.036705
4.341841 0.534564 -0.036869
4.326261 0.533107 -0.020363
4.328401 0.507608 -0.019669
4.325037 0.507334 -0.025282
4.323109 0.533274 -0.025446
4.367366 0.866418 -0.032269
4.365090 0.887440 -0.067629
4.365050 0.900547 -0.060680
4.366720 0.891913 -0.032945
4.345423 0.865849 -0.031165
4.343147 0.886871 -0.066525
4.343107 0.899978 -0.059575
4.344777 0.891343 -0.031840
4.365106 0.887244 -0.067163
4.364886 0.907416 -0.085140
4.364815 0.918075 -0.084155
4.365066 0.900350 -0.060213
4.343129 0.887101 -0.067044
4.342909 0.907274 -0.085022
4.342838 0.917933 -0.084036
4.343089 0.900208 -0.060095
4.366723 0.891867 -0.032904
4.365053 0.900501 -0.060639
4.364902 0.920838 -0.059570
4.365984 0.917372 -0.033578
4.344774 0.891432 -0.031878
4.343103 0.900066 -0.059613
4.342953 0.920403 -0.058543
4.344034 0.916937 -0.032551
4.365066 0.900375 -0.060204
4.364815 0.918100 -0.084146
4.364744 0.928771 -0.083161
4.364915 0.920712 -0.059135
4.343089 0.900211 -0.060098
4.342838 0.917935 -0.084040
4.342766 0.928606 -0.083055
4.342938 0.920548 -0.059029
4.365991 0.917437 -0.033354
4.364909 0.920904 -0.059346
4.364751 0.941961 -0.058331
4.365055 0.942924 -0.034018
4.344026 0.916917 -0.032775
4.342945 0.920384 -0.058767
4.342787 0.941441 -0.057752
4.343091 0.942403 -0.033439
4.364915 0.920728 -0.059130
4.364744 0.928787 -0.083156
4.364672 0.939443 -0.082169
4.364757 0.941785 -0.058115
4.342938 0.920563 -0.059032
4.342766 0.928622 -0.083058
4.342695 0.939278 -0.082071
4.342780 0.941620 -0.058017
4.325651 0.801469 -0.039212
4.321647 0.802249 -0.043638
4.319781 0.826141 -0.050616
4.324049 0.826742 -0.045629
4.309301 0.804245 -0.024789
4.305297 0.805025 -0.029215
4.303431 0.828917 -0.036194
4.307699 0.829518 -0.031207
4.324337 0.826865 -0.045313
4.320068 0.826264 -0.050300
4.318133 0.850142 -0.057294
4.322763 0.852116 -0.051828
4.307408 0.829444 -0.031536
4.303139 0.828843 -0.036523
4.301204 0.852721 -0.043518
4.305834 0.854695 -0.038052
4.343560 0.801282 -0.038149
4.319145 0.799960 -0.042467
4.317543 0.825233 -0.048884
4.349485 0.825884 -0.044853
4.340255 0.807078 -0.017208
4.315840 0.805755 -0.021526
4.314238 0.831028 -0.027943
4.346179 0.831680 -0.023912
4.365155 0.865937 -0.050699
4.367214 0.865075 -0.033324
4.366645 0.852461 -0.032122
4.364601 0.852395 -0.042712
4.343515 0.868003 -0.047465
4.345574 0.867140 -0.030090
4.345005 0.854526 -0.028888
4.342961 0.854460 -0.039478
4.352299 0.801150 -0.029644
4.358224 0.825752 -0.036348
4.359239 0.825786 -0.031051
4.331546 0.807220 -0.025708
4.337471 0.831822 -0.032411
4.338486 0.831856 -0.027115
4.359241 0.825802 -0.031064
4.358226 0.825768 -0.036361
4.364151 0.850369 -0.043068
4.366195 0.850435 -0.032479
4.338494 0.831881 -0.027108
4.337480 0.831847 -0.032405
4.343404 0.856448 -0.039112
4.345448 0.856514 -0.028523
4.326070 0.803684 -0.038795
4.327908 0.778094 -0.039143
4.325112 0.778795 -0.043126
4.322066 0.804464 -0.043221
4.308886 0.801980 -0.025199
4.310724 0.776390 -0.025547
4.307928 0.777091 -0.029530
4.304882 0.802759 -0.029625
4.328790 0.778085 -0.037849
4.330584 0.752530 -0.038077
4.328933 0.753070 -0.041552
4.325994 0.778786 -0.041831
4.309846 0.776347 -0.026842
4.311640 0.750792 -0.027071
4.309989 0.751332 -0.030546
4.307051 0.777048 -0.030824
4.323468 0.851228 -0.050588
4.318838 0.849253 -0.056054
4.317692 0.863028 -0.064579
4.320302 0.866134 -0.060251
4.305124 0.855623 -0.039308
4.300494 0.853649 -0.044774
4.299349 0.867423 -0.053300
4.301958 0.870529 -0.048972
4.312980 0.964266 0.016417
4.312557 0.964966 -0.008228
4.311111 0.992478 -0.006699
4.311143 0.992647 0.016843
4.291041 0.962970 0.016610
4.290618 0.963670 -0.008035
4.289172 0.991183 -0.006506
4.289204 0.991351 0.017035
4.312550 0.965021 -0.008459
4.312099 0.965723 -0.033113
4.310193 0.992291 -0.030446
4.311104 0.992534 -0.006930
4.290625 0.963615 -0.007852
4.290175 0.964317 -0.032507
4.288268 0.990885 -0.029839
4.289179 0.991128 -0.006324
4.305730 0.975830 0.067261
4.306263 0.975728 0.099838
4.336654 0.972426 0.102892
4.336517 0.973480 0.077781
4.303800 0.953940 0.066845
4.304333 0.953838 0.099421
4.334724 0.950537 0.102476
4.334588 0.951591 0.077365
4.306668 0.975684 0.099866
4.307195 0.975571 0.132448
4.337192 0.971315 0.128025
4.337058 0.972382 0.102921
4.303930 0.953881 0.099451
4.304457 0.953769 0.132034
4.334454 0.949512 0.127610
4.334320 0.950580 0.102506
4.311746 0.992032 0.132059
4.312391 0.990915 0.141656
4.311357 0.966637 0.143103
4.316427 0.965675 0.134910
4.290508 0.990052 0.126760
4.291153 0.988935 0.136357
4.290120 0.964657 0.137804
4.295189 0.963695 0.129611
4.344873 0.968379 0.077690
4.345009 0.967326 0.102802
4.348866 0.961622 0.098738
4.348918 0.961405 0.087391
4.326267 0.956682 0.077465
4.326403 0.955628 0.102577
4.330261 0.949925 0.098512
4.330313 0.949708 0.087165
4.344569 0.967973 0.102806
4.344702 0.966905 0.127911
4.348476 0.962531 0.110097
4.348426 0.962269 0.098742
4.326843 0.954980 0.102609
4.326977 0.953913 0.127713
4.330751 0.949538 0.109899
4.330701 0.949277 0.098544
4.312954 0.964559 0.016169
4.311117 0.992941 0.016595
4.311393 0.992756 0.041851
4.314339 0.965202 0.041397
4.291069 0.962676 0.016907
4.289232 0.991058 0.017332
4.289508 0.990873 0.042589
4.292454 0.963319 0.042134
4.314281 0.965754 0.041526
4.311335 0.993307 0.041980
4.311163 0.993064 0.067247
4.315631 0.966392 0.066755
4.292513 0.962768 0.042057
4.289567 0.990322 0.042511
4.289395 0.990079 0.067778
4.293863 0.963407 0.067286
4.310626 0.966532 -0.092439
4.313334 0.948557 -0.094449
4.309941 0.951471 -0.100804
4.309868 0.967347 -0.099939
4.289522 0.964313 -0.086715
4.292231 0.946338 -0.088725
4.288838 0.949251 -0.095079
4.288765 0.965128 -0.094214
4.317210 0.906247 -0.095174
4.315192 0.905972 -0.100413
4.313296 0.921105 -0.100980
4.315781 0.920309 -0.095381
4.296970 0.904162 -0.086866
4.294952 0.903887 -0.092105
4.293056 0.919019 -0.092672
4.295541 0.918224 -0.087073
4.315696 0.920270 -0.095591
4.313211 0.921066 -0.101190
4.311424 0.936197 -0.101808
4.314260 0.934344 -0.095769
4.295622 0.918293 -0.086863
4.293138 0.919088 -0.092462
4.291350 0.934219 -0.093080
4.294187 0.932367 -0.087041
4.314153 0.934431 -0.095989
4.311316 0.936284 -0.102028
4.309322 0.951406 -0.102526
4.312715 0.948493 -0.096171
4.294291 0.932309 -0.086822
4.291455 0.934162 -0.092860
4.289460 0.949284 -0.093358
4.292853 0.946370 -0.087004
4.307412 0.993276 -0.088175
4.310886 0.967041 -0.090695
4.310129 0.967856 -0.098194
4.306609 0.992297 -0.095977
4.285783 0.990081 -0.085935
4.289257 0.963846 -0.088456
4.288500 0.964661 -0.095955
4.284980 0.989102 -0.093738
4.354052 0.754104 0.009993
4.355045 0.753778 -0.008780
4.353213 0.764300 -0.006115
4.352399 0.768326 0.001038
4.332344 0.750804 0.009035
4.333337 0.750477 -0.009738
4.331505 0.761000 -0.007073
4.330692 0.765025 0.000080
4.355064 0.753699 -0.009548
4.354401 0.752364 -0.028337
4.353189 0.765709 -0.014959
4.353232 0.764222 -0.006883
4.333319 0.750554 -0.008996
4.332656 0.749219 -0.027784
4.331444 0.762564 -0.014406
4.331487 0.761077 -0.006331
4.354174 0.752720 0.009997
4.355229 0.737832 -0.001787
4.355366 0.738617 -0.008908
4.355167 0.752393 -0.008777
4.332224 0.752161 0.009029
4.333280 0.737273 -0.002755
4.333416 0.738058 -0.009876
4.333217 0.751835 -0.009744
4.355173 0.752344 -0.009626
4.355372 0.738567 -0.009758
4.355265 0.737084 -0.016721
4.354511 0.751009 -0.028415
4.333211 0.751883 -0.008920
4.333410 0.738106 -0.009052
4.333304 0.736623 -0.016015
4.332549 0.750548 -0.027708
4.364458 0.631974 -0.026045
4.363874 0.643964 -0.015376
4.362834 0.641588 -0.007788
4.363603 0.631882 -0.007488
4.342549 0.631392 -0.027687
4.341965 0.643382 -0.017018
4.340925 0.641006 -0.009430
4.341695 0.631300 -0.009130
4.363600 0.632389 -0.007877
4.362830 0.642095 -0.008178
4.362392 0.645271 -0.000817
4.362831 0.632214 0.010652
4.341696 0.630793 -0.008714
4.340926 0.640499 -0.009014
4.340488 0.643675 -0.001654
4.340927 0.630618 0.009815
4.363768 0.606259 -0.026550
4.364479 0.631384 -0.026409
4.363625 0.631292 -0.007852
4.363072 0.606066 -0.008270
4.341817 0.606821 -0.027470
4.342527 0.631946 -0.027329
4.341673 0.631853 -0.008771
4.341120 0.606628 -0.009190
4.363073 0.606116 -0.008281
4.363626 0.631342 -0.007863
4.362858 0.631166 0.010666
4.362391 0.605978 0.010031
4.341117 0.606578 -0.009142
4.341670 0.631804 -0.008723
4.340901 0.631628 0.009806
4.340435 0.606440 0.009170
4.358283 0.589490 -0.025682
4.363170 0.602921 -0.026769
4.362473 0.602728 -0.008489
4.357972 0.589060 -0.009961
4.337523 0.596688 -0.026165
4.342410 0.610120 -0.027252
4.341713 0.609927 -0.008972
4.337212 0.596259 -0.010444
4.358075 0.589372 -0.009961
4.362576 0.603041 -0.008489
4.361894 0.602903 0.009823
4.357837 0.588892 0.005732
4.337108 0.595945 -0.010409
4.341609 0.609614 -0.008937
4.340927 0.609476 0.009375
4.336870 0.595465 0.005284
4.308104 0.962222 0.060422
4.334043 0.956175 0.066161
4.333322 0.955826 0.040909
4.307434 0.961316 0.038533
4.303224 0.940805 0.061137
4.329164 0.934757 0.066875
4.328442 0.934409 0.041623
4.302554 0.939898 0.039247
4.333950 0.956201 0.066497
4.359889 0.950165 0.072231
4.359194 0.950695 0.043607
4.333228 0.955853 0.041245
4.329309 0.934719 0.066547
4.355248 0.928683 0.072281
4.354553 0.929212 0.043657
4.328587 0.934371 0.041295
4.307180 0.961369 0.038502
4.333068 0.955880 0.040877
4.332346 0.955480 0.015617
4.306487 0.960459 0.016620
4.302806 0.939843 0.039232
4.328694 0.934354 0.041607
4.327972 0.933954 0.016347
4.302113 0.938933 0.017350
4.332866 0.955925 0.041213
4.358832 0.950767 0.043575
4.358131 0.951275 0.014960
4.332144 0.955525 0.015953
4.328948 0.934299 0.041273
4.354914 0.929141 0.043635
4.354214 0.929649 0.015020
4.328226 0.933899 0.016013
4.306257 0.960508 0.017095
4.332116 0.955529 0.016092
4.331546 0.956247 -0.008507
4.306116 0.960533 -0.007789
4.302342 0.938883 0.016827
4.328201 0.933904 0.015824
4.327631 0.934622 -0.008775
4.302201 0.938908 -0.008057
4.331904 0.955560 0.016305
4.357891 0.951311 0.015313
4.356832 0.952422 -0.009007
4.331334 0.956278 -0.008294
4.328464 0.933864 0.015609
4.354452 0.929615 0.014616
4.353393 0.930726 -0.009704
4.327895 0.934582 -0.008990
4.305863 0.960576 -0.007803
4.331293 0.956290 -0.008522
4.330724 0.957008 -0.033121
4.305729 0.960626 -0.032684
4.302453 0.938866 -0.008092
4.327883 0.934580 -0.008810
4.327314 0.935298 -0.033409
4.302319 0.938916 -0.032973
4.331198 0.956299 -0.008315
4.356697 0.952443 -0.009028
4.355645 0.953545 -0.033352
4.330629 0.957017 -0.032914
4.328029 0.934563 -0.009019
4.353527 0.930706 -0.009732
4.352476 0.931808 -0.034056
4.327459 0.935280 -0.033618
4.305623 0.960638 -0.033184
4.330618 0.957019 -0.033620
4.330433 0.956160 -0.060542
4.305549 0.959828 -0.062723
4.302425 0.938904 -0.032526
4.327420 0.935285 -0.032963
4.327235 0.934426 -0.059885
4.302351 0.938094 -0.062066
4.330592 0.957021 -0.033692
4.355609 0.953549 -0.034130
4.355305 0.952586 -0.058443
4.330408 0.956161 -0.060614
4.327495 0.935277 -0.032889
4.352511 0.931805 -0.033327
4.352207 0.930842 -0.057640
4.327310 0.934417 -0.059811
4.305702 0.959784 -0.063137
4.330586 0.956116 -0.060957
4.329977 0.954241 -0.087568
4.304550 0.958261 -0.092283
4.302197 0.938135 -0.061707
4.327081 0.934467 -0.059526
4.326472 0.932591 -0.086138
4.301046 0.936612 -0.090853
4.330621 0.956095 -0.061162
4.355518 0.952520 -0.058991
4.355434 0.950178 -0.083045
4.330012 0.954220 -0.087773
4.327096 0.934480 -0.059314
4.351993 0.930905 -0.057143
4.351909 0.928563 -0.081198
4.326487 0.932605 -0.085926
4.355747 0.929441 -0.093901
4.331012 0.931765 -0.098069
4.330255 0.944139 -0.097642
4.355676 0.940098 -0.092914
4.351737 0.927974 -0.072342
4.327002 0.930298 -0.076509
4.326245 0.942672 -0.076083
4.351666 0.938630 -0.071355
4.330916 0.931295 -0.098108
4.306171 0.933628 -0.102215
4.304733 0.947690 -0.102397
4.330159 0.943669 -0.097681
4.327047 0.930774 -0.076479
4.302301 0.933107 -0.080586
4.300863 0.947168 -0.080768
4.326290 0.943148 -0.076053
4.355572 0.918730 -0.094931
4.331515 0.919363 -0.098497
4.330766 0.931726 -0.098114
4.355501 0.929401 -0.093946
4.352056 0.917319 -0.073283
4.327998 0.917951 -0.076849
4.327249 0.930314 -0.076465
4.351984 0.927990 -0.072298
4.331448 0.918885 -0.098529
4.307388 0.919506 -0.102074
4.305952 0.933580 -0.102252
4.330698 0.931247 -0.098145
4.328017 0.918433 -0.076825
4.303957 0.919054 -0.080370
4.302522 0.933128 -0.080549
4.327268 0.930795 -0.076441
4.355376 0.908057 -0.095958
4.331999 0.906973 -0.098929
4.331248 0.919348 -0.098538
4.355305 0.918715 -0.094972
4.352395 0.906652 -0.074228
4.329018 0.905569 -0.077200
4.328267 0.917943 -0.076809
4.352324 0.917311 -0.073243
4.331973 0.906469 -0.098954
4.308592 0.905403 -0.101901
4.307162 0.919465 -0.102108
4.331222 0.918844 -0.098563
4.328997 0.906072 -0.077182
4.305615 0.905006 -0.080130
4.304186 0.919068 -0.080336
4.328246 0.918447 -0.076791
4.355336 0.879820 -0.075186
4.332855 0.879632 -0.078039
4.331739 0.898909 -0.096135
4.355116 0.899993 -0.093164
4.352876 0.894513 -0.059027
4.330395 0.894324 -0.061880
4.329279 0.913601 -0.079976
4.352656 0.914685 -0.077005
4.332818 0.879459 -0.077884
4.310343 0.879244 -0.080763
4.308321 0.897671 -0.098929
4.331703 0.898737 -0.095981
4.330385 0.894495 -0.062040
4.307910 0.894280 -0.064919
4.305888 0.912706 -0.083084
4.329270 0.913772 -0.080137
4.355268 0.859616 -0.057198
4.333687 0.860302 -0.059945
4.332571 0.879587 -0.078036
4.355052 0.879775 -0.075183
4.353377 0.874359 -0.041008
4.331796 0.875045 -0.043756
4.330680 0.894330 -0.061847
4.353161 0.894518 -0.058994
4.333657 0.860119 -0.059778
4.312077 0.860794 -0.062547
4.310065 0.879188 -0.080747
4.332540 0.879403 -0.077869
4.331783 0.875229 -0.043929
4.310203 0.875904 -0.046697
4.308191 0.894298 -0.064898
4.330666 0.894514 -0.062020
4.354744 0.847790 -0.050485
4.335025 0.847776 -0.052431
4.333717 0.862019 -0.061219
4.355298 0.861332 -0.058472
4.352796 0.859066 -0.031721
4.333076 0.859053 -0.033667
4.331768 0.873295 -0.042455
4.353349 0.872608 -0.039708
4.334986 0.847664 -0.052366
4.315264 0.847676 -0.054260
4.312098 0.862582 -0.063924
4.333678 0.861907 -0.061155
4.333074 0.859165 -0.033735
4.313353 0.859177 -0.035629
4.310186 0.874083 -0.045293
4.331766 0.873408 -0.042524
4.334851 0.950632 0.057390
4.338798 0.967686 0.068410
4.360790 0.944596 0.063124
4.328403 0.940302 0.075686
4.332350 0.957356 0.086706
4.354342 0.934266 0.081420
4.335089 0.850290 -0.053531
4.354808 0.850303 -0.051585
4.348883 0.825702 -0.044877
4.333015 0.856509 -0.032553
4.352734 0.856522 -0.030607
4.346810 0.831921 -0.023900
4.335279 0.850569 -0.053589
4.349074 0.825981 -0.044935
4.317132 0.825330 -0.048967
4.315558 0.850581 -0.055482
4.332791 0.856221 -0.032496
4.346585 0.831633 -0.023843
4.314643 0.830982 -0.027874
4.313069 0.856233 -0.034390
4.309039 0.956426 0.051558
4.308138 0.969782 0.057797
4.338925 0.967432 0.068317
4.334978 0.950378 0.057297
4.302292 0.946617 0.070033
4.301391 0.959973 0.076271
4.332178 0.957624 0.086791
4.328231 0.940569 0.075771
4.358202 0.913743 0.133667
4.356615 0.938417 0.136048
4.333063 0.935709 0.139823
4.334986 0.911353 0.137456
4.354512 0.915570 0.112078
4.352925 0.940243 0.114459
4.329373 0.937536 0.118234
4.331295 0.913179 0.115867
4.334948 0.911339 0.137461
4.333025 0.935695 0.139828
4.309480 0.932987 0.143634
4.311710 0.908958 0.141152
4.331287 0.913188 0.115869
4.329364 0.937545 0.118236
4.305819 0.934836 0.122042
4.308049 0.910808 0.119560
4.359790 0.889019 0.131262
4.358207 0.913692 0.133662
4.334991 0.911301 0.137451
4.336892 0.886955 0.134984
4.356093 0.890899 0.109679
4.354510 0.915572 0.112079
4.331294 0.913182 0.115868
4.333195 0.888836 0.113401
4.336842 0.886952 0.134992
4.334941 0.911298 0.137459
4.311703 0.908917 0.141149
4.313947 0.884884 0.138697
4.333199 0.888835 0.113400
4.331298 0.913181 0.115867
4.308060 0.910800 0.119557
4.310304 0.886767 0.117105
4.359298 0.870102 0.100052
4.359688 0.879913 0.124595
4.336790 0.877849 0.128317
4.336984 0.866456 0.101567
4.355806 0.890160 0.091774
4.356197 0.899970 0.116317
4.333299 0.897907 0.120039
4.333493 0.886514 0.093289
4.336965 0.866552 0.101798
4.336772 0.877944 0.128548
4.313876 0.875877 0.132253
4.314642 0.862949 0.103316
4.333466 0.886413 0.093064
4.333272 0.897806 0.119814
4.310377 0.895738 0.123518
4.311143 0.882811 0.094581
4.359261 0.860328 0.075446
4.359638 0.870147 0.100004
4.337324 0.866502 0.101519
4.337516 0.855112 0.074789
4.355089 0.880274 0.067213
4.355466 0.890093 0.091771
4.333152 0.886448 0.093286
4.333344 0.875058 0.066556
4.337447 0.855197 0.075023
4.337256 0.866587 0.101753
4.314932 0.862985 0.103271
4.315689 0.850058 0.074311
4.333368 0.874964 0.066322
4.333177 0.886353 0.093053
4.310853 0.882751 0.094570
4.311610 0.869824 0.065611
4.357782 0.845754 0.059109
4.358907 0.861916 0.078212
4.337161 0.856700 0.077555
4.336600 0.842896 0.060745
4.354318 0.862497 0.045300
4.355443 0.878660 0.064403
4.333697 0.873444 0.063746
4.333136 0.859639 0.046936
4.336558 0.842807 0.060646
4.337119 0.856611 0.077456
4.315361 0.851471 0.076744
4.315370 0.839979 0.062256
4.333136 0.859721 0.047036
4.333697 0.873525 0.063846
4.311938 0.868385 0.063134
4.311948 0.856893 0.048646
4.350861 0.821697 0.040531
4.357956 0.847277 0.060581
4.336775 0.844419 0.062217
4.334134 0.819632 0.043512
4.347043 0.835354 0.023741
4.354138 0.860934 0.043791
4.332956 0.858076 0.045427
4.330315 0.833290 0.026722
4.334106 0.820017 0.043817
4.336747 0.844803 0.062522
4.315559 0.841976 0.064132
4.317388 0.817913 0.046836
4.330306 0.832900 0.026422
4.332946 0.857687 0.045127
4.311759 0.854859 0.046736
4.313588 0.830797 0.029441
4.344169 0.795909 0.020199
4.351266 0.821486 0.040251
4.334538 0.819422 0.043233
4.339538 0.809945 0.003934
4.346634 0.835523 0.023986
4.329907 0.833459 0.026968
4.332930 0.936856 0.139882
4.356482 0.939564 0.136108
4.337557 0.960611 0.138682
4.329500 0.936428 0.118178
4.353052 0.939136 0.114403
4.334128 0.960182 0.116977
4.320445 0.793921 0.029215
4.344967 0.796556 0.020461
4.335336 0.820069 0.043494
4.318619 0.817966 0.046514
4.314189 0.806652 0.012427
4.338712 0.809286 0.003672
4.329081 0.832800 0.026706
4.312363 0.830696 0.029725
4.332871 0.936915 0.139890
4.337499 0.960669 0.138690
4.307502 0.964925 0.143113
4.309326 0.934206 0.143696
4.329518 0.936376 0.118176
4.334146 0.960131 0.116976
4.304149 0.964387 0.121399
4.305973 0.933668 0.121982
4.365188 0.865904 -0.050433
4.364972 0.886064 -0.068419
4.367248 0.865041 -0.033058
4.343481 0.868063 -0.047753
4.343265 0.888222 -0.065739
4.345541 0.867200 -0.030378
4.310224 0.979554 -0.060129
4.311842 0.965755 -0.061417
4.311001 0.966577 -0.089767
4.310141 0.979653 -0.074316
4.288368 0.977273 -0.059704
4.289987 0.963475 -0.060991
4.289146 0.964297 -0.089342
4.288286 0.977372 -0.073891
4.307982 0.993881 -0.058603
4.310160 0.980067 -0.059894
4.310078 0.980166 -0.074081
4.308130 0.993667 -0.072837
4.286250 0.990601 -0.058640
4.288428 0.976787 -0.059930
4.288346 0.976886 -0.074117
4.286398 0.990387 -0.072874
4.308126 0.993565 -0.073498
4.310074 0.980065 -0.074741
4.310934 0.966989 -0.090191
4.307460 0.993224 -0.087671
4.286402 0.990481 -0.072243
4.288350 0.976981 -0.073486
4.289210 0.963905 -0.088937
4.285735 0.990140 -0.086416
4.310501 0.979498 -0.045823
4.312057 0.966236 -0.032978
4.311835 0.965837 -0.061320
4.310216 0.979635 -0.060033
4.288661 0.977054 -0.045548
4.290217 0.963791 -0.032703
4.289995 0.963393 -0.061045
4.288376 0.977191 -0.059758
4.310189 0.992306 -0.030526
4.312096 0.965738 -0.033193
4.310540 0.979000 -0.046039
4.309951 0.992759 -0.044721
4.288270 0.990877 -0.029797
4.290177 0.964309 -0.032464
4.288621 0.977571 -0.045309
4.288031 0.991330 -0.043992
4.309886 0.993219 -0.045183
4.310476 0.979460 -0.046501
4.310191 0.979598 -0.060711
4.308012 0.993412 -0.059420
4.288094 0.990877 -0.043557
4.288684 0.977119 -0.044875
4.288399 0.977256 -0.059085
4.286220 0.991070 -0.057794
4.313622 0.979913 0.098925
4.316104 0.966696 0.099508
4.315571 0.966798 0.066931
4.313569 0.980043 0.083047
4.291978 0.976103 0.099169
4.294460 0.962886 0.099752
4.293927 0.962988 0.067175
4.291925 0.976232 0.083291
4.311417 0.993210 0.098333
4.313618 0.979935 0.098925
4.313565 0.980065 0.083048
4.311066 0.993313 0.082884
4.289776 0.989382 0.098584
4.291978 0.976108 0.099176
4.291924 0.976237 0.083299
4.289426 0.989486 0.083135
4.311071 0.993286 0.082909
4.313570 0.980037 0.083073
4.315572 0.966793 0.066957
4.311104 0.993465 0.067449
4.289421 0.989507 0.083078
4.291920 0.976258 0.083242
4.293922 0.963013 0.067126
4.289454 0.989685 0.067618
4.314088 0.979865 0.114721
4.316630 0.966584 0.132021
4.316103 0.966697 0.099438
4.313621 0.979914 0.098855
4.292448 0.976054 0.115153
4.294990 0.962773 0.132453
4.294462 0.962885 0.099870
4.291980 0.976102 0.099287
4.311939 0.993003 0.129226
4.316620 0.966646 0.132077
4.314078 0.979926 0.114778
4.311542 0.993100 0.113777
4.290315 0.989088 0.129567
4.294996 0.962731 0.132419
4.292455 0.976012 0.115119
4.289919 0.989185 0.114118
4.311547 0.993072 0.113737
4.314083 0.979898 0.114737
4.313616 0.979947 0.098872
4.311414 0.993222 0.098279
4.289912 0.989220 0.114127
4.292449 0.976046 0.115127
4.291981 0.976095 0.099261
4.289780 0.989370 0.098669
4.357001 0.586914 0.005532
4.339259 0.554319 0.001347
4.339420 0.554438 -0.009398
4.357239 0.587395 -0.010161
4.337684 0.597396 0.005478
4.319942 0.564801 0.001293
4.320103 0.564921 -0.009453
4.337922 0.597877 -0.010215
4.357248 0.587411 -0.010152
4.339429 0.554454 -0.009390
4.339560 0.554595 -0.020107
4.357558 0.587840 -0.025873
4.337914 0.597861 -0.010250
4.320095 0.564905 -0.009487
4.320226 0.565045 -0.020204
4.338224 0.598291 -0.025971
4.340562 0.560154 0.001475
4.342037 0.534504 0.001364
4.342162 0.534712 -0.009336
4.340724 0.560274 -0.009270
4.318622 0.558907 0.001163
4.320097 0.533257 0.001052
4.320222 0.533464 -0.009647
4.318783 0.559027 -0.009582
4.340724 0.560269 -0.009291
4.342163 0.534707 -0.009356
4.342299 0.534898 -0.020084
4.340855 0.560409 -0.020008
4.318783 0.559032 -0.009583
4.320222 0.533469 -0.009648
4.320358 0.533660 -0.020376
4.318914 0.559172 -0.020300
4.342038 0.534503 0.001359
4.343543 0.508871 0.001255
4.343686 0.509136 -0.009436
4.342162 0.534711 -0.009340
4.320100 0.533207 0.001056
4.321606 0.507575 0.000952
4.321748 0.507840 -0.009739
4.320225 0.533414 -0.009643
4.342162 0.534715 -0.009354
4.343686 0.509140 -0.009450
4.343812 0.509413 -0.020112
4.342298 0.534905 -0.020081
4.320225 0.533411 -0.009651
4.321748 0.507836 -0.009747
4.321875 0.508109 -0.020410
4.320361 0.533602 -0.020379
