1.788616 0.527127 0.956846
1.821160 0.526511 0.958286
1.820956 0.571810 0.946246
1.786497 0.572771 0.944683
1.789692 0.532087 0.935462
1.822235 0.531470 0.936902
1.821239 0.525514 0.958010
1.788696 0.526130 0.956570
1.792895 0.487991 0.944388
1.823152 0.487105 0.945229
1.822161 0.532389 0.937156
1.789618 0.533005 0.935715
1.793817 0.494866 0.923533
1.824074 0.493980 0.924374
1.823208 0.485623 0.944623
1.792950 0.486510 0.943782
1.796813 0.450515 0.926104
1.825058 0.449282 0.926639
1.824024 0.495387 0.924949
1.793767 0.496273 0.924109
1.797630 0.460278 0.906430
1.825875 0.459045 0.906966
1.825013 0.447260 0.925346
1.796768 0.448493 0.924810
1.801090 0.416161 0.899129
1.826631 0.415241 0.899734
1.825926 0.460999 0.908216
1.797681 0.462231 0.907680
1.802003 0.429900 0.881999
1.827544 0.428979 0.882603
1.778681 0.651644 0.975495
1.745225 0.652502 0.965784
1.746675 0.611406 0.963437
1.780997 0.610480 0.970751
1.784063 0.653718 0.954288
1.750607 0.654577 0.944577
1.752057 0.613481 0.942229
1.786379 0.612555 0.949544
1.781709 0.610407 0.970900
1.747388 0.611333 0.963585
1.748849 0.570202 0.960853
1.783942 0.569264 0.966134
1.785670 0.612545 0.949388
1.751349 0.613471 0.942073
1.752810 0.572341 0.939341
1.787903 0.571402 0.944622
1.784459 0.567938 0.966005
1.749367 0.568876 0.960724
1.750526 0.529208 0.952754
1.787654 0.527254 0.956784
1.787390 0.572647 0.944739
1.752297 0.573585 0.939458
1.753457 0.533917 0.931487
1.790584 0.531962 0.935517
1.788100 0.526386 0.956609
1.750973 0.528340 0.952579
1.758630 0.489758 0.942592
1.792299 0.488247 0.944427
1.790146 0.532751 0.935673
1.753019 0.534706 0.931643
1.760676 0.496124 0.921656
1.794345 0.494613 0.923491
1.792752 0.486639 0.943835
1.759082 0.488149 0.942001
1.764728 0.452009 0.925559
1.796615 0.450643 0.926157
1.793903 0.496147 0.924054
1.760234 0.497658 0.922219
1.765879 0.461518 0.905778
1.797766 0.460152 0.906375
1.796742 0.448497 0.924813
1.764855 0.449863 0.924215
1.775511 0.417079 0.898510
1.801065 0.416165 0.899131
1.797651 0.462229 0.907677
1.765764 0.463595 0.907079
1.776420 0.430811 0.881374
1.801974 0.429897 0.881995
1.737151 0.653280 0.957447
1.730192 0.653557 0.920282
1.732076 0.613187 0.929051
1.738601 0.612184 0.955100
1.758641 0.653799 0.952874
1.751682 0.654076 0.915708
1.753566 0.613706 0.924477
1.760091 0.612703 0.950526
1.738777 0.612050 0.955798
1.732252 0.613053 0.929749
1.733410 0.572462 0.932101
1.740239 0.570920 0.953066
1.759918 0.612756 0.949831
1.753393 0.613759 0.923782
1.754551 0.573167 0.926134
1.761380 0.571625 0.947099
1.740537 0.570446 0.953899
1.733708 0.571988 0.932935
1.734611 0.534514 0.930560
1.741697 0.530777 0.945929
1.761084 0.572020 0.946260
1.754255 0.573562 0.925295
1.755159 0.536088 0.922920
1.762244 0.532351 0.938289
1.743082 0.529195 0.948125
1.735997 0.532932 0.932756
1.738115 0.494766 0.927464
1.750739 0.490612 0.938139
1.760864 0.533857 0.936080
1.753779 0.537594 0.920711
1.755898 0.499428 0.915419
1.768521 0.495275 0.926094
1.754398 0.489252 0.941050
1.741775 0.493405 0.930375
1.744751 0.455617 0.921658
1.760043 0.453112 0.924608
1.764871 0.496560 0.923163
1.752247 0.500713 0.912488
1.755223 0.462926 0.903771
1.770516 0.460420 0.906721
1.763909 0.450125 0.924319
1.748616 0.452631 0.921370
1.751856 0.418168 0.898069
1.774565 0.417341 0.898614
1.766662 0.463336 0.906972
1.751370 0.465842 0.904023
1.754610 0.431379 0.880722
1.777318 0.430552 0.881267
1.730016 0.653621 0.919219
1.725756 0.654173 0.881175
1.726507 0.615644 0.882924
1.731900 0.613251 0.927988
1.751846 0.654013 0.916697
1.747585 0.654566 0.878653
1.748336 0.616037 0.880402
1.753730 0.613644 0.925467
1.731909 0.613205 0.928054
1.726515 0.615598 0.882989
1.727320 0.576897 0.884625
1.733067 0.572613 0.930406
1.753723 0.613612 0.925409
1.748330 0.616005 0.880344
1.749134 0.577304 0.881980
1.754882 0.573020 0.927761
1.733073 0.572422 0.930412
1.727325 0.576707 0.884631
1.728486 0.539499 0.883937
1.733976 0.534949 0.928037
1.754878 0.573134 0.927755
1.749131 0.577418 0.881974
1.750291 0.540210 0.881281
1.755781 0.535661 0.925380
1.734003 0.534628 0.928135
1.728513 0.539178 0.884036
1.730003 0.501985 0.883085
1.736122 0.496462 0.922843
1.755757 0.535907 0.925277
1.750267 0.540456 0.881178
1.751757 0.503264 0.880227
1.757875 0.497741 0.919985
1.736202 0.496070 0.923186
1.730084 0.501593 0.883428
1.732005 0.464399 0.879949
1.739178 0.458282 0.914469
1.757799 0.498058 0.919633
1.751681 0.503581 0.879875
1.753602 0.466387 0.876396
1.760776 0.460270 0.910916
1.739462 0.457222 0.915144
1.732288 0.463339 0.880623
1.733957 0.428321 0.867969
1.742702 0.422760 0.891843
1.760497 0.461258 0.910217
1.753323 0.467375 0.875697
1.754992 0.432357 0.863042
1.763737 0.426795 0.886917
1.725767 0.654296 0.881282
1.721108 0.654840 0.843234
1.721140 0.617893 0.843549
1.726518 0.615768 0.883031
1.747564 0.654445 0.878465
1.742904 0.654988 0.840417
1.742936 0.618042 0.840732
1.748314 0.615917 0.880214
1.726523 0.615588 0.883047
1.721144 0.617713 0.843566
1.722094 0.580761 0.843876
1.727327 0.576888 0.884683
1.748311 0.616020 0.880200
1.742933 0.618145 0.840718
1.743882 0.581193 0.841028
1.749116 0.577320 0.881836
1.727327 0.576727 0.884649
1.722093 0.580600 0.843842
1.723111 0.543629 0.843504
1.728487 0.539520 0.883956
1.749118 0.577406 0.881871
1.743884 0.581278 0.841063
1.744902 0.544307 0.840725
1.750278 0.540198 0.881177
1.728485 0.539224 0.883836
1.723109 0.543333 0.843384
1.725586 0.506552 0.843571
1.729976 0.502032 0.882885
1.750283 0.540419 0.881296
1.744908 0.544529 0.840844
1.747384 0.507747 0.841032
1.751774 0.503227 0.880346
1.729967 0.501896 0.882726
1.725577 0.506417 0.843412
1.728089 0.469543 0.844032
1.731888 0.464702 0.879246
1.751787 0.503288 0.880503
1.747398 0.507808 0.841189
1.749909 0.470935 0.841809
1.753709 0.466094 0.877023
1.731891 0.464342 0.878972
1.728092 0.469182 0.843758
1.731924 0.432660 0.841016
1.733560 0.429324 0.866318
1.753710 0.466382 0.877288
1.749911 0.471222 0.842074
1.753742 0.434700 0.839332
1.755378 0.431364 0.864634
1.855193 0.673830 0.968784
1.819062 0.674533 0.966177
1.819175 0.656636 0.976627
1.857382 0.655214 0.978793
1.856119 0.663141 0.949603
1.819989 0.663844 0.946996
1.820101 0.645947 0.957446
1.858308 0.644525 0.959612
1.819054 0.674917 0.965953
1.782915 0.675634 0.963341
1.780973 0.658437 0.974262
1.819166 0.657020 0.976402
1.819923 0.663462 0.947216
1.783784 0.664179 0.944604
1.781842 0.646982 0.955526
1.820035 0.645565 0.957666
1.781161 0.675263 0.963318
1.746612 0.675550 0.956718
1.745763 0.658924 0.964528
1.779219 0.658066 0.974239
1.785466 0.664551 0.944617
1.750917 0.664837 0.938017
1.750069 0.648212 0.945827
1.783524 0.647354 0.955538
1.738041 0.671269 0.949593
1.730182 0.672080 0.915678
1.730233 0.654920 0.920238
1.737193 0.654644 0.957403
1.759446 0.669119 0.945098
1.751587 0.669930 0.911183
1.751639 0.652770 0.915743
1.758598 0.652493 0.952908
1.729964 0.671263 0.914639
1.725824 0.672457 0.878660
1.725755 0.654655 0.881154
1.730015 0.654102 0.919199
1.751794 0.670749 0.912149
1.747655 0.671944 0.876170
1.747585 0.654141 0.878665
1.751846 0.653589 0.916709
1.725834 0.672350 0.878756
1.721160 0.673565 0.842773
1.721105 0.655091 0.843203
1.725764 0.654547 0.881250
1.747636 0.672053 0.876000
1.742962 0.673268 0.840017
1.742907 0.654793 0.840447
1.747567 0.654250 0.878494
1.857738 0.702775 0.973601
1.820845 0.704024 0.970999
1.818720 0.668197 0.967495
1.854851 0.667495 0.970102
1.859349 0.704810 0.951777
1.822456 0.706059 0.949175
1.820332 0.670233 0.945671
1.856462 0.669531 0.948278
1.820805 0.704024 0.970996
1.783926 0.705261 0.968374
1.782541 0.668915 0.964881
1.818680 0.668198 0.967492
1.822423 0.706061 0.949172
1.785545 0.707298 0.946551
1.784160 0.670952 0.943057
1.820299 0.670234 0.945669
1.782592 0.705373 0.968205
1.747540 0.707019 0.961315
1.746658 0.669313 0.958111
1.781207 0.669027 0.964711
1.786808 0.707188 0.946711
1.751756 0.708833 0.939822
1.750873 0.671128 0.936618
1.785423 0.670842 0.943218
1.738946 0.707854 0.953135
1.730228 0.709227 0.918684
1.730205 0.670960 0.916016
1.738064 0.670149 0.949931
1.760306 0.708000 0.947961
1.751588 0.709373 0.913509
1.751565 0.671105 0.910842
1.759424 0.670294 0.944757
1.729985 0.709215 0.917320
1.725726 0.710150 0.880579
1.725823 0.672142 0.878673
1.729962 0.670947 0.914652
1.751818 0.709387 0.914803
1.747558 0.710322 0.878063
1.747656 0.672315 0.876156
1.751795 0.671120 0.912135
1.725731 0.710208 0.880630
1.721428 0.711126 0.843887
1.721155 0.673415 0.842740
1.725829 0.672201 0.878724
1.747544 0.710266 0.877939
1.743241 0.711183 0.841196
1.742967 0.673473 0.840049
1.747641 0.672258 0.876033
1.857717 0.708545 0.977182
1.819503 0.709521 0.976080
1.821020 0.699596 0.969602
1.857913 0.698347 0.972205
1.858980 0.719481 0.958160
1.820765 0.720457 0.957058
1.822283 0.710532 0.950580
1.859175 0.709284 0.953183
1.819467 0.708380 0.975323
1.781243 0.709365 0.974227
1.784106 0.699692 0.966224
1.820985 0.698455 0.968845
1.820726 0.721600 0.957811
1.782501 0.722586 0.956715
1.785364 0.712913 0.948712
1.822243 0.711676 0.951334
1.779564 0.709362 0.973942
1.745701 0.709477 0.963734
1.747375 0.701334 0.959049
1.782427 0.699689 0.965939
1.784107 0.722592 0.956990
1.750245 0.722707 0.946782
1.751919 0.714564 0.942097
1.786971 0.712919 0.948987
1.737334 0.714332 0.957451
1.730590 0.715968 0.920198
1.730289 0.707563 0.918316
1.739008 0.706189 0.952767
1.758570 0.717854 0.953020
1.751826 0.719489 0.915767
1.751526 0.711084 0.913884
1.760244 0.709711 0.948335
1.730287 0.718075 0.919168
1.726260 0.719710 0.881166
1.725727 0.710604 0.880545
1.729986 0.709670 0.917285
1.752117 0.717385 0.916724
1.748091 0.719020 0.878722
1.747558 0.709914 0.878101
1.751817 0.708980 0.914841
1.726269 0.719718 0.881241
1.721508 0.721375 0.843240
1.721433 0.711529 0.843877
1.725736 0.710612 0.880620
1.748073 0.719015 0.878572
1.743312 0.720672 0.840571
1.743237 0.710827 0.841208
1.747540 0.709909 0.877951
1.863731 1.153887 0.931909
1.831792 1.154990 0.930703
1.829616 1.117976 0.944040
1.862368 1.116217 0.945855
1.864360 1.146323 0.911283
1.832421 1.147426 0.910077
1.830244 1.110412 0.923414
1.862997 1.108652 0.925229
1.862304 1.115439 0.946107
1.829551 1.117199 0.944292
1.828657 1.078529 0.955546
1.862315 1.076766 0.957124
1.863059 1.109354 0.925002
1.830307 1.111113 0.923187
1.829412 1.072443 0.934441
1.863070 1.070680 0.936018
1.862335 1.076108 0.957293
1.828677 1.077871 0.955716
1.827803 1.036591 0.965088
1.861911 1.036680 0.966146
1.863049 1.071259 0.935869
1.829390 1.073022 0.934292
1.828517 1.031742 0.943663
1.862625 1.031831 0.944721
1.861927 1.036062 0.966269
1.827819 1.035973 0.965211
1.827314 0.996623 0.971905
1.861222 0.996539 0.972987
1.862608 1.032369 0.944614
1.828500 1.032280 0.943556
1.827995 0.992931 0.950250
1.861904 0.992846 0.951332
1.861218 0.996026 0.973063
1.827309 0.996110 0.971980
1.826707 0.958034 0.976757
1.860697 0.956143 0.978071
1.861907 0.993281 0.951268
1.827999 0.993365 0.950185
1.827396 0.955289 0.954962
1.861387 0.953397 0.956276
1.860666 0.955707 0.978117
1.826676 0.957598 0.976803
1.825928 0.918009 0.980289
1.861002 0.915629 0.981725
1.861417 0.953755 0.956238
1.827426 0.955646 0.954925
1.826678 0.916057 0.958410
1.861752 0.913677 0.959847
1.861006 0.915177 0.981757
1.825932 0.917556 0.980321
1.825054 0.876515 0.982532
1.859954 0.875036 0.983654
1.861746 0.914049 0.959820
1.826672 0.916428 0.958384
1.825794 0.875387 0.960595
1.860694 0.873908 0.961718
1.859997 0.874558 0.983671
1.825097 0.876037 0.982548
1.824016 0.835687 0.983051
1.859423 0.834307 0.984049
1.860649 0.874305 0.961704
1.825749 0.875783 0.960582
1.824668 0.835434 0.961084
1.860075 0.834054 0.962082
1.859436 0.833820 0.984045
1.824029 0.835200 0.983047
1.822878 0.794911 0.981868
1.858925 0.793868 0.982834
1.860061 0.834461 0.962085
1.824654 0.835841 0.961087
1.823503 0.795552 0.959909
1.859550 0.794509 0.960874
1.858940 0.793769 0.982831
1.822893 0.794812 0.981866
1.821711 0.754357 0.980463
1.858446 0.753592 0.981405
1.859534 0.794527 0.960874
1.823487 0.795570 0.959909
1.822305 0.755115 0.958506
1.859040 0.754350 0.959448
1.858425 0.753161 0.981381
1.821690 0.753926 0.980440
1.819818 0.714244 0.977531
1.858032 0.713268 0.978633
1.859059 0.754701 0.959467
1.822324 0.755466 0.958525
1.820451 0.715784 0.955616
1.858665 0.714808 0.956718
1.831761 1.154901 0.930734
1.799835 1.156019 0.929564
1.797268 1.119684 0.942259
1.829585 1.117887 0.944071
1.832387 1.147518 0.910043
1.800460 1.148635 0.908873
1.797893 1.112300 0.921568
1.830211 1.110504 0.923380
1.829527 1.117272 0.944270
1.797209 1.119068 0.942458
1.795271 1.080353 0.953984
1.828632 1.078602 0.955524
1.830265 1.111044 0.923206
1.797948 1.112840 0.921394
1.796010 1.074125 0.932920
1.829370 1.072374 0.934460
1.828657 1.077903 0.955708
1.795297 1.079654 0.954168
1.793771 1.036563 0.964075
1.827783 1.036623 0.965080
1.829343 1.072992 0.934297
1.795982 1.074742 0.932757
1.794457 1.031651 0.942664
1.828469 1.031711 0.943669
1.827801 1.035972 0.965211
1.793789 1.035912 0.964206
1.793398 0.996706 0.970874
1.827297 0.996622 0.971904
1.828449 1.032281 0.943554
1.794437 1.032221 0.942550
1.794046 0.993015 0.949218
1.827944 0.992931 0.950248
1.827282 0.996102 0.971981
1.793384 0.996186 0.970950
1.792680 0.959960 0.975431
1.826680 0.958026 0.976757
1.827958 0.993375 0.950183
1.794059 0.993458 0.949153
1.793356 0.957232 0.953633
1.827355 0.955299 0.954959
1.826647 0.957596 0.976802
1.792648 0.959530 0.975475
1.791557 0.920355 0.978927
1.825899 0.918007 0.980288
1.827386 0.955652 0.954923
1.793386 0.957585 0.953596
1.792295 0.918411 0.957048
1.826638 0.916063 0.958408
1.825909 0.917621 0.980316
1.791567 0.919969 0.978956
1.790089 0.878239 0.981395
1.825031 0.876579 0.982528
1.826626 0.916368 0.958386
1.792284 0.918716 0.957025
1.790806 0.876986 0.959464
1.825747 0.875326 0.960597
1.825056 0.876072 0.982547
1.790115 0.877732 0.981414
1.788575 0.837086 0.982015
1.823976 0.835723 0.983049
1.825719 0.875751 0.960581
1.790778 0.877411 0.959448
1.789238 0.836766 0.960050
1.824638 0.835402 0.961083
1.823986 0.835221 0.983046
1.788586 0.836585 0.982012
1.786778 0.795979 0.980888
1.822835 0.794932 0.981868
1.824625 0.835823 0.961086
1.789225 0.837186 0.960052
1.787417 0.796581 0.958927
1.823474 0.795533 0.959907
1.822852 0.794827 0.981865
1.786794 0.795875 0.980885
1.784950 0.755133 0.979505
1.821670 0.754372 0.980462
1.823455 0.795557 0.959907
1.787397 0.796605 0.958928
1.785552 0.755863 0.957548
1.822273 0.755102 0.958505
1.821650 0.753894 0.980436
1.784930 0.754654 0.979479
1.781553 0.715197 0.976431
1.819778 0.714211 0.977527
1.822288 0.755501 0.958526
1.785568 0.756261 0.957569
1.782191 0.716804 0.954521
1.820416 0.715818 0.955617
1.799560 1.155817 0.929623
1.767654 1.156875 0.928218
1.763985 1.121042 0.939382
1.796993 1.119482 0.942318
1.800670 1.148840 0.908811
1.768764 1.149898 0.907406
1.765095 1.114065 0.918570
1.798103 1.112505 0.921506
1.796602 1.119004 0.942439
1.763594 1.120564 0.939503
1.759979 1.081577 0.950006
1.794665 1.080289 0.953965
1.798488 1.112907 0.921408
1.765480 1.114467 0.918472
1.761864 1.075479 0.928975
1.796550 1.074192 0.932934
1.794366 1.079601 0.954111
1.759680 1.080889 0.950153
1.757033 1.036752 0.959435
1.792841 1.036510 0.964018
1.796843 1.074797 0.932809
1.762158 1.076084 0.928850
1.759510 1.031947 0.938132
1.795318 1.031705 0.942715
1.792646 1.035847 0.964124
1.756838 1.036089 0.959541
1.755323 0.996544 0.965664
1.792255 0.996641 0.970792
1.795509 1.032286 0.942626
1.759701 1.032527 0.938043
1.758186 0.992983 0.944166
1.795118 0.993080 0.949294
1.792170 0.996175 0.970848
1.755238 0.996078 0.965720
1.754243 0.960614 0.969978
1.791467 0.959949 0.975328
1.795202 0.993471 0.949249
1.758269 0.993373 0.944121
1.757274 0.957909 0.948378
1.794498 0.957244 0.953729
1.791409 0.959527 0.975365
1.754186 0.960192 0.970015
1.752907 0.920405 0.973274
1.790319 0.920352 0.978817
1.794553 0.957591 0.953700
1.757330 0.958256 0.948349
1.756051 0.918469 0.951608
1.793462 0.918416 0.957152
1.790243 0.920000 0.978832
1.752831 0.920053 0.973289
1.751514 0.878104 0.975490
1.788766 0.878270 0.981271
1.793535 0.918687 0.957142
1.756123 0.918740 0.951598
1.754806 0.876792 0.953800
1.792057 0.876957 0.959581
1.788639 0.877720 0.981272
1.751387 0.877554 0.975491
1.750422 0.837437 0.975577
1.787100 0.837074 0.981873
1.792181 0.877425 0.959583
1.754930 0.877259 0.953802
1.753965 0.837142 0.953888
1.790642 0.836780 0.960185
1.786831 0.836514 0.981820
1.750154 0.836877 0.975524
1.748645 0.796912 0.973244
1.785023 0.795909 0.980696
1.790907 0.837259 0.960236
1.754230 0.837621 0.953940
1.752720 0.797657 0.951660
1.789099 0.796653 0.959112
1.784688 0.795839 0.980625
1.748310 0.796842 0.973173
1.746843 0.756899 0.970797
1.782843 0.755097 0.979245
1.789430 0.796643 0.959179
1.753052 0.797646 0.951727
1.751585 0.757703 0.949352
1.787586 0.755901 0.957799
1.782364 0.754591 0.979097
1.746363 0.756393 0.970649
1.745125 0.715248 0.965841
1.778987 0.715133 0.976049
1.788061 0.756327 0.957941
1.752060 0.758129 0.949494
1.750822 0.716984 0.944685
1.784684 0.716869 0.954893
1.760504 1.156305 0.925101
1.739151 1.153673 0.904386
1.738592 1.117144 0.917711
1.756835 1.120472 0.936265
1.775861 1.150467 0.910502
1.754508 1.147835 0.889787
1.753948 1.111306 0.903112
1.772192 1.114634 0.921666
1.756480 1.119990 0.936057
1.738237 1.116662 0.917503
1.738164 1.079162 0.929551
1.752865 1.081002 0.946560
1.772543 1.115041 0.921897
1.754300 1.111713 0.903343
1.754227 1.074213 0.915391
1.768928 1.076053 0.932400
1.752044 1.079915 0.945845
1.737344 1.078075 0.928835
1.736659 1.036077 0.934272
1.749396 1.035778 0.955127
1.769745 1.077058 0.933134
1.755045 1.075219 0.916125
1.754360 1.033220 0.921561
1.767097 1.032921 0.942417
1.748683 1.035228 0.954114
1.735946 1.035527 0.933259
1.735354 0.995087 0.937149
1.747168 0.995683 0.960238
1.767808 1.033388 0.943442
1.755070 1.033687 0.922587
1.754478 0.993247 0.926477
1.766292 0.993843 0.949565
1.746829 0.995361 0.959633
1.735015 0.994765 0.936545
1.734635 0.958149 0.939101
1.745835 0.959897 0.963891
1.766629 0.994090 0.950178
1.754815 0.993493 0.927090
1.754434 0.956878 0.929646
1.765634 0.958625 0.954436
1.745575 0.959648 0.963336
1.734376 0.957901 0.938546
1.734151 0.917146 0.939842
1.744296 0.919862 0.966595
1.765892 0.958798 0.954996
1.754692 0.957050 0.930206
1.754468 0.916295 0.931502
1.764613 0.919011 0.958255
1.744055 0.919670 0.965969
1.733910 0.916953 0.939216
1.733694 0.875449 0.938977
1.742738 0.877721 0.968170
1.764853 0.919121 0.958885
1.754708 0.916405 0.932131
1.754492 0.874900 0.931893
1.763535 0.877172 0.961086
1.742573 0.877496 0.967658
1.733530 0.875223 0.938465
1.733004 0.836645 0.935514
1.741608 0.837378 0.967745
1.763698 0.877316 0.961598
1.754655 0.875044 0.932405
1.754129 0.836465 0.929454
1.762733 0.837199 0.961684
1.741509 0.837353 0.967374
1.732904 0.836620 0.935144
1.732356 0.797558 0.932273
1.739999 0.797389 0.965094
1.762831 0.837145 0.962051
1.754227 0.836411 0.929820
1.753679 0.797350 0.926949
1.761321 0.797181 0.959770
1.739922 0.797365 0.964765
1.732279 0.797534 0.931944
1.731731 0.758332 0.929117
1.738455 0.757422 0.962390
1.761396 0.797125 0.960094
1.753754 0.797295 0.927273
1.753206 0.758093 0.924445
1.759929 0.757182 0.957718
1.738397 0.757249 0.962110
1.731673 0.758159 0.928837
1.730414 0.717740 0.920048
1.737158 0.716104 0.957301
1.759985 0.757275 0.957988
1.753262 0.758185 0.924716
1.752002 0.717766 0.915927
1.758746 0.716130 0.953180
1.735870 1.151174 0.897911
1.733140 1.148992 0.866269
1.732476 1.111415 0.873998
1.735311 1.114645 0.911236
1.757766 1.150329 0.896208
1.755035 1.148147 0.864566
1.754371 1.110570 0.872295
1.757207 1.113799 0.909533
1.735305 1.114492 0.911222
1.732469 1.111263 0.873984
1.731778 1.073082 0.879936
1.735233 1.076992 0.923270
1.757212 1.113877 0.909566
1.754376 1.110648 0.872328
1.753684 1.072467 0.878280
1.757140 1.076377 0.921614
1.735237 1.076983 0.923334
1.731782 1.073072 0.880000
1.730674 1.032853 0.883733
1.734552 1.034984 0.928771
1.757133 1.076308 0.921563
1.753678 1.072397 0.878230
1.752570 1.032178 0.881962
1.756449 1.034309 0.927000
1.734556 1.034891 0.928847
1.730678 1.032760 0.883810
1.729734 0.993146 0.886213
1.733964 0.994452 0.932737
1.756443 1.034321 0.926930
1.752564 1.032190 0.881893
1.751621 0.992575 0.884296
1.755851 0.993881 0.930821
1.733966 0.994334 0.932788
1.729736 0.993029 0.886264
1.729078 0.955308 0.887662
1.733586 0.957719 0.935344
1.755848 0.993921 0.930775
1.751618 0.992616 0.884251
1.750960 0.954895 0.885649
1.755468 0.957306 0.933331
1.733589 0.957599 0.935394
1.729081 0.955189 0.887712
1.728602 0.915355 0.888743
1.733364 0.916844 0.936690
1.755464 0.957348 0.933284
1.750956 0.954937 0.885602
1.750477 0.915103 0.886633
1.755239 0.916592 0.934580
1.733368 0.916750 0.936738
1.728606 0.915261 0.888791
1.728280 0.875268 0.888999
1.733152 0.875245 0.936500
1.755235 0.916605 0.934533
1.750473 0.915116 0.886586
1.750146 0.875123 0.886794
1.755019 0.875100 0.934295
1.733151 0.875168 0.936493
1.728279 0.875191 0.888992
1.728097 0.836493 0.887357
1.732626 0.836589 0.933542
1.755019 0.875098 0.934299
1.750147 0.875121 0.886798
1.749965 0.836423 0.885162
1.754494 0.836519 0.931348
1.732625 0.836612 0.933535
1.728096 0.836516 0.887349
1.727554 0.797671 0.886200
1.732077 0.797550 0.930664
1.754494 0.836419 0.931351
1.749965 0.836322 0.885166
1.749423 0.797477 0.884016
1.753946 0.797357 0.928480
1.732082 0.797521 0.930714
1.727559 0.797641 0.886250
1.726937 0.758662 0.885163
1.731534 0.758319 0.927886
1.753940 0.797308 0.928427
1.749417 0.797429 0.883962
1.748795 0.758449 0.882875
1.753392 0.758107 0.925599
1.731536 0.758252 0.927908
1.726939 0.758595 0.885184
1.726250 0.719468 0.881117
1.730276 0.717833 0.919119
1.753388 0.758095 0.925569
1.748792 0.758437 0.882846
1.748103 0.719311 0.878779
1.752129 0.717676 0.916780
1.733122 1.148922 0.866049
1.731203 1.146846 0.834201
1.730109 1.109355 0.837601
1.732458 1.111346 0.873778
1.755048 1.148211 0.864716
1.753129 1.146135 0.832868
1.752035 1.108644 0.836268
1.754384 1.110635 0.872445
1.732475 1.111445 0.873970
1.730126 1.109454 0.837792
1.728067 1.070857 0.840851
1.731783 1.073264 0.879922
1.754364 1.110460 0.872264
1.752016 1.108469 0.836086
1.749957 1.069872 0.839144
1.753673 1.072279 0.878216
1.731796 1.073162 0.880119
1.728080 1.070755 0.841047
1.726623 1.032105 0.842925
1.730687 1.032943 0.883851
1.753657 1.072302 0.878027
1.749941 1.069895 0.838956
1.748484 1.031245 0.840833
1.752549 1.032083 0.881759
1.730688 1.032817 0.883901
1.726623 1.031979 0.842975
1.725415 0.993273 0.843615
1.729744 0.993202 0.886305
1.752546 1.032131 0.881713
1.748481 1.031293 0.840787
1.747273 0.992587 0.841427
1.751602 0.992517 0.884117
1.729744 0.993076 0.886341
1.725415 0.993146 0.843651
1.724430 0.954387 0.843606
1.729086 0.955355 0.887739
1.751600 0.992566 0.884084
1.747271 0.992636 0.841394
1.746285 0.953878 0.841350
1.750942 0.954846 0.885482
1.729089 0.955251 0.887784
1.724432 0.954283 0.843652
1.723701 0.915598 0.843991
1.728610 0.915417 0.888815
1.750938 0.954873 0.885438
1.746281 0.953905 0.841305
1.745550 0.915221 0.841645
1.750459 0.915039 0.886468
1.728613 0.915301 0.888854
1.723703 0.915483 0.844031
1.723265 0.876721 0.844240
1.728287 0.875308 0.889062
1.750456 0.915076 0.886430
1.745546 0.915258 0.841607
1.745108 0.876496 0.841816
1.750129 0.875083 0.886638
1.728283 0.875117 0.889037
1.723262 0.876529 0.844215
1.723438 0.837768 0.843197
1.728102 0.836418 0.887401
1.750132 0.875197 0.886662
1.745111 0.876609 0.841840
1.745287 0.837848 0.840822
1.749951 0.836498 0.885027
1.728109 0.836628 0.887453
1.723445 0.837977 0.843248
1.722384 0.799245 0.843313
1.727567 0.797783 0.886303
1.749943 0.836211 0.884973
1.745279 0.837561 0.840769
1.744217 0.798828 0.840834
1.749401 0.797366 0.883824
1.727574 0.797667 0.886377
1.722391 0.799129 0.843388
1.721970 0.760357 0.843589
1.726952 0.758688 0.885290
1.749393 0.797404 0.883749
1.744209 0.798866 0.840759
1.743788 0.760094 0.840960
1.748770 0.758425 0.882661
1.726954 0.758603 0.885311
1.721971 0.760272 0.843610
1.721504 0.721133 0.843244
1.726265 0.719476 0.881245
1.748768 0.758432 0.882638
1.743785 0.760101 0.840937
1.743318 0.720962 0.840570
1.748079 0.719305 0.878571
1.866524 0.669619 0.960520
1.868713 0.651003 0.970529
1.871099 0.652036 0.938344
1.870905 0.669094 0.937458
1.844828 0.667351 0.957842
1.847017 0.648735 0.967851
1.849403 0.649768 0.935666
1.849208 0.666826 0.934780
1.869425 0.703115 0.964203
1.866538 0.667835 0.960704
1.870919 0.667309 0.937642
1.871611 0.703709 0.940494
1.847701 0.704469 0.961155
1.844815 0.669190 0.957656
1.849195 0.668664 0.934594
1.849887 0.705063 0.937446
1.869321 0.714505 0.968404
1.869516 0.704308 0.963426
1.871702 0.704902 0.939718
1.870575 0.713253 0.941919
1.847415 0.713519 0.966915
1.847611 0.703321 0.961938
1.849797 0.703915 0.938230
1.848669 0.712266 0.940431
1.875047 1.149892 0.921776
1.873684 1.112221 0.935722
1.874396 1.103079 0.908453
1.874934 1.139848 0.894329
1.853077 1.150307 0.921390
1.851713 1.112637 0.935336
1.852425 1.103494 0.908068
1.852963 1.140264 0.893943
1.873685 1.112414 0.935760
1.873696 1.073740 0.946777
1.874090 1.065642 0.920182
1.874397 1.103271 0.908492
1.851711 1.112369 0.935324
1.851723 1.073695 0.946340
1.852117 1.065597 0.919745
1.852423 1.103227 0.908055
1.873694 1.073730 0.946867
1.873270 1.034302 0.955719
1.874354 1.027622 0.930387
1.874088 1.065631 0.920272
1.851724 1.073628 0.946270
1.851301 1.034200 0.955123
1.852385 1.027521 0.929791
1.852118 1.065530 0.919675
1.873265 1.034002 0.955826
1.872560 0.994480 0.962545
1.873133 0.988422 0.935402
1.874349 1.027323 0.930494
1.851305 1.034422 0.955031
1.850601 0.994900 0.961749
1.851173 0.988842 0.934607
1.852389 1.027743 0.929699
1.872564 0.994579 0.962451
1.872044 0.954696 0.967458
1.872929 0.949290 0.938299
1.873137 0.988521 0.935308
1.850595 0.994721 0.961853
1.850075 0.954838 0.966861
1.850960 0.949432 0.937701
1.851168 0.988663 0.934710
1.872046 0.954736 0.967357
1.872382 0.914659 0.970966
1.872548 0.909920 0.941117
1.872931 0.949330 0.938198
1.850072 0.954718 0.966969
1.850407 0.914640 0.970578
1.850574 0.909901 0.940729
1.850957 0.949312 0.937809
1.872379 0.914460 0.971030
1.871327 0.874319 0.972927
1.872408 0.870478 0.944013
1.872546 0.909721 0.941181
1.850409 0.914759 0.970520
1.849357 0.874618 0.972417
1.850438 0.870776 0.943503
1.850576 0.910020 0.940671
1.871321 0.874286 0.973117
1.870746 0.834035 0.973494
1.871882 0.831091 0.945300
1.872402 0.870444 0.944202
1.849362 0.874572 0.972230
1.848788 0.834321 0.972608
1.849923 0.831377 0.944414
1.850444 0.870730 0.943316
1.870743 0.834027 0.973569
1.870232 0.794075 0.972357
1.871670 0.791668 0.944819
1.871878 0.831083 0.945374
1.848791 0.834249 0.972534
1.848280 0.794297 0.971323
1.849717 0.791890 0.943785
1.849926 0.831305 0.944339
1.870229 0.793967 0.972390
1.869736 0.753790 0.970964
1.870975 0.752202 0.943882
1.871667 0.791560 0.944852
1.848282 0.794327 0.971288
1.847788 0.754150 0.969862
1.849028 0.752563 0.942780
1.849719 0.791920 0.943750
1.869737 0.753791 0.970929
1.869344 0.713898 0.968181
1.870598 0.712645 0.941696
1.870977 0.752204 0.943847
1.847786 0.754069 0.969893
1.847392 0.714175 0.967144
1.848646 0.712923 0.940659
1.849025 0.752481 0.942810
1.875221 1.170311 0.915547
1.875038 1.149751 0.921968
1.874925 1.139708 0.894521
1.876596 1.161588 0.889973
1.853271 1.171066 0.914757
1.853087 1.150506 0.921179
1.852974 1.140463 0.893731
1.854645 1.162343 0.889184
1.920098 1.749552 0.689584
1.917031 1.719974 0.714771
1.918379 1.709561 0.696576
1.922743 1.745141 0.681353
1.898397 1.749879 0.686122
1.895330 1.720301 0.711308
1.896678 1.709888 0.693113
1.901042 1.745468 0.677891
1.917094 1.719357 0.714066
1.913273 1.686933 0.735568
1.914292 1.672977 0.710022
1.918442 1.708943 0.695871
1.895259 1.720851 0.712052
1.891438 1.688428 0.733553
1.892458 1.674471 0.708008
1.896608 1.710438 0.693857
1.913269 1.686882 0.735568
1.908924 1.652040 0.753082
1.910725 1.637591 0.725600
1.914289 1.672926 0.710022
1.891434 1.688409 0.733588
1.887089 1.653567 0.751103
1.888889 1.639118 0.723621
1.892454 1.674453 0.708042
1.908910 1.652093 0.753265
1.904705 1.616962 0.770371
1.906885 1.603357 0.743887
1.910710 1.637644 0.725783
1.887095 1.653444 0.750954
1.882891 1.618313 0.768060
1.885071 1.604708 0.741576
1.888896 1.638995 0.723472
1.904693 1.617025 0.770511
1.900715 1.581375 0.786573
1.903313 1.568172 0.760231
1.906873 1.603420 0.744027
1.882895 1.618179 0.767954
1.878916 1.582529 0.784016
1.881515 1.569326 0.757674
1.885075 1.604574 0.741470
1.900706 1.581477 0.786680
1.897144 1.545516 0.802043
1.900090 1.532747 0.775950
1.903305 1.568274 0.760338
1.878917 1.582356 0.783941
1.875355 1.546395 0.799304
1.878301 1.533626 0.773211
1.881516 1.569153 0.757599
1.897149 1.545558 0.802015
1.894408 1.509006 0.816184
1.896912 1.496882 0.790712
1.900095 1.532790 0.775922
1.875344 1.546281 0.799362
1.872603 1.509729 0.813531
1.875106 1.497605 0.788059
1.878289 1.533512 0.773269
1.894418 1.508919 0.816069
1.891689 1.472206 0.829811
1.893910 1.460398 0.804003
1.896922 1.496795 0.790597
1.872587 1.509744 0.813673
1.869858 1.473030 0.827415
1.872078 1.461223 0.801607
1.875090 1.497619 0.788201
1.891699 1.472101 0.829677
1.889044 1.435322 0.843170
1.890777 1.423778 0.817178
1.893919 1.460293 0.803869
1.869843 1.473062 0.827576
1.867188 1.436283 0.841069
1.868920 1.424739 0.815077
1.872063 1.461254 0.801768
1.889060 1.435289 0.842967
1.886754 1.398023 0.855224
1.888010 1.386816 0.829084
1.890792 1.423745 0.816976
1.867167 1.436242 0.841297
1.864860 1.398976 0.853553
1.866117 1.387769 0.827413
1.868899 1.424698 0.815305
1.886761 1.397952 0.855067
1.884466 1.360688 0.867339
1.885363 1.349866 0.841218
1.888018 1.386745 0.828928
1.864848 1.398973 0.853734
1.862552 1.361710 0.866005
1.863450 1.350887 0.839885
1.866104 1.387766 0.827594
1.884470 1.360717 0.867293
1.882207 1.323011 0.878435
1.883367 1.312494 0.851931
1.885367 1.349894 0.841172
1.862544 1.361606 0.866075
1.860280 1.323901 0.877217
1.861441 1.313384 0.850713
1.863441 1.350784 0.839954
1.882197 1.323188 0.878667
1.879962 1.285461 0.889440
1.882360 1.275282 0.863193
1.883357 1.312671 0.852162
1.860286 1.323649 0.877008
1.858051 1.285923 0.887781
1.860450 1.275743 0.861534
1.861447 1.313132 0.850503
1.879938 1.285394 0.889698
1.878154 1.247259 0.899127
1.880480 1.237361 0.872580
1.882336 1.275215 0.863451
1.858072 1.285915 0.887543
1.856288 1.247780 0.896972
1.858615 1.237882 0.870425
1.860470 1.275735 0.861296
1.878156 1.247294 0.899109
1.876603 1.208995 0.907875
1.879032 1.199490 0.881448
1.880483 1.237396 0.872562
1.856282 1.247670 0.897008
1.854728 1.209371 0.905774
1.857158 1.199865 0.879347
1.858609 1.237772 0.870461
1.876608 1.208798 0.907756
1.875192 1.170371 0.916067
1.876567 1.161648 0.890494
1.879038 1.199292 0.881329
1.854719 1.209492 0.905911
1.853303 1.171066 0.914222
1.854677 1.162343 0.888649
1.857149 1.199987 0.879484
1.863923 1.174009 0.925637
1.833020 1.175451 0.924193
1.831800 1.154552 0.930853
1.863740 1.153449 0.932059
1.864537 1.167379 0.904692
1.833635 1.168822 0.903248
1.832415 1.147922 0.909908
1.864354 1.146819 0.911113
1.833001 1.175532 0.924167
1.802091 1.176971 0.922729
1.799854 1.155750 0.929656
1.831781 1.154633 0.930826
1.833592 1.168743 0.903272
1.802682 1.170182 0.901834
1.800445 1.148962 0.908761
1.832372 1.147844 0.909931
1.802000 1.177034 0.922705
1.771102 1.178446 0.921153
1.767857 1.156872 0.928228
1.799763 1.155814 0.929633
1.802710 1.170122 0.901855
1.771812 1.171534 0.900303
1.768567 1.149959 0.907377
1.800473 1.148901 0.908782
1.764094 1.178205 0.918240
1.741900 1.175320 0.898846
1.739496 1.153999 0.904600
1.760849 1.156631 0.925315
1.778767 1.171773 0.903194
1.756572 1.168888 0.883800
1.754168 1.147567 0.889554
1.775521 1.150198 0.910269
1.738353 1.173318 0.892349
1.734552 1.170657 0.862075
1.733218 1.149815 0.866461
1.735949 1.151998 0.898103
1.760094 1.170885 0.890246
1.756294 1.168223 0.859972
1.754959 1.147382 0.864358
1.757690 1.149564 0.896000
1.734478 1.170188 0.861663
1.732245 1.167678 0.830870
1.731224 1.147270 0.834200
1.733143 1.149346 0.866049
1.756363 1.168687 0.860322
1.754130 1.166178 0.829529
1.753110 1.145769 0.832859
1.755029 1.147846 0.864708
1.908646 1.756949 0.696113
1.882876 1.755575 0.694973
1.880214 1.724327 0.722670
1.905579 1.727371 0.721300
1.909821 1.742487 0.679606
1.884051 1.741113 0.678466
1.881389 1.709865 0.706162
1.906754 1.712909 0.704793
1.905823 1.726147 0.722245
1.880458 1.723103 0.723615
1.877270 1.692717 0.743184
1.902002 1.693723 0.743747
1.906504 1.714071 0.703895
1.881139 1.711027 0.705264
1.877951 1.680641 0.724833
1.902683 1.681648 0.725396
1.901914 1.692626 0.744381
1.877182 1.691620 0.743818
1.872752 1.655690 0.761883
1.897568 1.657784 0.761895
1.902764 1.682678 0.724802
1.878031 1.681671 0.724239
1.873602 1.645741 0.742304
1.898418 1.647835 0.742316
1.897581 1.657625 0.761975
1.872765 1.655531 0.761963
1.868332 1.620785 0.778902
1.893377 1.622494 0.779081
1.898397 1.647924 0.742271
1.873581 1.645830 0.742259
1.869148 1.611084 0.759198
1.894192 1.612793 0.759377
1.893383 1.622146 0.779246
1.868338 1.620437 0.779067
1.864246 1.584673 0.795093
1.889404 1.586497 0.795308
1.894178 1.613070 0.759246
1.869133 1.611361 0.759066
1.865041 1.575596 0.775093
1.890199 1.577420 0.775308
1.889398 1.586271 0.795408
1.864240 1.584448 0.795193
1.860596 1.548655 0.810488
1.885836 1.550310 0.810771
1.890198 1.577574 0.775240
1.865039 1.575750 0.775025
1.861395 1.539958 0.790320
1.886636 1.541612 0.790603
1.885914 1.549951 0.810921
1.860673 1.548297 0.810638
1.857739 1.513319 0.824474
1.883172 1.513400 0.825090
1.886552 1.541899 0.790482
1.861311 1.540244 0.790199
1.858377 1.505267 0.804034
1.883810 1.505347 0.804650
1.883240 1.513212 0.825164
1.857807 1.513132 0.824548
1.854448 1.475409 0.838719
1.880511 1.476499 0.838906
1.883737 1.505462 0.804604
1.858303 1.505381 0.803988
1.854945 1.467659 0.818159
1.881008 1.468749 0.818346
1.880516 1.476381 0.838950
1.854454 1.475291 0.838763
1.851192 1.438049 0.852374
1.877862 1.439602 0.852442
1.880997 1.468792 0.818329
1.854934 1.467703 0.818142
1.851672 1.430460 0.831753
1.878342 1.432014 0.831822
1.877862 1.439210 0.852579
1.851191 1.437657 0.852511
1.848263 1.401363 0.864379
1.875555 1.401944 0.864836
1.878337 1.432332 0.831711
1.851666 1.430779 0.831642
1.848738 1.394485 0.843511
1.876030 1.395066 0.843967
1.875532 1.401912 0.864846
1.848240 1.401331 0.864389
1.845320 1.365191 0.876220
1.873237 1.364648 0.877117
1.876048 1.395024 0.843981
1.848756 1.394443 0.843525
1.845836 1.358304 0.855355
1.873753 1.357761 0.856253
1.873174 1.364271 0.877233
1.845257 1.364814 0.876336
1.842330 1.327701 0.887073
1.870911 1.326565 0.888376
1.873810 1.358064 0.856160
1.845894 1.358607 0.855262
1.842966 1.321495 0.865999
1.871547 1.320358 0.867302
1.870845 1.326447 0.888408
1.842264 1.327583 0.887105
1.839275 1.289582 0.897823
1.868610 1.288720 0.899181
1.871607 1.320401 0.867291
1.843026 1.321538 0.865989
1.840037 1.283536 0.876706
1.869372 1.282675 0.878065
1.868573 1.288314 0.899289
1.839238 1.289175 0.897930
1.836688 1.251137 0.907305
1.866790 1.250180 0.908717
1.869404 1.283005 0.877977
1.840069 1.283867 0.876619
1.837519 1.245829 0.885994
1.867620 1.244871 0.887406
1.866789 1.249960 0.908770
1.836687 1.250918 0.907358
1.834597 1.212878 0.916095
1.865235 1.211662 0.917536
1.867617 1.245014 0.887372
1.837516 1.245972 0.885960
1.835425 1.207933 0.894697
1.866063 1.206716 0.896138
1.865246 1.211494 0.917575
1.834608 1.212710 0.916133
1.832927 1.174509 0.924442
1.863829 1.173067 0.925886
1.866049 1.206807 0.896117
1.835411 1.208024 0.894676
1.833730 1.169823 0.902985
1.864633 1.168380 0.904428
1.882800 1.755801 0.694763
1.857038 1.753860 0.693451
1.854983 1.722268 0.723656
1.880139 1.724553 0.722460
1.884076 1.740882 0.678675
1.858313 1.738940 0.677363
1.856258 1.707349 0.707569
1.881414 1.709634 0.706372
1.880507 1.722928 0.723729
1.855351 1.720643 0.724926
1.852653 1.691405 0.742834
1.877319 1.692542 0.743298
1.881040 1.711198 0.705151
1.855884 1.708913 0.706347
1.853186 1.679675 0.724256
1.877852 1.680812 0.724720
1.877165 1.691616 0.743819
1.852499 1.690479 0.743354
1.847874 1.653598 0.761880
1.872736 1.655686 0.761884
1.877998 1.681672 0.724237
1.853332 1.680535 0.723772
1.848706 1.643653 0.742299
1.873569 1.645742 0.742302
1.872725 1.655526 0.761964
1.847862 1.653437 0.761960
1.843237 1.619036 0.778648
1.868292 1.620780 0.778903
1.873571 1.645831 0.742258
1.848709 1.643743 0.742254
1.844083 1.609342 0.758941
1.869138 1.611085 0.759197
1.868295 1.620428 0.779069
1.843240 1.618685 0.778814
1.839029 1.582774 0.794909
1.864202 1.584664 0.795096
1.869126 1.611366 0.759064
1.844071 1.609623 0.758808
1.839860 1.573712 0.774904
1.865034 1.575602 0.775090
1.864216 1.584449 0.795191
1.839042 1.582558 0.795005
1.835290 1.547147 0.810148
1.860572 1.548656 0.810486
1.865012 1.575746 0.775026
1.839839 1.573855 0.774839
1.836086 1.538444 0.789982
1.861368 1.539953 0.790321
1.860642 1.548368 0.810609
1.835360 1.546859 0.810270
1.832209 1.513082 0.823894
1.857707 1.513391 0.824444
1.861292 1.540171 0.790227
1.836010 1.538662 0.789889
1.832859 1.504884 0.803513
1.858358 1.505193 0.804063
1.857776 1.513148 0.824541
1.832277 1.512839 0.823991
1.828262 1.474229 0.838558
1.854417 1.475426 0.838712
1.858283 1.505364 0.803994
1.832784 1.505055 0.803444
1.828769 1.466445 0.818011
1.854924 1.467641 0.818165
1.854421 1.475278 0.838767
1.828266 1.474082 0.838613
1.824409 1.436623 0.852225
1.851159 1.438036 0.852378
1.854914 1.467713 0.818138
1.828758 1.466517 0.817984
1.824902 1.429058 0.831596
1.851652 1.430471 0.831749
1.851149 1.437641 0.852515
1.824399 1.436229 0.852362
1.820830 1.400906 0.863831
1.848220 1.401347 0.864383
1.851655 1.430792 0.831637
1.824905 1.429379 0.831485
1.821336 1.394057 0.842954
1.848726 1.394498 0.843506
1.848191 1.401316 0.864393
1.820801 1.400875 0.863841
1.817276 1.365855 0.875217
1.845272 1.365177 0.876223
1.848749 1.394458 0.843520
1.821359 1.394017 0.842967
1.817834 1.358997 0.854344
1.845829 1.358319 0.855350
1.845207 1.364764 0.876349
1.817212 1.365443 0.875343
1.813626 1.328709 0.885763
1.842279 1.327652 0.887086
1.845888 1.358658 0.855247
1.817892 1.359337 0.854241
1.814306 1.322603 0.864661
1.842960 1.321546 0.865984
1.842230 1.327564 0.887109
1.813576 1.328621 0.885786
1.809870 1.290392 0.896490
1.839241 1.289563 0.897827
1.843003 1.321559 0.865982
1.814349 1.322616 0.864659
1.810644 1.284387 0.875363
1.840014 1.283558 0.876699
1.839222 1.289181 0.897928
1.809851 1.290010 0.896591
1.806521 1.252111 0.905943
1.836671 1.251143 0.907303
1.840027 1.283863 0.876618
1.810656 1.284692 0.875282
1.807326 1.246794 0.884633
1.837476 1.245825 0.885994
1.836672 1.250929 0.907355
1.806522 1.251897 0.905994
1.803942 1.214110 0.914679
1.834582 1.212889 0.916092
1.837470 1.245964 0.885960
1.807320 1.246932 0.884599
1.804739 1.209145 0.893284
1.835379 1.207924 0.894697
1.834583 1.212724 0.916129
1.803943 1.213944 0.914716
1.801993 1.175961 0.923000
1.832903 1.174522 0.924438
1.835374 1.208013 0.894677
1.804733 1.209234 0.893263
1.802783 1.171251 0.901547
1.833693 1.169812 0.902986
1.856330 1.754176 0.693056
1.831204 1.750668 0.690720
1.828825 1.718262 0.724829
1.854275 1.722584 0.723262
1.858970 1.738619 0.677757
1.833845 1.735111 0.675422
1.831465 1.702705 0.709531
1.856915 1.707027 0.707963
1.854921 1.720355 0.725080
1.829471 1.716033 0.726648
1.827191 1.687773 0.742361
1.852223 1.691117 0.742988
1.856264 1.709195 0.706194
1.830814 1.704873 0.707761
1.828534 1.676613 0.723475
1.853566 1.679957 0.724102
1.851986 1.690515 0.743301
1.826955 1.687171 0.742674
1.821944 1.649454 0.761640
1.847360 1.653634 0.761827
1.853795 1.680493 0.723825
1.828764 1.677149 0.723198
1.823753 1.639432 0.742164
1.849170 1.643612 0.742351
1.847365 1.653451 0.761920
1.821948 1.649270 0.761733
1.817200 1.615388 0.778032
1.842739 1.619050 0.778608
1.849156 1.643723 0.742293
1.823739 1.639543 0.742106
1.818991 1.605661 0.758405
1.844530 1.609323 0.758981
1.842734 1.618708 0.778770
1.817196 1.615046 0.778195
1.812594 1.579286 0.794095
1.838524 1.582796 0.794866
1.844525 1.609595 0.758851
1.818987 1.605933 0.758275
1.814385 1.570174 0.774176
1.840314 1.573684 0.774946
1.838528 1.582594 0.794957
1.812598 1.579084 0.794186
1.808640 1.544503 0.808974
1.834775 1.547182 0.810100
1.840302 1.573815 0.774886
1.814372 1.570305 0.774116
1.810414 1.535724 0.788904
1.836550 1.538404 0.790029
1.834835 1.546952 0.810203
1.808699 1.544272 0.809078
1.805164 1.511040 0.822659
1.831684 1.513174 0.823827
1.836483 1.538566 0.789954
1.810348 1.535886 0.788829
1.806812 1.502654 0.802411
1.833333 1.504789 0.803578
1.831759 1.512897 0.823944
1.805239 1.510762 0.822776
1.800634 1.471958 0.837492
1.827744 1.474287 0.838510
1.833250 1.504994 0.803490
1.806730 1.502860 0.802322
1.802126 1.464055 0.817038
1.829235 1.466384 0.818057
1.827766 1.474105 0.838581
1.800657 1.471776 0.837562
1.796307 1.434588 0.851011
1.823910 1.436646 0.852194
1.829204 1.466490 0.818014
1.802095 1.464162 0.816996
1.797745 1.426974 0.830444
1.825347 1.429032 0.831627
1.823942 1.436267 0.852329
1.796339 1.434210 0.851146
1.792387 1.399894 0.862368
1.820373 1.400945 0.863798
1.825307 1.429338 0.831516
1.797705 1.427281 0.830334
1.793753 1.392965 0.841555
1.821739 1.394016 0.842985
1.820407 1.400906 0.863813
1.792421 1.399855 0.862383
1.788494 1.366017 0.873432
1.816882 1.365886 0.875189
1.821697 1.393985 0.842993
1.793711 1.392935 0.841563
1.789784 1.359097 0.852612
1.818172 1.358966 0.854369
1.816883 1.365441 0.875328
1.788495 1.365572 0.873571
1.784437 1.329198 0.883848
1.813298 1.328707 0.885748
1.818163 1.359340 0.854252
1.789775 1.359471 0.852495
1.785717 1.323097 0.862773
1.814578 1.322606 0.864672
1.813309 1.328646 0.885766
1.784448 1.329137 0.883867
1.780146 1.290809 0.894661
1.809603 1.290416 0.896470
1.814558 1.322593 0.864675
1.785698 1.323083 0.862776
1.781396 1.284755 0.873570
1.810853 1.284363 0.875379
1.809649 1.290059 0.896570
1.780192 1.290451 0.894761
1.776229 1.252915 0.904216
1.806319 1.252160 0.905921
1.810799 1.284645 0.875300
1.781343 1.285037 0.873491
1.777380 1.247501 0.882946
1.807470 1.246746 0.884651
1.806382 1.251933 0.905980
1.776293 1.252688 0.904275
1.773227 1.215247 0.913045
1.803801 1.214145 0.914664
1.807399 1.246898 0.884611
1.777310 1.247653 0.882905
1.774244 1.210213 0.891675
1.804819 1.209111 0.893295
1.803852 1.213973 0.914706
1.773277 1.215075 0.913086
1.771004 1.177402 0.921438
1.801902 1.175990 0.922990
1.804763 1.209208 0.893270
1.774188 1.210310 0.891650
1.771915 1.172637 0.900002
1.802813 1.171225 0.901554
1.824831 1.748895 0.688140
1.807010 1.733568 0.678643
1.799357 1.693916 0.714827
1.822452 1.716488 0.722248
1.840172 1.736862 0.677994
1.822350 1.721535 0.668497
1.814697 1.681883 0.704681
1.837792 1.704456 0.712103
1.823414 1.715298 0.724427
1.800319 1.692725 0.717006
1.796326 1.663949 0.733817
1.821134 1.687038 0.740141
1.836822 1.705582 0.709975
1.813727 1.683009 0.702554
1.809734 1.654233 0.719365
1.834542 1.677322 0.725689
1.821505 1.686833 0.740597
1.796697 1.663744 0.734273
1.790823 1.627143 0.751754
1.816494 1.649115 0.759563
1.834163 1.677462 0.725267
1.809354 1.654372 0.718944
1.803481 1.617771 0.736424
1.829152 1.639744 0.744233
1.816402 1.648813 0.759665
1.790731 1.626840 0.751856
1.785547 1.594040 0.765350
1.811654 1.614930 0.775965
1.829233 1.639976 0.744164
1.803562 1.618003 0.736355
1.798378 1.585203 0.749849
1.824486 1.606093 0.760463
1.811424 1.614624 0.775940
1.785317 1.593734 0.765326
1.779877 1.559100 0.778631
1.806823 1.578865 0.791841
1.824706 1.606331 0.760517
1.798598 1.585441 0.749903
1.793159 1.550807 0.763209
1.820104 1.570571 0.776418
1.806673 1.578659 0.791819
1.779727 1.558894 0.778609
1.775414 1.526399 0.791246
1.802715 1.544078 0.806607
1.820245 1.570709 0.776468
1.793299 1.550944 0.763259
1.788985 1.518449 0.775896
1.816286 1.536128 0.791256
1.802625 1.543872 0.806631
1.775324 1.526193 0.791271
1.771119 1.491979 0.804137
1.799090 1.510639 0.820213
1.816368 1.536266 0.791259
1.789067 1.518588 0.775898
1.784863 1.484373 0.788765
1.812833 1.503034 0.804841
1.799008 1.510477 0.820219
1.771038 1.491817 0.804143
1.766785 1.455215 0.817514
1.794403 1.471673 0.834934
1.812906 1.503125 0.804862
1.784936 1.484464 0.788787
1.780683 1.447863 0.802157
1.808302 1.464321 0.819578
1.794268 1.471418 0.834929
1.766649 1.454960 0.817508
1.762810 1.419891 0.829115
1.789918 1.434231 0.848377
1.808428 1.464501 0.819610
1.780810 1.448043 0.802189
1.776970 1.412974 0.813797
1.804079 1.427314 0.833059
1.789771 1.433987 0.848347
1.762662 1.419646 0.829085
1.759040 1.385614 0.839836
1.785819 1.399671 0.859568
1.804218 1.427488 0.833113
1.777110 1.413148 0.813851
1.773488 1.379115 0.824603
1.800267 1.393173 0.844334
1.785694 1.399599 0.859478
1.758915 1.385541 0.839747
1.755495 1.352535 0.850071
1.781766 1.365761 0.870528
1.800384 1.393177 0.844445
1.773605 1.379120 0.824714
1.770186 1.346114 0.835038
1.796457 1.359339 0.855495
1.781748 1.365524 0.870607
1.755477 1.352299 0.850151
1.752067 1.317915 0.860693
1.777690 1.329150 0.880885
1.796468 1.359507 0.855436
1.770197 1.346281 0.834980
1.766787 1.311897 0.845522
1.792409 1.323133 0.865714
1.777757 1.329120 0.880961
1.752135 1.317885 0.860770
1.748616 1.281963 0.871785
1.773455 1.290792 0.891756
1.792334 1.323090 0.865659
1.766712 1.311855 0.845467
1.763194 1.275933 0.856482
1.788033 1.284762 0.876454
1.773573 1.290562 0.891953
1.748734 1.281733 0.871981
1.746224 1.246365 0.882851
1.769610 1.253026 0.901408
1.787908 1.284919 0.876278
1.763069 1.276090 0.856307
1.760559 1.240722 0.867177
1.783945 1.247383 0.885733
1.769666 1.252596 0.901601
1.746280 1.245935 0.883044
1.744122 1.210357 0.891745
1.766600 1.215155 0.910370
1.783883 1.247740 0.885559
1.760497 1.241079 0.867003
1.758340 1.205502 0.875704
1.780817 1.210300 0.894329
1.766510 1.214849 0.910378
1.744032 1.210051 0.891752
1.742042 1.174291 0.899335
1.764236 1.177176 0.918729
1.780903 1.210533 0.894339
1.758425 1.205735 0.875713
1.756435 1.169975 0.883296
1.778629 1.172860 0.902691
1.804090 1.730346 0.674544
1.796692 1.707802 0.664604
1.790436 1.672832 0.692257
1.796436 1.690694 0.710728
1.825243 1.724718 0.672573
1.817846 1.702173 0.662633
1.811589 1.667204 0.690286
1.817590 1.685065 0.708758
1.796338 1.690128 0.711080
1.790338 1.672266 0.692608
1.785849 1.642623 0.708375
1.792346 1.661351 0.727891
1.817677 1.685565 0.708454
1.811676 1.667704 0.689983
1.807187 1.638061 0.705750
1.813684 1.656789 0.725265
1.792350 1.661365 0.727898
1.785853 1.642637 0.708383
1.780506 1.609090 0.724357
1.786476 1.624764 0.745379
1.813670 1.656711 0.725291
1.807174 1.637983 0.705775
1.801827 1.604437 0.721750
1.807797 1.620110 0.742772
1.786438 1.624568 0.745408
1.780469 1.608894 0.724386
1.775748 1.576748 0.737220
1.781254 1.591768 0.758902
1.807824 1.620238 0.742773
1.801854 1.604565 0.721751
1.797133 1.572418 0.734585
1.802640 1.587438 0.756267
1.781215 1.591641 0.758779
1.775708 1.576620 0.737097
1.770928 1.543366 0.749990
1.775775 1.557007 0.772084
1.802669 1.587499 0.756416
1.797163 1.572479 0.734734
1.792382 1.539224 0.747627
1.797229 1.552865 0.769722
1.775734 1.556776 0.772098
1.770887 1.543136 0.750004
1.766679 1.510966 0.762254
1.771420 1.524282 0.784735
1.797261 1.553029 0.769734
1.792413 1.539389 0.747639
1.788206 1.507219 0.759889
1.792947 1.520535 0.782370
1.771399 1.524134 0.784769
1.766658 1.510819 0.762288
1.762631 1.477381 0.774581
1.767194 1.489920 0.797636
1.792960 1.520616 0.782361
1.788218 1.507300 0.759880
1.784191 1.473863 0.772173
1.788755 1.486401 0.795228
1.767180 1.489815 0.797652
1.762616 1.477276 0.774598
1.758645 1.442882 0.787034
1.762927 1.453213 0.811023
1.788762 1.486437 0.795237
1.784198 1.473898 0.772182
1.780227 1.439504 0.784618
1.784509 1.449835 0.808608
1.762911 1.453077 0.811065
1.758629 1.442746 0.787075
1.754924 1.409048 0.797836
1.759071 1.418008 0.822672
1.784517 1.449901 0.808590
1.780235 1.439570 0.784600
1.776530 1.405872 0.795361
1.780677 1.414832 0.820197
1.759065 1.417940 0.822700
1.754917 1.408980 0.797864
1.751293 1.375585 0.808234
