-0.940005 0.640743 0.103811
-0.996351 0.604761 0.055834
-0.994703 0.567815 0.056147
-0.994294 0.566540 0.104873
-0.995251 0.603574 0.104165
-0.942443 0.606647 0.055043
-0.940796 0.569702 0.055357
-0.940387 0.568426 0.104083
-0.941344 0.605460 0.103375
-0.986274 0.683064 0.105304
-0.993460 0.646700 0.105011
-0.992320 0.645352 0.153703
-0.985950 0.681830 0.153585
-0.933248 0.673198 0.104240
-0.940435 0.636834 0.103947
-0.939294 0.635487 0.152639
-0.932924 0.671964 0.152521
-0.993900 0.642652 0.105166
-0.995244 0.605475 0.104506
-0.994001 0.604202 0.152755
-0.992760 0.641304 0.153858
-0.940003 0.640808 0.103791
-0.941347 0.603631 0.103131
-0.940104 0.602358 0.151380
-0.938863 0.639461 0.152483
-0.995262 0.604089 0.104303
-0.994305 0.567054 0.105011
-0.993767 0.565820 0.153747
-0.994018 0.602816 0.152552
-0.941331 0.604943 0.103334
-0.940375 0.567909 0.104042
-0.939837 0.566674 0.152779
-0.940087 0.603670 0.151583
-0.986044 0.681281 0.153694
-0.992414 0.644803 0.153812
-0.991174 0.643559 0.202492
-0.985525 0.680096 0.201990
-0.932828 0.672510 0.152510
-0.939199 0.636033 0.152628
-0.937959 0.634789 0.201308
-0.932310 0.671326 0.200806
-0.992759 0.641286 0.153910
-0.994000 0.604183 0.152807
-0.992833 0.603052 0.201073
-0.991519 0.640042 0.202591
-0.938861 0.639477 0.152528
-0.940102 0.602374 0.151425
-0.938935 0.601242 0.199691
-0.937621 0.638233 0.201209
-0.994021 0.603400 0.152521
-0.993771 0.566404 0.153716
-0.993496 0.565349 0.202445
-0.992854 0.602268 0.200787
-0.940082 0.603083 0.151712
-0.939832 0.566088 0.152907
-0.939557 0.565033 0.201636
-0.938915 0.601952 0.199978
-0.985602 0.679629 0.201753
-0.991251 0.643093 0.202255
-0.990694 0.641127 0.250845
-0.985599 0.677838 0.249973
-0.932232 0.671789 0.201140
-0.937881 0.635253 0.201642
-0.937324 0.633287 0.250232
-0.932229 0.669999 0.249359
-0.991521 0.640165 0.202235
-0.992835 0.603174 0.200718
-0.992519 0.600980 0.248975
-0.990964 0.638199 0.250825
-0.937618 0.638107 0.201661
-0.938931 0.601116 0.200143
-0.938616 0.598922 0.248401
-0.937060 0.636141 0.250251
-0.992851 0.602115 0.200979
-0.993493 0.565196 0.202638
-0.991838 0.562959 0.251325
-0.992536 0.599921 0.249237
-0.938917 0.602101 0.199882
-0.939558 0.565182 0.201541
-0.937903 0.562945 0.250228
-0.938601 0.599907 0.248140
-0.985661 0.677300 0.248864
-0.990756 0.640588 0.249737
-0.992369 0.636631 0.298020
-0.988167 0.672884 0.296862
-0.932168 0.670531 0.250564
-0.937263 0.633819 0.251436
-0.938876 0.629862 0.299719
-0.934674 0.666115 0.298562
-0.990965 0.638030 0.249983
-0.992520 0.600811 0.248133
-0.993300 0.597607 0.296471
-0.992578 0.634072 0.298266
-0.937060 0.636304 0.251190
-0.938616 0.599086 0.249340
-0.939395 0.595881 0.297678
-0.938673 0.632347 0.299473
-0.992490 0.598297 0.249056
-0.991792 0.561334 0.251143
-0.989513 0.558671 0.299789
-0.993270 0.595092 0.297393
-0.938645 0.601527 0.248418
-0.937947 0.564564 0.250506
-0.935667 0.561901 0.299151
-0.939424 0.598322 0.296756
-0.989088 0.576216 0.300286
-0.987140 0.576301 0.253061
-1.017791 0.574637 0.254541
-1.017030 0.574122 0.303913
-0.985659 0.522380 0.299994
-0.983711 0.522465 0.252769
-1.014363 0.520801 0.254249
-1.013601 0.520286 0.303621
-1.016985 0.574121 0.304257
-1.017746 0.574636 0.254885
-1.050021 0.573041 0.252885
-1.044946 0.572077 0.304569
-1.013705 0.520283 0.303279
-1.014467 0.520798 0.253907
-1.046742 0.519204 0.251908
-1.041666 0.518239 0.303591
-1.044581 0.572087 0.304945
-1.049656 0.573051 0.253262
-1.082405 0.571870 0.257296
-1.076504 0.570087 0.306968
-1.042094 0.518226 0.303216
-1.047169 0.519190 0.251533
-1.079918 0.518009 0.255567
-1.074017 0.516227 0.305239
-0.986497 0.576335 0.253030
-0.987882 0.576140 0.203809
-1.020575 0.575273 0.204955
-1.017148 0.574670 0.254510
-0.984356 0.522432 0.252703
-0.985741 0.522238 0.203482
-1.018434 0.521371 0.204628
-1.015007 0.520768 0.254183
-1.016952 0.574668 0.255081
-1.020378 0.575271 0.205527
-1.052367 0.574910 0.205641
-1.049226 0.573073 0.253082
-1.015268 0.520768 0.253612
-1.018695 0.521371 0.204057
-1.050684 0.521010 0.204171
-1.047543 0.519173 0.251612
-1.048915 0.573060 0.253641
-1.052056 0.574896 0.206200
-1.084730 0.574611 0.207519
-1.081664 0.571878 0.257675
-1.047919 0.519185 0.251055
-1.051060 0.521021 0.203614
-1.083734 0.520736 0.204934
-1.080668 0.518004 0.255089
-0.987351 0.576151 0.204201
-0.987361 0.577069 0.154788
-1.020625 0.576577 0.155602
-1.020044 0.575284 0.205347
-0.986275 0.522229 0.202991
-0.986285 0.523148 0.153579
-1.019549 0.522655 0.154392
-1.018968 0.521362 0.204137
-1.019802 0.575284 0.205471
-1.020383 0.576578 0.155726
-1.053272 0.576299 0.155828
-1.051791 0.574923 0.205586
-1.019275 0.521360 0.204014
-1.019856 0.522654 0.154269
-1.052744 0.522375 0.154371
-1.051264 0.520999 0.204128
-1.051438 0.574917 0.205809
-1.052918 0.576293 0.156051
-1.086159 0.576802 0.156876
-1.084111 0.574632 0.207128
-1.051683 0.521005 0.203906
-1.053163 0.522381 0.154149
-1.086404 0.522890 0.154973
-1.084357 0.520720 0.205226
-0.987170 0.577064 0.155092
-0.987278 0.578781 0.105706
-1.020890 0.578369 0.106148
-1.020434 0.576571 0.155905
-0.986477 0.523156 0.153176
-0.986585 0.524873 0.103790
-1.020197 0.524462 0.104233
-1.019741 0.522664 0.153990
-1.020606 0.576574 0.155755
-1.021062 0.578372 0.105998
-1.054637 0.577450 0.106089
-1.053494 0.576295 0.155857
-1.019636 0.522661 0.154140
-1.020092 0.524459 0.104383
-1.053667 0.523536 0.104474
-1.052524 0.522382 0.154242
-1.052484 0.576296 0.155748
-1.053627 0.577451 0.105980
-1.087194 0.578298 0.106266
-1.085724 0.576806 0.156573
-1.053601 0.522380 0.154352
-1.054744 0.523535 0.104583
-1.088312 0.524381 0.104869
-1.086841 0.522889 0.155176
-0.987182 0.578797 0.105154
-0.987543 0.579535 0.055725
-1.021181 0.579313 0.055829
-1.020794 0.578385 0.105596
-0.986681 0.524861 0.104243
-0.987042 0.525599 0.054815
-1.020680 0.525377 0.054918
-1.020294 0.524449 0.104686
-1.021357 0.578374 0.105622
-1.021744 0.579302 0.055855
-1.055506 0.578275 0.055872
-1.054932 0.577452 0.105713
-1.019798 0.524459 0.104659
-1.020185 0.525387 0.054892
-1.053946 0.524360 0.054909
-1.053373 0.523537 0.104750
-1.053275 0.577445 0.105819
-1.053849 0.578269 0.055978
-1.087438 0.579690 0.055791
-1.086843 0.578292 0.106104
-1.055097 0.523543 0.104645
-1.055671 0.524366 0.054804
-1.089260 0.525788 0.054617
-1.088665 0.524390 0.104930
-0.987336 0.579537 0.055705
-0.987536 0.580434 -0.003001
-1.020823 0.580547 -0.002967
-1.020974 0.579315 0.055808
-0.987250 0.525600 0.054727
-0.987450 0.526497 -0.003979
-1.020737 0.526610 -0.003945
-1.020888 0.525378 0.054830
-1.021735 0.579301 0.055911
-1.021585 0.580533 -0.002864
-1.054824 0.579644 -0.002839
-1.055497 0.578274 0.055928
-1.020193 0.525390 0.054728
-1.020043 0.526622 -0.004047
-1.053283 0.525733 -0.004022
-1.053955 0.524363 0.054745
-1.053435 0.578249 0.056088
-1.052762 0.579619 -0.002679
-1.085987 0.581488 -0.002611
-1.087024 0.579670 0.055901
-1.056085 0.524389 0.054585
-1.055412 0.525759 -0.004182
-1.088638 0.527628 -0.004113
-1.089674 0.525810 0.054398
-1.068871 0.479268 0.307053
-1.092673 0.492672 0.308081
-1.099224 0.494881 0.258183
-1.076086 0.481126 0.257101
-1.041931 0.525970 0.305242
-1.065732 0.539374 0.306269
-1.072284 0.541584 0.256371
-1.049145 0.527828 0.255290
-1.076890 0.481590 0.256203
-1.100028 0.495345 0.257284
-1.103452 0.498024 0.206878
-1.080281 0.482906 0.205779
-1.048352 0.527369 0.256088
-1.071490 0.541124 0.257169
-1.074914 0.543804 0.206763
-1.051743 0.528685 0.205664
-1.081150 0.483471 0.205560
-1.104321 0.498590 0.206659
-1.106337 0.500793 0.156074
-1.082544 0.484085 0.154938
-1.050879 0.528123 0.205782
-1.074050 0.543242 0.206881
-1.076066 0.545445 0.156297
-1.052274 0.528737 0.155161
-1.083300 0.484616 0.155118
-1.107093 0.501324 0.156253
-1.109591 0.503513 0.105752
-1.086251 0.485850 0.104701
-1.051522 0.528208 0.154880
-1.075315 0.544917 0.156016
-1.077814 0.547105 0.105514
-1.054473 0.529443 0.104463
-1.086173 0.485796 0.104200
-1.109514 0.503459 0.105251
-1.113706 0.506460 0.055039
-1.088550 0.489066 0.054351
-1.054557 0.529501 0.104863
-1.077897 0.547164 0.105914
-1.082090 0.550165 0.055702
-1.056934 0.532771 0.055014
-1.088605 0.489106 0.054353
-1.113761 0.506500 0.055040
-1.115302 0.509253 -0.004105
-1.092732 0.491964 -0.004499
-1.056885 0.532737 0.054904
-1.082041 0.550131 0.055591
-1.083583 0.552885 -0.003553
-1.061012 0.535596 -0.003948
-1.105612 0.520348 0.310649
-1.101679 0.547448 0.309579
-1.107579 0.549230 0.259908
-1.112163 0.522558 0.260751
-1.052812 0.511738 0.303701
-1.048879 0.538838 0.302631
-1.054780 0.540620 0.252959
-1.059364 0.513948 0.253803
-1.112242 0.523031 0.259192
-1.107659 0.549703 0.258349
-1.110724 0.552436 0.208194
-1.115666 0.525710 0.208786
-1.059294 0.513479 0.255261
-1.054711 0.540152 0.254418
-1.057776 0.542884 0.204263
-1.062718 0.516159 0.204855
-1.115687 0.525844 0.208051
-1.110745 0.552569 0.207458
-1.112792 0.554739 0.157206
-1.117703 0.528047 0.157466
-1.062703 0.516030 0.205490
-1.057761 0.542756 0.204897
-1.059808 0.544926 0.154645
-1.064719 0.518233 0.154905
-1.117602 0.528584 0.157373
-1.112691 0.555277 0.157113
-1.114162 0.556769 0.106805
-1.120101 0.530773 0.106871
-1.064824 0.517700 0.154897
-1.059913 0.544393 0.154637
-1.061383 0.545885 0.104330
-1.067322 0.519889 0.104396
-1.119452 0.533245 0.107155
-1.113513 0.559241 0.107089
-1.114109 0.560639 0.056776
-1.123645 0.536246 0.056943
-1.067975 0.517421 0.104011
-1.062036 0.543417 0.103945
-1.062632 0.544815 0.053632
-1.072168 0.520422 0.053798
-1.122479 0.539450 0.055853
-1.112942 0.563843 0.055686
-1.111906 0.565661 -0.002825
-1.124020 0.542204 -0.003292
-1.073337 0.517222 0.054779
-1.063800 0.541615 0.054612
-1.062764 0.543433 -0.003899
-1.074878 0.519975 -0.004366
-0.901389 0.705110 0.431859
-0.902332 0.706412 0.389608
-0.937709 0.708003 0.390879
-0.944813 0.706626 0.431819
-0.903542 0.651240 0.429964
-0.904485 0.652542 0.387714
-0.939862 0.654133 0.388985
-0.946966 0.652756 0.429925
-0.902223 0.706414 0.389411
-0.903130 0.707767 0.347160
-0.933271 0.708697 0.358043
-0.937601 0.708005 0.390682
-0.904589 0.652543 0.387832
-0.905496 0.653896 0.345581
-0.935637 0.654826 0.356464
-0.939966 0.654134 0.389102
-0.903547 0.707788 0.346908
-0.904247 0.709024 0.304657
-0.935514 0.709591 0.305268
-0.933688 0.708718 0.357790
-0.905078 0.653876 0.345749
-0.905779 0.655112 0.303499
-0.937045 0.655679 0.304109
-0.935220 0.654807 0.356632
-0.946095 0.706664 0.430860
-0.938992 0.708041 0.389920
-0.973564 0.706476 0.391520
-0.989200 0.707750 0.430698
-0.945762 0.652719 0.430885
-0.938658 0.654096 0.389945
-0.973231 0.652531 0.391544
-0.988867 0.653805 0.430723
-0.941766 0.707832 0.388306
-0.937436 0.708524 0.355667
-0.962367 0.703311 0.350403
-0.976338 0.706267 0.389906
-0.935864 0.654304 0.391483
-0.931534 0.654996 0.358844
-0.956465 0.649783 0.353580
-0.970436 0.652739 0.393082
-0.940125 0.708129 0.357855
-0.941951 0.709001 0.305333
-0.965056 0.702915 0.352591
-0.928829 0.655394 0.356586
-0.930655 0.656266 0.304064
-0.953760 0.650180 0.351322
-0.993690 0.707041 0.426683
-0.978055 0.705768 0.387504
-1.008899 0.698914 0.391137
-1.036161 0.701325 0.425162
-0.984452 0.654506 0.434741
-0.968816 0.653233 0.395562
-0.999661 0.646380 0.399195
-1.026923 0.648791 0.433220
-0.981667 0.704386 0.385170
-0.967696 0.701430 0.345668
-0.989155 0.692024 0.346288
-1.012511 0.697533 0.388803
-0.965164 0.654608 0.397818
-0.951193 0.651652 0.358316
-0.972652 0.642246 0.358936
-0.996008 0.647755 0.401452
-0.970806 0.700843 0.349215
-0.947701 0.706929 0.301957
-0.972799 0.693821 0.295034
-0.992265 0.691436 0.349835
-0.948043 0.652240 0.354676
-0.924937 0.658326 0.307418
-0.950036 0.645219 0.300495
-0.969502 0.642834 0.355296
-0.896312 0.698068 0.781966
-0.896953 0.698850 0.730610
-0.947254 0.699692 0.735358
-0.946709 0.697698 0.787304
-0.896710 0.644143 0.780521
-0.897351 0.644925 0.729166
-0.947652 0.645767 0.733913
-0.947107 0.643773 0.785859
-0.945031 0.697611 0.787864
-0.945577 0.699605 0.735918
-0.995936 0.703643 0.737813
-0.995691 0.700629 0.789926
-0.948886 0.643864 0.785306
-0.949431 0.645858 0.733360
-0.999790 0.649896 0.735255
-0.999545 0.646881 0.787368
-1.004470 0.699775 0.790650
-1.004715 0.702790 0.738537
-1.052849 0.691015 0.740115
-1.052620 0.686120 0.792489
-0.990865 0.647726 0.786649
-0.991110 0.650741 0.734535
-1.039244 0.638966 0.736114
-1.039015 0.634072 0.788488
-0.896464 0.698846 0.730417
-0.897100 0.699629 0.679051
-0.947635 0.701172 0.683098
-0.946766 0.699689 0.735164
-0.897841 0.644931 0.729256
-0.898477 0.645713 0.677890
-0.949012 0.647256 0.681937
-0.948142 0.645773 0.734003
-0.945277 0.699603 0.735358
-0.946147 0.701086 0.683291
-0.996653 0.705305 0.685049
-0.995636 0.703642 0.737253
-0.949732 0.645864 0.733817
-0.950602 0.647347 0.681750
-1.001108 0.651566 0.683508
-1.000091 0.649902 0.735712
-1.003733 0.703065 0.737956
-1.004750 0.704728 0.685752
-1.053389 0.694918 0.687151
-1.051867 0.691290 0.739534
-0.992093 0.650472 0.735012
-0.993110 0.652136 0.682809
-1.041749 0.642326 0.684207
-1.040227 0.638697 0.736591
-0.896985 0.699630 0.678825
-0.897622 0.700519 0.627469
-0.949020 0.701907 0.630723
-0.947520 0.701173 0.682872
-0.898594 0.645714 0.678012
-0.899231 0.646603 0.626657
-0.950629 0.647991 0.629911
-0.949129 0.647257 0.682059
-0.946434 0.701120 0.682494
-0.947934 0.701855 0.630345
-0.999742 0.705016 0.632000
-0.996941 0.705339 0.684253
-0.950317 0.647314 0.682442
-0.951817 0.648049 0.630293
-1.003624 0.651210 0.631948
-1.000824 0.651533 0.684201
-1.003796 0.704959 0.684763
-1.006597 0.704636 0.632510
-1.056476 0.696329 0.633735
-1.052435 0.695149 0.686162
-0.994069 0.651908 0.683693
-0.996870 0.651585 0.631440
-1.046749 0.643278 0.632665
-1.042708 0.642098 0.685092
-0.897660 0.700519 0.627521
-0.898362 0.701497 0.576164
-0.950201 0.702937 0.578613
-0.949059 0.701908 0.630774
-0.899194 0.646604 0.626502
-0.899896 0.647582 0.575146
-0.951734 0.649023 0.577595
-0.950593 0.647993 0.629756
-0.948445 0.701886 0.630549
-0.949587 0.702915 0.578388
-1.002013 0.705264 0.579888
-1.000253 0.705047 0.632203
-0.951310 0.648019 0.629985
-0.952452 0.649048 0.577825
-1.004878 0.651397 0.579324
-1.003117 0.651180 0.631640
-1.005689 0.704784 0.632616
-1.007450 0.705001 0.580301
-1.058118 0.698347 0.581341
-1.055568 0.696477 0.633842
-0.997783 0.651438 0.631229
-0.999544 0.651656 0.578914
-1.050212 0.645001 0.579953
-1.047662 0.643132 0.632454
-0.898348 0.701491 0.576375
-0.899481 0.703002 0.525044
-0.951341 0.704452 0.526727
-0.950187 0.702932 0.578825
-0.899912 0.647590 0.574830
-0.901045 0.649101 0.523498
-0.952904 0.650551 0.525182
-0.951750 0.649031 0.577280
-0.949956 0.702928 0.578656
-0.951110 0.704448 0.526558
-1.003612 0.706183 0.527849
-1.002382 0.705277 0.580156
-0.952086 0.649038 0.577452
-0.953239 0.650558 0.525354
-1.005742 0.652293 0.526645
-1.004512 0.651387 0.578952
-1.006632 0.705105 0.580446
-1.007862 0.706012 0.528140
-1.058818 0.700713 0.528941
-1.057300 0.698451 0.581486
-1.000365 0.651554 0.578664
-1.001596 0.652460 0.526357
-1.052551 0.647162 0.527159
-1.051033 0.644900 0.579704
-0.899464 0.703004 0.524963
-0.900594 0.704410 0.473628
-0.951094 0.705925 0.474698
-0.951323 0.704453 0.526646
-0.901065 0.649102 0.523476
-0.902195 0.650508 0.472140
-0.952695 0.652023 0.473210
-0.952924 0.650552 0.525159
-0.951416 0.704459 0.526522
-0.951187 0.705930 0.474573
-1.001567 0.707037 0.475642
-1.003918 0.706194 0.527813
-0.952933 0.650549 0.525286
-0.952705 0.652020 0.473337
-1.003085 0.653127 0.474406
-1.005436 0.652284 0.526577
-1.007363 0.706077 0.527656
-1.005012 0.706920 0.475484
-1.054683 0.702316 0.476007
-1.058319 0.700779 0.528458
-1.002093 0.652397 0.526736
-0.999742 0.653240 0.474565
-1.049412 0.648636 0.475087
-1.053048 0.647099 0.527538
-0.896252 0.697935 0.784023
-0.946649 0.697565 0.789361
-0.943063 0.691537 0.851569
-0.896755 0.690764 0.851709
-0.896768 0.644267 0.778581
-0.947165 0.643897 0.783919
-0.943579 0.637868 0.846127
-0.897271 0.637096 0.846267
-0.896375 0.690746 0.851826
-0.942682 0.691518 0.851686
-0.935954 0.685386 0.912726
-0.896872 0.683421 0.919479
-0.897647 0.637101 0.846279
-0.943954 0.637873 0.846139
-0.937226 0.631742 0.907178
-0.898144 0.629776 0.913932
-0.945673 0.697521 0.789514
-0.996333 0.700539 0.791576
-0.989085 0.693192 0.849265
-0.942087 0.691493 0.851722
-0.948238 0.643944 0.783768
-0.998898 0.646962 0.785831
-0.991650 0.639614 0.843519
-0.944652 0.637915 0.845976
-0.943163 0.691486 0.852045
-0.990162 0.693185 0.849587
-0.975069 0.685611 0.904239
-0.936435 0.685354 0.913084
-0.943559 0.637908 0.845772
-0.990557 0.639607 0.843314
-0.975465 0.632032 0.897966
-0.936830 0.631776 0.906811
-1.004423 0.699582 0.792492
-1.052573 0.685927 0.794331
-1.037028 0.683091 0.846756
-0.997175 0.692234 0.850180
-0.990901 0.647910 0.784914
-1.039051 0.634256 0.786753
-1.023506 0.631420 0.839178
-0.983653 0.640563 0.842602
-0.995542 0.692543 0.850602
-1.035395 0.683401 0.847178
-1.017353 0.682027 0.889762
-0.980450 0.684969 0.905253
-0.985258 0.640244 0.842284
-1.025111 0.631101 0.838860
-1.007069 0.629727 0.881444
-0.970166 0.632669 0.896936
-0.902137 0.653308 0.943106
-0.941219 0.655273 0.936352
-0.929429 0.618033 0.933932
-0.884549 0.618279 0.941733
-0.892861 0.659847 0.890367
-0.931943 0.661812 0.883614
-0.920153 0.624572 0.881193
-0.875273 0.624818 0.888995
-0.883919 0.613926 0.940928
-0.928799 0.613679 0.933127
-0.917588 0.575017 0.924090
-0.873499 0.577409 0.931063
-0.875877 0.629098 0.889788
-0.920757 0.628851 0.881987
-0.909546 0.590189 0.872950
-0.865457 0.592581 0.879923
-0.872721 0.575849 0.930661
-0.916810 0.573456 0.923689
-0.906175 0.535324 0.911679
-0.864753 0.539180 0.918014
-0.866216 0.594066 0.880303
-0.910304 0.591674 0.873330
-0.899670 0.553542 0.861321
-0.858248 0.557397 0.867655
-0.942663 0.654880 0.936006
-0.981298 0.655136 0.927161
-0.977345 0.616341 0.922536
-0.930874 0.617640 0.933585
-0.930583 0.662205 0.883943
-0.969218 0.662462 0.875098
-0.965265 0.623666 0.870473
-0.918793 0.624965 0.881522
-0.930690 0.613562 0.932723
-0.977162 0.612264 0.921674
-0.964092 0.573393 0.912650
-0.919479 0.574900 0.923686
-0.918956 0.628966 0.882372
-0.965428 0.627667 0.871323
-0.952358 0.588797 0.862299
-0.907745 0.590303 0.873336
-0.919666 0.572765 0.922888
-0.964279 0.571258 0.911852
-0.949963 0.533857 0.899719
-0.909031 0.534632 0.910879
-0.907534 0.592361 0.874113
-0.952146 0.590855 0.863077
-0.937830 0.553454 0.850945
-0.896899 0.554229 0.862104
-0.984961 0.655349 0.926063
-1.021863 0.652407 0.910571
-1.023964 0.614057 0.905249
-0.981008 0.616554 0.921438
-0.965638 0.662246 0.876170
-1.002540 0.659304 0.860679
-1.004641 0.620953 0.855357
-0.961685 0.623451 0.871546
-0.979873 0.611583 0.920661
-1.022829 0.609086 0.904472
-1.009204 0.572183 0.896650
-0.966802 0.572712 0.911638
-0.962806 0.628345 0.872309
-1.005762 0.625848 0.856120
-0.992137 0.588946 0.848298
-0.949736 0.589475 0.863286
-0.966602 0.570009 0.910600
-1.009003 0.569481 0.895612
-0.992260 0.534721 0.884507
-0.952286 0.532608 0.898467
-0.949907 0.592103 0.864304
-0.992309 0.591575 0.849316
-0.975565 0.556816 0.838211
-0.935591 0.554702 0.852171
-1.050786 0.683831 0.412431
-1.023523 0.681420 0.378406
-1.036042 0.646801 0.376095
-1.066818 0.648900 0.410990
-1.012349 0.666244 0.445950
-0.985087 0.663833 0.411925
-0.997605 0.629215 0.409614
-1.028382 0.631313 0.444509
-1.068449 0.644335 0.411161
-1.037672 0.642237 0.376266
-1.044534 0.605225 0.371056
-1.071422 0.605425 0.409206
-1.026770 0.635805 0.444332
-0.995994 0.633707 0.409437
-1.002856 0.596696 0.404227
-1.029743 0.596895 0.442377
-1.073030 0.602833 0.410927
-1.046142 0.602633 0.372777
-1.048790 0.574164 0.371027
-1.072742 0.572821 0.409525
-1.028141 0.599420 0.440650
-1.001253 0.599220 0.402500
-1.003901 0.570751 0.400751
-1.027853 0.569409 0.439249
-1.025952 0.678967 0.380380
-1.002596 0.673458 0.337864
-1.006601 0.641546 0.335843
-1.038470 0.644348 0.378069
-0.982602 0.666280 0.409875
-0.959246 0.660771 0.367360
-0.963251 0.628859 0.365338
-0.995120 0.631661 0.407564
-1.037255 0.642846 0.375918
-1.005386 0.640044 0.333693
-1.009224 0.604261 0.330848
-1.044117 0.605835 0.370708
-0.996349 0.633094 0.409708
-0.964480 0.630292 0.367483
-0.968318 0.594509 0.364638
-1.003211 0.596083 0.404497
-1.043680 0.603491 0.369698
-1.008788 0.601917 0.329838
-1.013317 0.571486 0.331172
-1.046327 0.575021 0.367948
-1.003656 0.598361 0.405503
-0.968764 0.596787 0.365643
-0.973293 0.566357 0.366977
-1.006304 0.569891 0.403753
-1.006075 0.670260 0.343413
-0.986609 0.672644 0.288612
-0.990810 0.636391 0.289769
-1.010080 0.638348 0.341392
-0.955720 0.663965 0.361715
-0.936254 0.666350 0.306914
-0.940456 0.630097 0.308071
-0.959725 0.632053 0.359694
-1.009763 0.637392 0.340310
-0.990494 0.635435 0.288687
-0.991216 0.598969 0.286892
-1.013602 0.601609 0.337465
-0.960048 0.632939 0.360774
-0.940779 0.630983 0.309151
-0.941501 0.594517 0.307356
-0.963887 0.597157 0.357929
-1.012594 0.598921 0.335102
-0.990208 0.596281 0.284529
-0.986451 0.559860 0.286925
-1.017123 0.568490 0.336436
-0.964897 0.599775 0.360291
-0.942512 0.597136 0.309718
-0.938755 0.560714 0.312114
-0.969426 0.569344 0.361625
-0.901593 0.705128 0.431458
-0.945017 0.706644 0.431419
-0.951018 0.705929 0.474411
-0.900518 0.704414 0.473342
-0.903344 0.651220 0.430449
-0.946768 0.652736 0.430409
-0.952769 0.652021 0.473402
-0.902268 0.650506 0.472332
-0.945301 0.706650 0.431491
-0.988406 0.707736 0.431329
-1.001683 0.707042 0.475552
-0.951302 0.705935 0.474484
-0.946577 0.652732 0.430338
-0.989682 0.653817 0.430176
-1.002958 0.653124 0.474399
-0.952578 0.652017 0.473331
-0.992079 0.707562 0.429719
-1.034550 0.701846 0.428199
-1.055027 0.702264 0.474465
-1.005356 0.706868 0.473942
-0.986101 0.653988 0.431786
-1.028572 0.648272 0.430265
-1.049049 0.648690 0.476531
-0.999378 0.653294 0.476009
-1.054483 0.685400 0.419422
-1.070515 0.650469 0.417981
-1.089311 0.652128 0.465556
-1.074959 0.685818 0.465688
-1.008701 0.664679 0.439040
-1.024734 0.629748 0.437599
-1.043530 0.631407 0.485174
-1.029178 0.665096 0.485306
-1.073454 0.639487 0.420019
-1.076427 0.600577 0.418064
-1.087263 0.603922 0.468588
-1.092250 0.641146 0.467594
-1.021809 0.640657 0.435560
-1.024781 0.601747 0.433604
-1.035617 0.605092 0.484128
-1.040604 0.642316 0.483134
-1.077144 0.598926 0.421561
-1.076855 0.568914 0.420159
-1.082371 0.565178 0.471412
-1.087980 0.602271 0.472085
-1.024061 0.603326 0.430106
-1.023773 0.573315 0.428704
-1.029289 0.569578 0.479958
-1.034897 0.606671 0.480630
-1.054445 0.532463 0.783474
-1.060579 0.539565 0.733103
-1.042548 0.506658 0.727946
-1.033017 0.501342 0.777054
-1.008914 0.561172 0.779887
-1.015047 0.568273 0.729516
-0.997017 0.535367 0.724359
-0.987485 0.530051 0.773468
-1.061821 0.541747 0.733049
-1.066164 0.546243 0.682305
-1.050452 0.511279 0.678214
-1.043791 0.508841 0.727892
-1.013818 0.566100 0.729470
-1.018161 0.570596 0.678726
-1.002449 0.535632 0.674636
-0.995788 0.533194 0.724313
-1.066726 0.547379 0.682044
-1.069437 0.546639 0.630711
-1.053881 0.511010 0.627496
-1.051014 0.512416 0.677953
-1.017608 0.569462 0.678886
-1.020319 0.568722 0.627553
-1.004763 0.533092 0.624338
-1.001896 0.534498 0.674796
-1.069668 0.547181 0.630794
-1.072626 0.547420 0.579525
-1.058270 0.511549 0.577349
-1.054112 0.511552 0.627580
-1.020094 0.568178 0.627368
-1.023052 0.568417 0.576098
-1.008696 0.532546 0.573922
-1.004539 0.532549 0.624153
-1.073273 0.549212 0.580015
-1.077267 0.554299 0.529067
-1.067009 0.517536 0.528281
-1.058917 0.513340 0.577838
-1.022415 0.566630 0.575508
-1.026410 0.571718 0.524560
-1.016151 0.534955 0.523773
-1.008060 0.530759 0.573331
-1.077970 0.556687 0.528994
-1.081950 0.561013 0.477967
-1.074290 0.524101 0.479679
-1.067711 0.519924 0.528208
-1.025719 0.569339 0.524533
-1.029699 0.573665 0.473505
-1.022039 0.536753 0.475218
-1.015460 0.532576 0.523746
-0.991406 0.477043 0.763297
-1.022099 0.491454 0.775249
-1.031631 0.496770 0.726141
-0.996818 0.479066 0.714661
-0.967658 0.525480 0.763303
-0.998350 0.539891 0.775255
-1.007882 0.545207 0.726147
-0.973069 0.527504 0.714667
-0.997335 0.479340 0.715434
-1.032148 0.497043 0.726914
-1.038810 0.499482 0.677236
-1.004566 0.480734 0.667113
-0.972566 0.527236 0.713796
-1.007379 0.544939 0.725276
-1.014041 0.547378 0.675598
-0.979797 0.528630 0.665475
-1.005103 0.481066 0.667974
-1.039347 0.499814 0.678097
-1.042214 0.498407 0.627640
-1.014183 0.481799 0.619997
-0.979273 0.528300 0.664516
-1.013516 0.547047 0.674639
-1.016384 0.545641 0.624182
-0.988353 0.529033 0.616538
-1.015393 0.482499 0.619954
-1.043424 0.499107 0.627597
-1.047582 0.499104 0.577366
-1.024482 0.483226 0.571973
-0.987156 0.528333 0.616483
-1.015187 0.544941 0.624126
-1.019344 0.544938 0.573895
-0.996245 0.529060 0.568502
-1.026672 0.484728 0.571967
-1.049772 0.500607 0.577360
-1.057864 0.504803 0.527802
-1.035996 0.485695 0.524059
-0.994070 0.527560 0.568410
-1.017170 0.543439 0.573804
-1.025261 0.547635 0.524246
-1.003393 0.528527 0.520502
-1.039156 0.488631 0.524979
-1.061024 0.507738 0.528722
-1.067603 0.511915 0.480193
-1.050719 0.489314 0.477717
-1.000251 0.525596 0.519486
-1.022119 0.544704 0.523229
-1.028698 0.548881 0.474701
-1.011814 0.526279 0.472224
-1.098033 0.541571 0.386376
-1.097232 0.541275 0.346223
-1.100300 0.516878 0.347809
-1.097926 0.517295 0.386595
-1.044199 0.538258 0.385334
-1.043398 0.537962 0.345181
-1.046466 0.513565 0.346767
-1.044092 0.513982 0.385553
-1.082061 0.491058 0.387425
-1.084434 0.490641 0.348639
-1.060065 0.478865 0.345926
-1.051457 0.477715 0.383686
-1.059932 0.540182 0.384721
-1.062305 0.539765 0.345935
-1.037936 0.527989 0.343222
-1.029328 0.526839 0.380982
-1.096754 0.543408 0.349451
-1.101709 0.546930 0.309938
-1.105642 0.519830 0.311008
-1.099821 0.519012 0.351037
-1.043883 0.535830 0.341875
-1.048838 0.539351 0.302362
-1.052771 0.512252 0.303432
-1.046950 0.511433 0.343460
-1.085722 0.491299 0.349169
-1.091542 0.492117 0.309140
-1.067741 0.478713 0.308113
-1.061353 0.479523 0.346456
-1.061029 0.539108 0.345328
-1.066850 0.539926 0.305299
-1.043048 0.526522 0.304271
-1.036660 0.527332 0.342614
-0.974507 0.582201 0.289278
-0.999254 0.571245 0.289944
-1.022569 0.573143 0.325698
-1.005178 0.590831 0.338789
-0.950720 0.538326 0.309756
-0.975468 0.527370 0.310422
-0.998783 0.529268 0.346176
-0.981392 0.546956 0.359267
-1.007783 0.587856 0.336468
-1.025173 0.570168 0.323377
-1.056154 0.569476 0.364353
-1.040793 0.591391 0.373244
-0.978847 0.549937 0.361670
-0.996238 0.532249 0.348578
-1.027219 0.531558 0.389554
-1.011858 0.553472 0.398446
-0.975257 0.488545 0.851869
-1.002539 0.489944 0.818506
-0.977615 0.474709 0.796230
-0.951233 0.469084 0.814392
-0.956428 0.537411 0.838919
-0.983710 0.538811 0.805556
-0.958786 0.523576 0.783281
-0.932404 0.517951 0.801442
-1.003985 0.489938 0.815558
-1.021054 0.491228 0.778848
-0.990361 0.476817 0.766895
-0.979061 0.474704 0.793282
-0.982305 0.538822 0.808447
-0.999374 0.540111 0.771737
-0.968681 0.525701 0.759785
-0.957381 0.523587 0.786172
-1.001524 0.530134 0.874533
-1.030750 0.529960 0.834101
-1.010741 0.498801 0.825266
-0.983458 0.497402 0.858629
-0.966336 0.561336 0.848106
-0.995561 0.561162 0.807674
-0.975552 0.530003 0.798839
-0.948270 0.528604 0.832202
-1.033311 0.529983 0.829767
-1.051799 0.531235 0.790642
-1.030371 0.500114 0.784222
-1.013302 0.498824 0.820932
-0.993046 0.561141 0.811933
-1.011534 0.562393 0.772807
-0.990106 0.531272 0.766387
-0.973037 0.529982 0.803098
-0.864356 0.537335 0.917319
-0.905778 0.533479 0.910985
-0.895714 0.496834 0.895605
-0.858018 0.500897 0.902050
-0.858627 0.559168 0.868322
-0.900049 0.555312 0.861988
-0.889984 0.518667 0.846608
-0.852289 0.522730 0.853054
-0.909788 0.531975 0.909425
-0.950720 0.531200 0.898266
-0.936592 0.495977 0.881960
-0.899724 0.495330 0.894045
-0.896117 0.556812 0.863530
-0.937048 0.556037 0.852370
-0.922921 0.520813 0.836064
-0.886053 0.520167 0.848150
-0.952825 0.529394 0.896422
-0.992799 0.531507 0.882461
-0.974734 0.498774 0.866557
-0.938697 0.494170 0.880116
-0.935020 0.557846 0.854189
-0.974994 0.559960 0.840228
-0.956929 0.527227 0.824324
-0.920893 0.522623 0.837883
-0.857158 0.489255 0.892223
-0.894853 0.485192 0.885777
-0.880723 0.462807 0.848441
-0.852094 0.469183 0.867089
-0.853131 0.534314 0.862835
-0.890827 0.530251 0.856389
-0.876696 0.507866 0.819054
-0.848067 0.514242 0.837702
-0.898487 0.483592 0.881741
-0.935355 0.484238 0.869656
-0.915159 0.464222 0.829176
-0.884356 0.461207 0.844406
-0.887261 0.531848 0.860398
-0.924129 0.532494 0.848313
-0.903933 0.512478 0.807833
-0.873130 0.509463 0.823063
-0.936388 0.483721 0.867703
-0.972424 0.488325 0.854144
-0.948400 0.468864 0.816667
-0.916192 0.463704 0.827223
-0.923164 0.533019 0.850240
-0.959200 0.537623 0.836682
-0.935175 0.518163 0.799204
-0.902968 0.513002 0.809760
-1.057814 0.540396 0.783582
-1.067616 0.577567 0.785017
-1.072226 0.584188 0.734230
-1.063947 0.547497 0.733211
-1.005574 0.553309 0.779786
-1.015376 0.590481 0.781220
-1.019986 0.597102 0.730434
-1.011708 0.560410 0.729415
-1.068104 0.579829 0.784549
-1.074729 0.617554 0.788414
-1.077604 0.623400 0.736723
-1.072714 0.586450 0.733762
-1.014903 0.588294 0.781693
-1.021528 0.626019 0.785559
-1.024403 0.631865 0.733867
-1.019512 0.594915 0.730906
-1.074968 0.624301 0.788046
-1.072682 0.662547 0.791544
-1.072911 0.667441 0.739170
-1.077843 0.630147 0.736354
-1.021291 0.619348 0.785934
-1.019005 0.657594 0.789432
-1.019234 0.662489 0.737058
-1.024166 0.625194 0.734242
-1.064139 0.548213 0.732836
-1.072417 0.584905 0.733855
-1.076120 0.589410 0.682975
-1.068482 0.552709 0.682092
-1.011525 0.559705 0.729688
-1.019803 0.596396 0.730707
-1.023506 0.600901 0.679828
-1.015868 0.564200 0.678944
-1.072808 0.587127 0.733840
-1.077699 0.624078 0.736800
-1.081176 0.628505 0.685007
-1.076511 0.591632 0.682960
-1.019425 0.594248 0.730726
-1.024316 0.631198 0.733687
-1.027793 0.635626 0.681893
-1.023128 0.598753 0.679846
-1.077610 0.631827 0.736844
-1.072678 0.669122 0.739659
-1.074200 0.672750 0.687276
-1.081087 0.636254 0.685050
-1.024403 0.623523 0.733648
-1.019471 0.660818 0.736464
-1.020992 0.664446 0.684081
-1.027880 0.627950 0.681855
-1.068508 0.552811 0.682031
-1.076146 0.589512 0.682914
-1.079381 0.589566 0.631667
-1.071219 0.552071 0.630698
-1.015850 0.564103 0.678903
-1.023488 0.600803 0.679786
-1.026723 0.600857 0.628539
-1.018561 0.563363 0.627570
-1.076417 0.591182 0.683411
-1.081081 0.628054 0.685458
-1.086046 0.629374 0.633500
-1.079652 0.591236 0.632163
-1.023230 0.599208 0.679292
-1.027895 0.636081 0.681339
-1.032860 0.637400 0.629381
-1.026466 0.599262 0.628044
-1.080848 0.637292 0.685799
-1.073960 0.673788 0.688025
-1.078001 0.674968 0.635598
-1.085812 0.638611 0.633840
-1.028126 0.626917 0.681002
-1.021239 0.663413 0.683228
-1.025280 0.664594 0.630801
-1.033091 0.628237 0.629044
-1.071212 0.551998 0.630540
-1.079374 0.589493 0.631508
-1.082350 0.590457 0.580297
-1.074170 0.552237 0.579270
-1.018573 0.563436 0.627626
-1.026736 0.600931 0.628595
-1.029711 0.601895 0.577383
-1.021531 0.563675 0.576357
-1.079563 0.590497 0.631691
-1.085957 0.628635 0.633027
-1.089911 0.630728 0.581025
-1.082538 0.591462 0.580479
-1.026562 0.600003 0.628414
-1.032956 0.638141 0.629750
-1.036910 0.640234 0.577748
-1.029538 0.600967 0.577203
-1.085669 0.639505 0.633252
-1.077857 0.675862 0.635009
-1.080407 0.677732 0.582509
-1.089622 0.641598 0.581250
-1.033243 0.627346 0.629528
-1.025432 0.663703 0.631286
-1.027981 0.665573 0.578785
-1.037197 0.629439 0.577526
-1.074218 0.552431 0.579163
-1.082397 0.590652 0.580190
-1.085851 0.595237 0.529126
-1.078212 0.557519 0.528216
-1.021491 0.563486 0.576362
-1.029670 0.601706 0.577388
-1.033124 0.606292 0.526324
-1.025486 0.568573 0.525414
-1.082506 0.591189 0.580159
-1.089879 0.630455 0.580705
-1.093305 0.634026 0.528753
-1.085960 0.595775 0.529095
-1.029577 0.601246 0.577420
-1.036949 0.640512 0.577966
-1.040375 0.644082 0.526015
-1.033030 0.605831 0.526356
-1.089305 0.642898 0.580973
-1.080090 0.679032 0.582232
-1.081608 0.681294 0.529687
-1.092732 0.646469 0.529021
-1.037520 0.628143 0.577699
-1.028304 0.664277 0.578958
-1.029822 0.666539 0.526413
-1.040946 0.631714 0.525748
-1.078383 0.558328 0.527932
-1.086021 0.596047 0.528842
-1.087972 0.599747 0.477576
-1.082363 0.562654 0.476904
-1.025322 0.567773 0.525596
-1.032960 0.605491 0.526506
-1.034910 0.609191 0.475241
-1.029302 0.572098 0.474568
-1.086117 0.596459 0.527803
-1.093462 0.634710 0.527462
-1.093054 0.637383 0.475544
-1.088067 0.600159 0.476538
-1.032877 0.605154 0.527545
-1.040222 0.643405 0.527203
-1.039814 0.646078 0.475285
-1.034827 0.608854 0.476279
-1.092112 0.648498 0.526732
-1.080988 0.683323 0.527398
-1.077352 0.684861 0.474947
-1.091704 0.651171 0.474815
-1.041566 0.629689 0.527932
-1.030442 0.664515 0.528598
-1.026806 0.666052 0.476147
-1.041158 0.632363 0.476014
-1.037195 0.655410 0.895801
-1.055237 0.656783 0.853217
-1.056491 0.618290 0.846981
-1.039295 0.617059 0.890479
-0.987267 0.656300 0.875390
-1.005309 0.657674 0.832806
-1.006563 0.619181 0.826570
-0.989367 0.617950 0.870068
-1.056017 0.657390 0.851067
-1.071561 0.660226 0.798642
-1.073848 0.621979 0.795143
-1.057271 0.618897 0.844831
-1.004563 0.657071 0.834862
-1.020108 0.659907 0.782437
-1.022394 0.621661 0.778939
-1.005817 0.618579 0.828627
-1.037543 0.608063 0.890273
-1.054738 0.609295 0.846775
-1.044714 0.571910 0.839659
-1.023917 0.571161 0.882450
-0.991110 0.626870 0.870260
-1.008306 0.628101 0.826763
-0.998281 0.590716 0.819646
-0.977485 0.589967 0.862438
-1.056084 0.611954 0.845648
-1.072661 0.615037 0.795961
-1.066036 0.577311 0.792095
-1.046060 0.574569 0.838532
-1.006997 0.625445 0.827799
-1.023574 0.628527 0.778111
-1.016949 0.590802 0.774246
-0.996973 0.588060 0.820682
-1.021805 0.569461 0.885051
-1.042602 0.570210 0.842260
-1.034288 0.534528 0.833515
-1.005062 0.534702 0.873946
-0.979572 0.591595 0.859820
-1.000369 0.592343 0.817028
-0.992055 0.556662 0.808283
-0.962829 0.556836 0.848715
-1.045301 0.573915 0.839954
-1.065278 0.576656 0.793518
-1.055475 0.539485 0.792084
-1.036987 0.538233 0.831209
-0.997714 0.588641 0.819249
-1.017690 0.591383 0.772812
-1.007888 0.554211 0.771378
-0.989400 0.552959 0.810504
-1.013080 0.577899 0.332955
-0.989765 0.576001 0.297201
-1.017707 0.573907 0.300828
-1.008304 0.524495 0.338904
-0.984989 0.522597 0.303150
-1.012931 0.520503 0.306777
-1.079519 0.565434 0.388391
-1.068194 0.565260 0.428191
-1.050142 0.576003 0.379494
-1.062686 0.514427 0.383379
-1.051361 0.514253 0.423178
-1.033309 0.524996 0.374482
-1.047588 0.575163 0.339509
-1.013057 0.577934 0.333262
-1.017684 0.573941 0.301135
-1.045644 0.571897 0.301447
-1.042907 0.521688 0.344860
-1.008375 0.524458 0.338613
-1.013002 0.520466 0.306487
-1.040963 0.518422 0.306798
-1.050271 0.574927 0.342468
-1.048327 0.571661 0.304407
-1.080250 0.569662 0.306429
-1.075295 0.566140 0.345942
-1.040284 0.521916 0.341906
-1.038340 0.518650 0.303845
-1.070264 0.516651 0.305867
-1.065309 0.513129 0.345380
-1.044099 0.577338 0.375583
-1.013119 0.578030 0.334607
-1.047650 0.575259 0.340854
-1.039302 0.523675 0.378304
-1.008321 0.524366 0.337328
-1.042853 0.521596 0.343575
-1.080237 0.565306 0.385382
-1.050860 0.575875 0.376485
-1.054411 0.573797 0.341756
-1.079436 0.565010 0.345229
-1.061967 0.514557 0.386321
-1.032590 0.525126 0.377424
-1.036141 0.523048 0.342695
-1.061165 0.514261 0.346168
-1.045480 0.477568 0.424019
-1.069677 0.493171 0.426538
-1.083168 0.491807 0.389596
-1.052565 0.478464 0.385857
-1.021120 0.525194 0.417049
-1.045317 0.540796 0.419567
-1.058808 0.539433 0.382626
-1.028205 0.526089 0.378887
-1.083116 0.515279 0.431361
-1.085389 0.538018 0.434000
-1.096714 0.538192 0.394201
-1.096607 0.513915 0.394420
-1.031908 0.518726 0.414748
-1.034180 0.541465 0.417387
-1.045506 0.541639 0.377587
-1.045399 0.517363 0.377807
-1.083748 0.513764 0.428402
-1.074416 0.527170 0.482699
-1.086021 0.536503 0.431041
-1.031256 0.520243 0.417781
-1.021925 0.533649 0.472078
-1.033529 0.542982 0.420420
-0.908474 0.716210 -0.000348
-0.907739 0.717123 -0.058006
-0.936763 0.718113 -0.058890
-0.937682 0.716734 -0.000366
-0.909859 0.662293 -0.001431
-0.909125 0.663206 -0.059090
-0.938148 0.664196 -0.059974
-0.939068 0.662817 -0.001449
-0.907359 0.717111 -0.058047
-0.906650 0.717917 -0.107452
-0.935608 0.719268 -0.108200
-0.936383 0.718101 -0.058931
-0.909504 0.663219 -0.059156
-0.908794 0.664025 -0.108561
-0.937753 0.665376 -0.109309
-0.938527 0.664210 -0.060040
-0.906363 0.717905 -0.107533
-0.905670 0.718707 -0.156948
-0.934678 0.720309 -0.157742
-0.935322 0.719256 -0.108280
-0.909079 0.664038 -0.108580
-0.908386 0.664840 -0.157995
-0.937395 0.666442 -0.158789
-0.938038 0.665389 -0.109327
-0.905316 0.718688 -0.157004
-0.904562 0.719332 -0.206412
-0.933559 0.721450 -0.207333
-0.934325 0.720290 -0.157798
-0.908738 0.664860 -0.158038
-0.907984 0.665505 -0.207446
-0.936981 0.667623 -0.208367
-0.937747 0.666463 -0.158832
-0.904251 0.719313 -0.206561
-0.903482 0.719947 -0.255981
-0.932806 0.722242 -0.256898
-0.933247 0.721431 -0.207482
-0.908295 0.665525 -0.207396
-0.907526 0.666159 -0.256817
-0.936850 0.668454 -0.257734
-0.937291 0.667643 -0.208317
-0.904215 0.719995 -0.256550
-0.903442 0.720668 -0.305964
-0.934705 0.721264 -0.306540
-0.933539 0.722290 -0.257467
-0.906792 0.666111 -0.256347
-0.906018 0.666784 -0.305761
-0.937282 0.667380 -0.306337
-0.936116 0.668406 -0.257264
-0.949328 0.714427 -0.000459
-0.948409 0.715806 -0.058984
-0.971011 0.705864 -0.058068
-0.971537 0.704495 -0.000655
-0.927473 0.665115 -0.001356
-0.926554 0.666494 -0.059880
-0.949156 0.656552 -0.058964
-0.949681 0.655183 -0.001551
-0.948340 0.715838 -0.059080
-0.947566 0.717004 -0.108348
-0.970473 0.706881 -0.106448
-0.970943 0.705896 -0.058164
-0.926621 0.666464 -0.059891
-0.925847 0.667630 -0.109160
-0.948754 0.657507 -0.107260
-0.949224 0.656522 -0.058975
-0.947724 0.716936 -0.108498
-0.947081 0.717989 -0.157960
-0.970258 0.707425 -0.154899
-0.970631 0.706813 -0.106598
-0.925688 0.667700 -0.109108
-0.925044 0.668753 -0.158569
-0.948221 0.658189 -0.155509
-0.948595 0.657577 -0.107208
-0.947378 0.717855 -0.158007
-0.946612 0.719015 -0.207542
-0.970001 0.707964 -0.203234
-0.970554 0.707291 -0.154946
-0.924747 0.668889 -0.158620
-0.923981 0.670049 -0.208155
-0.947370 0.658999 -0.203847
-0.947923 0.658325 -0.155559
-0.947021 0.718823 -0.207736
-0.946580 0.719634 -0.257153
-0.970381 0.707839 -0.251690
-0.970411 0.707772 -0.203428
-0.923570 0.670242 -0.208059
-0.923128 0.671053 -0.257476
-0.946929 0.659258 -0.252013
-0.946960 0.659192 -0.203751
-0.947245 0.719298 -0.257775
-0.948411 0.718272 -0.306848
-0.973542 0.704962 -0.300422
-0.971047 0.707503 -0.252312
-0.922464 0.671388 -0.256950
-0.923630 0.670362 -0.306023
-0.948760 0.657052 -0.299597
-0.946266 0.659593 -0.251488
-0.986954 0.685671 -0.001275
-0.986428 0.687040 -0.058688
-0.994306 0.650899 -0.059415
-0.995093 0.649741 -0.001955
-0.934295 0.673962 -0.000931
-0.933770 0.675330 -0.058344
-0.941647 0.639189 -0.059071
-0.942434 0.638032 -0.001611
-0.995720 0.644872 -0.002100
-0.994933 0.646030 -0.059560
-0.996394 0.608985 -0.060602
-0.997040 0.608054 -0.002787
-0.941816 0.642827 -0.001468
-0.941029 0.643985 -0.058927
-0.942491 0.606940 -0.059970
-0.943136 0.606009 -0.002155
-0.997027 0.605670 -0.002677
-0.996382 0.606601 -0.060492
-0.994805 0.569690 -0.062187
-0.994963 0.568888 -0.003374
-0.943148 0.608319 -0.002267
-0.942503 0.609250 -0.060082
-0.940926 0.572339 -0.061777
-0.941083 0.571537 -0.002964
-0.986496 0.686719 -0.058883
-0.986027 0.687703 -0.107168
-0.993316 0.651373 -0.108255
-0.994373 0.650578 -0.059610
-0.933701 0.675654 -0.058255
-0.933231 0.676638 -0.106540
-0.940521 0.640308 -0.107626
-0.941578 0.639513 -0.058981
-0.994926 0.646075 -0.059874
-0.993869 0.646871 -0.108519
-0.995308 0.609699 -0.109250
-0.996387 0.609030 -0.060917
-0.941035 0.643942 -0.058719
-0.939977 0.644737 -0.107364
-0.941416 0.607565 -0.108095
-0.942496 0.606897 -0.059762
-0.996397 0.607048 -0.060761
-0.995317 0.607717 -0.109094
-0.994427 0.570736 -0.111205
-0.994820 0.570137 -0.062456
-0.942486 0.608805 -0.059920
-0.941407 0.609474 -0.108253
-0.940516 0.572493 -0.110364
-0.940910 0.571894 -0.061615
-0.986123 0.687213 -0.107258
-0.985750 0.687825 -0.155559
-0.992268 0.651407 -0.157041
-0.993413 0.650883 -0.108345
-0.933133 0.677130 -0.106547
-0.932759 0.677742 -0.154848
-0.939278 0.641324 -0.156330
-0.940422 0.640800 -0.107633
-0.993867 0.646834 -0.108632
-0.992723 0.647358 -0.157329
-0.994097 0.610244 -0.157637
-0.995306 0.609662 -0.109363
-0.939976 0.644775 -0.107348
-0.938832 0.645299 -0.156044
-0.940206 0.608186 -0.156353
-0.941415 0.607603 -0.108079
-0.995329 0.608279 -0.109166
-0.994119 0.608861 -0.157440
-0.994064 0.571934 -0.160020
-0.994438 0.571298 -0.111278
-0.941394 0.608913 -0.108278
-0.940184 0.609495 -0.156552
-0.940129 0.572568 -0.159132
-0.940503 0.571932 -0.110389
-0.985841 0.687309 -0.155683
-0.985288 0.687982 -0.203971
-0.991118 0.651519 -0.205868
-0.992360 0.650891 -0.157165
-0.932666 0.678260 -0.154820
-0.932113 0.678933 -0.203108
-0.937943 0.642469 -0.205005
-0.939185 0.641841 -0.156303
-0.992721 0.647374 -0.157376
-0.991479 0.648002 -0.206079
-0.992976 0.610986 -0.205947
-0.994095 0.610261 -0.157685
-0.938831 0.645284 -0.156093
-0.937589 0.645912 -0.204796
-0.939086 0.608896 -0.204664
-0.940205 0.608171 -0.156402
-0.994120 0.609474 -0.157429
-0.993000 0.610199 -0.205692
-0.993783 0.573378 -0.208759
-0.994064 0.572547 -0.160009
-0.940182 0.608883 -0.156660
-0.939063 0.609608 -0.204923
-0.939846 0.572787 -0.207990
-0.940127 0.571956 -0.159240
-0.985363 0.687531 -0.203748
-0.985333 0.687598 -0.252010
-0.990643 0.650979 -0.254257
-0.991193 0.651068 -0.205646
-0.932037 0.679385 -0.203427
-0.932007 0.679451 -0.251689
-0.937317 0.642832 -0.253936
-0.937867 0.642921 -0.205325
-0.991479 0.648147 -0.205716
-0.990930 0.648058 -0.254327
-0.992716 0.610805 -0.253906
-0.992976 0.611130 -0.205585
-0.937588 0.645768 -0.205256
-0.937038 0.645679 -0.253867
-0.938824 0.608427 -0.253445
-0.939084 0.608752 -0.205124
-0.992999 0.610082 -0.205834
-0.992739 0.609757 -0.254155
-0.992326 0.572897 -0.257631
-0.993782 0.573261 -0.208901
-0.939063 0.609726 -0.204878
-0.938803 0.609401 -0.253199
-0.938389 0.572542 -0.256675
-0.939846 0.572905 -0.207944
-0.985395 0.687043 -0.250923
-0.987890 0.684502 -0.299033
-0.992340 0.648349 -0.301582
-0.990706 0.650424 -0.253170
-0.931946 0.680003 -0.252873
-0.934441 0.677462 -0.300983
-0.938891 0.641309 -0.303532
-0.937256 0.643385 -0.255119
-0.990927 0.647942 -0.253456
-0.992561 0.645866 -0.301868
-0.993692 0.609371 -0.301437
-0.992713 0.610689 -0.253035
-0.937041 0.645794 -0.254835
-0.938676 0.643719 -0.303248
-0.939807 0.607223 -0.302816
-0.938828 0.608541 -0.254414
-0.992704 0.608161 -0.254013
-0.993683 0.606843 -0.302415
-0.990167 0.570519 -0.306230
-0.992291 0.571301 -0.257488
-0.938836 0.610996 -0.253439
-0.939815 0.609678 -0.301841
-0.936299 0.573355 -0.305657
-0.938423 0.574136 -0.256915
-0.989492 0.587922 -0.306060
-1.017453 0.586174 -0.309711
-1.018114 0.584596 -0.260356
-0.987440 0.585845 -0.258888
-0.986559 0.534096 -0.308140
-1.014520 0.532348 -0.311791
-1.015180 0.530770 -0.262437
-0.984506 0.532019 -0.260969
-1.017426 0.586187 -0.310093
-1.045404 0.584394 -0.310423
-1.050370 0.583206 -0.258737
-1.018087 0.584609 -0.260738
-1.014606 0.532331 -0.311411
-1.042584 0.530538 -0.311741
-1.047550 0.529349 -0.260055
-1.015267 0.530753 -0.262056
-1.045027 0.584418 -0.310810
-1.076972 0.582771 -0.312844
-1.082758 0.582532 -0.263121
-1.049993 0.583229 -0.259124
-1.043023 0.530512 -0.311357
-1.074968 0.528865 -0.313390
-1.080754 0.528626 -0.263667
-1.047989 0.529323 -0.259671
-0.986733 0.585874 -0.258891
-1.017407 0.584625 -0.260359
-1.020729 0.583153 -0.210822
-0.988028 0.583596 -0.209714
-0.985214 0.531986 -0.260868
-1.015888 0.530737 -0.262336
-1.019210 0.529265 -0.212799
-0.986509 0.529707 -0.211690
-1.017287 0.584643 -0.260938
-1.049571 0.583239 -0.258938
-1.052600 0.583096 -0.211448
-1.020609 0.583171 -0.211402
-1.016072 0.530717 -0.261757
-1.048355 0.529313 -0.259756
-1.051385 0.529170 -0.212266
-1.019394 0.529245 -0.212220
-1.049221 0.583247 -0.259508
-1.081985 0.582550 -0.263505
-1.084929 0.583224 -0.213279
-1.052250 0.583104 -0.212018
-1.048770 0.529304 -0.259187
-1.081535 0.528607 -0.263184
-1.084478 0.529280 -0.212958
-1.051799 0.529161 -0.211698
-0.987517 0.583618 -0.210185
-1.020218 0.583175 -0.211294
-1.020689 0.582470 -0.161528
-0.987419 0.582601 -0.160783
-0.987022 0.529682 -0.211120
-1.019723 0.529240 -0.212228
-1.020194 0.528535 -0.162463
-0.986924 0.528665 -0.161718
-1.020014 0.583178 -0.211413
-1.052005 0.583103 -0.211460
-1.053375 0.582523 -0.161692
-1.020485 0.582473 -0.161648
-1.019993 0.529236 -0.212110
-1.051984 0.529162 -0.212156
-1.053354 0.528582 -0.162388
-1.020464 0.528532 -0.162344
-1.051654 0.583103 -0.211668
-1.084333 0.583222 -0.212928
-1.086259 0.583326 -0.162619
-1.053024 0.582523 -0.161900
-1.052400 0.529163 -0.211949
-1.085079 0.529282 -0.213210
-1.087005 0.529386 -0.162901
-1.053770 0.528582 -0.162182
-0.987332 0.582605 -0.161214
-1.020603 0.582475 -0.161959
-1.020944 0.582429 -0.112179
-0.987330 0.582697 -0.111790
-0.987011 0.528660 -0.161188
-1.020281 0.528530 -0.161933
-1.020622 0.528483 -0.112153
-0.987009 0.528752 -0.111764
-1.020750 0.582472 -0.161715
-1.053640 0.582522 -0.161759
-1.054672 0.581699 -0.111973
-1.021092 0.582426 -0.111935
-1.020200 0.528531 -0.162178
-1.053090 0.528581 -0.162222
-1.054122 0.527758 -0.112437
-1.020541 0.528485 -0.112398
-1.052651 0.582512 -0.161599
-1.085886 0.583315 -0.162318
-1.087246 0.582749 -0.111996
-1.053683 0.581688 -0.111813
-1.054146 0.528592 -0.162383
-1.087380 0.529395 -0.163102
-1.088741 0.528830 -0.112780
-1.055177 0.527769 -0.112597
-0.987306 0.582692 -0.111192
-1.020920 0.582423 -0.111581
-1.021198 0.581539 -0.061803
-0.987559 0.581603 -0.061778
-0.987033 0.528757 -0.112263
-1.020646 0.528488 -0.112652
-1.020925 0.527604 -0.062875
-0.987286 0.527668 -0.062849
-1.021486 0.582414 -0.111584
-1.055067 0.581687 -0.111623
-1.055529 0.580586 -0.061795
-1.021764 0.581530 -0.061807
-1.020147 0.528496 -0.112649
-1.053728 0.527768 -0.112687
-1.054190 0.526667 -0.062859
-1.020426 0.527611 -0.062871
-1.053403 0.581677 -0.111671
-1.086966 0.582738 -0.111853
-1.087449 0.582075 -0.061515
-1.053865 0.580576 -0.061843
-1.055459 0.527779 -0.112639
-1.089023 0.528840 -0.112822
-1.089505 0.528177 -0.062484
-1.055921 0.526678 -0.062811
-0.987403 0.581603 -0.061764
-1.021042 0.581539 -0.061789
-1.020761 0.580548 -0.003019
-0.987473 0.580435 -0.003054
-0.987442 0.527666 -0.062754
-1.021081 0.527602 -0.062780
-1.020800 0.526611 -0.004010
-0.987513 0.526498 -0.004045
-1.021833 0.581529 -0.061836
-1.055597 0.580585 -0.061824
-1.054791 0.579649 -0.003041
-1.021551 0.580538 -0.003066
-1.020357 0.527611 -0.062733
-1.054122 0.526666 -0.062721
-1.053316 0.525730 -0.003938
-1.020076 0.526620 -0.003963
-1.053533 0.580563 -0.061951
-1.087117 0.582062 -0.061623
-1.085953 0.581496 -0.003099
-1.052727 0.579627 -0.003167
-1.056253 0.526689 -0.062595
-1.089837 0.528188 -0.062267
-1.088672 0.527622 -0.003743
-1.055447 0.525753 -0.003811
-1.070161 0.491915 -0.316703
-1.077254 0.491845 -0.266704
-1.100283 0.505806 -0.267188
-1.093819 0.505617 -0.317143
-1.042779 0.538251 -0.313044
-1.049872 0.538181 -0.263045
-1.072901 0.552141 -0.263529
-1.066437 0.551952 -0.313484
-1.078034 0.492269 -0.265815
-1.081341 0.491468 -0.215391
-1.104375 0.506843 -0.215807
-1.101063 0.506229 -0.266299
-1.049103 0.537758 -0.263833
-1.052410 0.536957 -0.213409
-1.075444 0.552332 -0.213825
-1.072132 0.551718 -0.264317
-1.082212 0.492035 -0.215109
-1.083454 0.490596 -0.164504
-1.107105 0.507527 -0.164888
-1.105246 0.507410 -0.215525
-1.051544 0.536390 -0.213590
-1.052786 0.534950 -0.162985
-1.076437 0.551882 -0.163369
-1.074578 0.551765 -0.214006
-1.084171 0.491114 -0.164644
-1.086911 0.490324 -0.114220
-1.110149 0.508162 -0.114461
-1.107821 0.508045 -0.165028
-1.052075 0.534431 -0.162744
-1.054815 0.533642 -0.112320
-1.078053 0.551479 -0.112562
-1.075725 0.551363 -0.163128
-1.086783 0.490213 -0.113714
-1.088934 0.491493 -0.063757
-1.114023 0.508992 -0.063658
