3.083262 1.110636 0.893884
3.065459 1.111221 0.865304
3.065377 1.110785 0.883533
3.081120 1.110631 0.898621
3.083599 0.982787 0.891461
3.065796 0.983372 0.862881
3.065714 0.982936 0.881110
3.081457 0.982782 0.896199
3.064904 1.111206 0.865801
3.047106 1.111841 0.837235
3.049056 1.110946 0.868938
3.064822 1.110770 0.884030
3.066318 0.983388 0.862340
3.048520 0.984023 0.833774
3.050470 0.983128 0.865478
3.066236 0.982952 0.880569
3.080269 1.110623 0.898606
3.064526 1.110777 0.883518
3.064421 1.110313 0.901742
3.078157 1.110627 0.903348
3.082306 0.982790 0.896237
3.066563 0.982943 0.881149
3.066458 0.982479 0.899373
3.080195 0.982793 0.900979
3.064346 1.110760 0.884109
3.048581 1.110936 0.869018
3.050532 1.110041 0.900723
3.064242 1.110296 0.902334
3.066713 0.982960 0.880540
3.050947 0.983136 0.865448
3.052899 0.982240 0.897154
3.066608 0.982496 0.898765
2.971924 0.947425 0.849346
2.976400 0.944935 0.875715
2.976538 0.964642 0.873880
2.971721 0.951233 0.844445
3.098114 0.942060 0.829382
3.102590 0.939569 0.855751
3.102728 0.959276 0.853916
3.097911 0.945867 0.824482
2.976411 0.943074 0.876108
2.980888 0.940582 0.902479
2.981366 0.976190 0.903707
2.976549 0.962781 0.874273
3.102588 0.941442 0.855415
3.107064 0.938951 0.881786
3.107542 0.974558 0.883014
3.102725 0.961149 0.853580
2.970851 0.924521 0.864127
2.972040 0.931265 0.872253
2.971087 0.945593 0.839498
2.971883 0.924670 0.839239
3.098711 0.922782 0.863865
3.099900 0.929526 0.871990
3.098947 0.943854 0.839236
3.099743 0.922931 0.838977
3.064327 0.880269 0.912498
3.049295 0.880620 0.912649
3.048251 0.873864 0.904381
3.062386 0.873528 0.904221
3.065796 0.979215 0.831512
3.050764 0.979566 0.831662
3.049719 0.972810 0.823394
3.063855 0.972474 0.823235
3.049102 0.880805 0.912870
3.035064 0.881103 0.912850
3.033875 0.874359 0.904725
3.048058 0.874049 0.904602
3.050929 0.979381 0.831441
3.036890 0.979679 0.831421
3.035702 0.972936 0.823296
3.049884 0.972625 0.823173
3.066418 0.858018 0.860557
3.060464 0.859397 0.869695
3.046329 0.859732 0.869855
3.064108 0.857755 0.853856
3.071741 0.985219 0.848603
3.065787 0.986597 0.857740
3.051652 0.986933 0.857900
3.069431 0.984956 0.841901
3.063832 0.857569 0.851117
3.046053 0.859546 0.867117
3.031870 0.859857 0.867239
3.061580 0.857681 0.844442
3.069691 0.985142 0.844632
3.051911 0.987119 0.860632
3.037729 0.987430 0.860754
3.067438 0.985254 0.837957
3.044136 0.882194 0.919983
3.036136 0.872847 0.899997
3.050174 0.872549 0.900016
3.058624 0.879821 0.914286
3.043827 0.997298 0.864286
3.035827 0.987951 0.844300
3.049865 0.987653 0.844320
3.058315 0.994926 0.858590
3.061900 0.881587 0.917486
3.053450 0.874314 0.903216
3.068482 0.873964 0.903065
3.076345 0.880485 0.911783
3.055069 0.993158 0.855385
3.046619 0.985885 0.841115
3.061651 0.985535 0.840964
3.069514 0.992056 0.849682
3.045443 0.875283 0.922366
3.039667 0.875992 0.894173
3.054156 0.873620 0.888477
3.080954 0.873999 0.919753
3.054096 1.002798 0.918336
3.048320 1.003508 0.890142
3.062809 1.001135 0.884446
3.089607 1.001514 0.915722
3.081808 0.874023 0.921455
3.055010 0.873644 0.890179
3.069455 0.872542 0.884476
3.117311 0.871899 0.918830
3.088803 1.001487 0.914012
3.062004 1.001108 0.882736
3.076450 1.000006 0.877034
3.124306 0.999362 0.911387
3.059377 0.857740 0.840599
3.029668 0.859916 0.863396
3.030699 0.860065 0.838508
3.069624 0.985195 0.841788
3.039914 0.987371 0.864585
3.040945 0.987520 0.839697
2.976933 0.968549 0.851480
2.977886 0.954221 0.884235
2.981409 0.966059 0.877850
3.093104 0.920915 0.827264
3.094057 0.906587 0.860019
3.097580 0.918425 0.853633
2.977889 0.954220 0.884254
2.985889 0.963567 0.904240
2.981412 0.966058 0.877869
3.094059 0.906584 0.860035
3.102059 0.915931 0.880020
3.097582 0.918423 0.853649
2.976238 1.038737 0.842063
2.975158 1.017207 0.842847
2.981072 1.024824 0.875547
2.982518 1.044423 0.875851
3.102041 1.030761 0.820586
3.100961 1.009231 0.821370
3.106875 1.016848 0.854070
3.108321 1.036447 0.854374
2.975179 1.018102 0.842597
2.973925 0.996625 0.845921
2.979647 1.006119 0.874992
2.981093 1.025719 0.875296
3.100937 1.008294 0.821623
3.099683 0.986818 0.824947
3.105406 0.996312 0.854018
3.106851 1.015911 0.854322
2.982815 1.042293 0.877961
2.981369 1.022694 0.877657
2.988991 1.030050 0.909904
2.989095 1.047979 0.911748
3.108037 1.038590 0.852330
3.106591 1.018991 0.852026
3.114213 1.026347 0.884273
3.114317 1.044276 0.886118
2.981473 1.028577 0.875831
2.980028 1.008978 0.875527
2.985722 1.018504 0.907099
2.989095 1.035933 0.908079
3.106484 1.013070 0.853850
3.105038 0.993470 0.853546
3.110732 1.002996 0.885118
3.114106 1.020426 0.886097
2.979491 1.006553 0.873769
2.978046 0.986953 0.873465
2.983229 0.998432 0.903987
2.985185 1.016078 0.905341
3.105570 0.995858 0.855302
3.104125 0.976259 0.854998
3.109307 0.987738 0.885521
3.111264 1.005384 0.886875
2.977911 0.986726 0.872633
2.976465 0.967126 0.872329
2.981282 0.980536 0.901763
2.983094 0.998204 0.903156
3.104257 0.976449 0.855828
3.102811 0.956849 0.855524
3.107628 0.970259 0.884958
3.109439 0.987927 0.886351
2.973889 0.995568 0.846148
2.972832 0.974031 0.846605
2.978167 0.985463 0.874914
2.979612 1.005062 0.875219
3.099716 0.987834 0.824722
3.098659 0.966296 0.825180
3.103993 0.977728 0.853489
3.105439 0.997328 0.853793
2.972632 0.973373 0.845598
2.971704 0.951796 0.844168
2.976521 0.965205 0.873603
2.977966 0.984805 0.873907
3.098857 0.966914 0.826186
3.097929 0.945337 0.824756
3.102746 0.958746 0.854191
3.104191 0.978346 0.854495
2.995840 1.081136 0.871475
2.993890 1.082031 0.839772
2.985232 1.068868 0.835606
2.991512 1.074554 0.869393
3.103662 1.012928 0.862916
3.101713 1.013823 0.831212
3.093054 1.000660 0.827046
3.099334 1.006347 0.860834
2.995840 1.081133 0.871505
2.991512 1.074551 0.869423
2.997792 1.080237 0.903211
3.103669 1.012935 0.862941
3.099341 1.006354 0.860859
3.105621 1.012040 0.894646
