3.997887 0.824940 0.582894
3.998715 0.824755 0.600311
4.016845 0.822161 0.599763
4.016687 0.822877 0.583169
3.993733 0.792043 0.582144
3.994561 0.791858 0.599561
4.012691 0.789264 0.599012
4.012533 0.789979 0.582419
3.999092 0.824705 0.600146
3.999898 0.824498 0.617145
4.017847 0.821709 0.616394
4.017222 0.822112 0.599597
3.994185 0.791906 0.599761
3.994991 0.791698 0.616760
4.012940 0.788909 0.616009
4.012315 0.789312 0.599212
3.999986 0.824485 0.617062
4.000808 0.824249 0.634477
4.018874 0.821463 0.633770
4.017935 0.821696 0.616311
3.994905 0.791710 0.616877
3.995726 0.791475 0.634292
4.013792 0.788688 0.633585
4.012854 0.788921 0.616126
4.000753 0.824258 0.634431
4.001505 0.824064 0.651828
4.019670 0.821361 0.651359
4.018819 0.821471 0.633723
3.995783 0.791466 0.634374
3.996534 0.791272 0.651771
4.014699 0.788569 0.651302
4.013848 0.788679 0.633666
4.001277 0.824089 0.651304
4.001161 0.824459 0.668736
4.019757 0.822112 0.669336
4.019443 0.821386 0.650835
3.996762 0.791247 0.652330
3.996646 0.791617 0.669762
4.015241 0.789270 0.670363
4.014927 0.788544 0.651861
4.000707 0.824520 0.668903
4.000579 0.824592 0.686345
4.019408 0.822871 0.686873
4.019302 0.822173 0.669504
3.997101 0.791557 0.669630
3.996973 0.791630 0.687072
4.015803 0.789908 0.687601
4.015696 0.789211 0.670231
3.999699 0.824669 0.686771
3.999546 0.823960 0.703835
4.018308 0.823583 0.703970
4.018529 0.822947 0.687300
3.997852 0.791554 0.686679
3.997699 0.790845 0.703743
4.016460 0.790468 0.703878
4.016681 0.789832 0.687208
4.016296 0.822895 0.583799
4.016454 0.822179 0.600392
4.034346 0.820096 0.599698
4.035088 0.821317 0.583603
4.012960 0.789957 0.581789
4.013118 0.789242 0.598382
4.031011 0.787159 0.597688
4.031753 0.788379 0.581593
4.016859 0.822156 0.599871
4.017484 0.821753 0.616668
4.035006 0.819414 0.615903
4.034752 0.820074 0.599177
4.012713 0.789263 0.598937
4.013338 0.788860 0.615734
4.030860 0.786520 0.614969
4.030606 0.787180 0.598243
4.017669 0.821735 0.616373
4.018607 0.821501 0.633832
4.036059 0.819050 0.633112
4.035190 0.819395 0.615608
4.013155 0.788878 0.616063
4.014094 0.788644 0.633521
4.031546 0.786193 0.632802
4.030677 0.786538 0.615298
4.018658 0.821495 0.633686
4.019509 0.821385 0.651322
4.036962 0.818933 0.650911
4.036110 0.819044 0.632966
4.014045 0.788650 0.633703
4.014896 0.788540 0.651338
4.032349 0.786088 0.650927
4.031497 0.786199 0.632983
4.019361 0.821386 0.650544
4.019675 0.822111 0.669046
4.037635 0.819922 0.669698
4.036814 0.818934 0.650133
4.015045 0.788540 0.652152
4.015359 0.789266 0.670654
4.033320 0.787076 0.671305
4.032498 0.786088 0.651741
4.019229 0.822153 0.668852
4.019335 0.822851 0.686222
4.037767 0.821335 0.686817
4.037189 0.819964 0.669504
4.015806 0.789226 0.670884
4.015912 0.789924 0.688253
4.034344 0.788408 0.688848
4.033767 0.787037 0.671535
4.018462 0.822904 0.686016
4.018241 0.823540 0.702685
4.038800 0.823134 0.702830
4.036894 0.821388 0.686611
4.016786 0.789873 0.688493
4.016565 0.790509 0.705163
4.037124 0.790102 0.705308
4.035218 0.788356 0.689088
4.033271 0.821397 0.583635
4.032529 0.820177 0.599730
4.051862 0.820661 0.598403
4.052101 0.821497 0.581856
4.033608 0.788297 0.581559
4.032866 0.787077 0.597654
4.052199 0.787561 0.596328
4.052438 0.788397 0.579780
4.032271 0.820193 0.599308
4.032525 0.819533 0.616034
4.052009 0.820135 0.614941
4.051604 0.820677 0.597981
4.033123 0.787059 0.598110
4.033377 0.786399 0.614836
4.052861 0.787001 0.613743
4.052456 0.787543 0.596783
4.032462 0.819538 0.615805
4.033331 0.819193 0.633310
4.052726 0.819787 0.632211
4.051946 0.820140 0.614713
4.033442 0.786393 0.615098
4.034311 0.786048 0.632602
4.053705 0.786642 0.631504
4.052926 0.786995 0.614006
4.033345 0.819196 0.633123
4.034197 0.819085 0.651068
4.053490 0.819624 0.649873
4.052740 0.819790 0.632025
4.034298 0.786045 0.632824
4.035150 0.785934 0.650769
4.054443 0.786473 0.649574
4.053693 0.786638 0.631726
4.034346 0.819077 0.650286
4.035168 0.820066 0.669850
4.054234 0.820169 0.668032
4.053639 0.819616 0.649092
4.035003 0.785943 0.651587
4.035824 0.786931 0.671152
4.054891 0.787034 0.669333
4.054296 0.786482 0.650393
4.035433 0.820042 0.669361
4.036010 0.821413 0.686674
4.054796 0.821193 0.684744
4.054500 0.820145 0.667543
4.035560 0.786956 0.671677
4.036137 0.788327 0.688990
4.054923 0.788107 0.687059
4.054627 0.787059 0.669858
4.036198 0.821370 0.686176
4.038104 0.823116 0.702396
4.056211 0.822714 0.700909
4.054984 0.821150 0.684246
4.035952 0.788373 0.689521
4.037857 0.790119 0.705741
4.055965 0.789717 0.704253
4.054737 0.788153 0.687591
4.052113 0.821518 0.581445
4.051873 0.820681 0.597992
4.071070 0.821142 0.596678
4.070943 0.821578 0.579666
4.052465 0.788377 0.580189
4.052225 0.787540 0.596736
4.071422 0.788000 0.595422
4.071294 0.788437 0.578410
4.051623 0.820682 0.597851
4.052029 0.820140 0.614811
4.071260 0.820735 0.613732
4.070820 0.821142 0.596537
4.052475 0.787539 0.596910
4.052881 0.786997 0.613870
4.072112 0.787593 0.612791
4.071672 0.787999 0.595596
4.051962 0.820140 0.614714
4.052742 0.819787 0.632213
4.071808 0.820378 0.631122
4.071193 0.820736 0.613635
4.052949 0.786996 0.614002
4.053728 0.786643 0.631500
4.072794 0.787234 0.630410
4.072180 0.787591 0.612922
4.052767 0.819790 0.632084
4.053518 0.819625 0.649932
4.072402 0.820135 0.648692
4.071834 0.820381 0.630993
4.053704 0.786639 0.631664
4.054454 0.786474 0.649513
4.073338 0.786984 0.648272
4.072770 0.787230 0.630574
4.053701 0.819628 0.649448
4.054297 0.820180 0.668388
4.072995 0.820259 0.666441
4.072585 0.820138 0.648207
4.054271 0.786471 0.650034
4.054867 0.787023 0.668974
4.073565 0.787103 0.667027
4.073155 0.786981 0.648793
4.054517 0.820161 0.667799
4.054813 0.821209 0.685000
4.073442 0.821065 0.683068
4.073216 0.820241 0.665852
4.054647 0.787043 0.669599
4.054943 0.788091 0.686799
4.073572 0.787947 0.684868
4.073346 0.787123 0.667652
4.055002 0.821175 0.684514
4.056229 0.822739 0.701177
4.074337 0.822318 0.699686
4.073631 0.821031 0.682583
4.054756 0.788128 0.687319
4.055983 0.789692 0.703982
4.074090 0.789271 0.702491
4.073385 0.787984 0.685387
4.070885 0.821588 0.579291
4.071012 0.821151 0.596303
4.090215 0.821640 0.594998
4.089717 0.821725 0.577513
4.071390 0.788429 0.578781
4.071517 0.787992 0.595793
4.090720 0.788481 0.594488
4.090222 0.788566 0.577003
4.070812 0.821145 0.596409
4.071253 0.820738 0.613603
4.090478 0.821348 0.612515
4.090015 0.821634 0.595104
4.071718 0.787997 0.595722
4.072158 0.787591 0.612917
4.091383 0.788201 0.611829
4.090920 0.788487 0.594417
4.071205 0.820736 0.613638
4.071819 0.820379 0.631126
4.090875 0.820974 0.630034
4.090430 0.821346 0.612550
4.072207 0.787592 0.612916
4.072821 0.787235 0.630404
4.091878 0.787830 0.629312
4.091432 0.788202 0.611828
4.071869 0.820381 0.631081
4.072437 0.820134 0.648780
4.091308 0.820615 0.647460
4.090926 0.820976 0.629989
4.072772 0.787232 0.630483
4.073340 0.786985 0.648182
4.092211 0.787466 0.646862
4.091828 0.787827 0.629391
4.072664 0.820141 0.648590
4.073074 0.820263 0.666825
4.091751 0.820310 0.664761
4.091535 0.820622 0.647271
4.073114 0.786978 0.648406
4.073524 0.787100 0.666641
4.092200 0.787147 0.664576
4.091984 0.787458 0.647087
4.073285 0.820251 0.666069
4.073512 0.821075 0.683285
4.092149 0.820901 0.681473
4.091962 0.820298 0.664005
4.073314 0.787112 0.667432
4.073540 0.787937 0.684647
4.092178 0.787762 0.682836
4.091990 0.787159 0.665368
4.073685 0.821051 0.682855
4.074391 0.822338 0.699959
4.092497 0.821935 0.698472
4.092323 0.820876 0.681043
4.073367 0.787963 0.685111
4.074073 0.789250 0.702215
4.092179 0.788847 0.700728
4.092005 0.787788 0.683300
3.995621 0.824251 0.566385
3.996947 0.825036 0.582395
4.015746 0.822972 0.582670
4.014155 0.823741 0.565180
3.993346 0.791163 0.566598
3.994672 0.791948 0.582609
4.013471 0.789884 0.582884
4.011880 0.790653 0.565394
4.013662 0.823700 0.566789
4.015253 0.822931 0.584279
4.034045 0.821353 0.584084
4.032839 0.823979 0.565446
4.012411 0.790693 0.563784
4.014002 0.789924 0.581274
4.032795 0.788346 0.581078
4.031589 0.790973 0.562440
4.032822 0.823954 0.565712
4.034028 0.821327 0.584350
4.052858 0.821427 0.582571
4.051955 0.822799 0.564676
4.031644 0.790997 0.562172
4.032850 0.788371 0.580810
4.051681 0.788470 0.579031
4.050777 0.789843 0.561136
4.051862 0.822880 0.563668
4.052766 0.821507 0.581563
4.071595 0.821567 0.579785
4.071002 0.821856 0.562611
4.050908 0.789762 0.562141
4.051811 0.788389 0.580035
4.070641 0.788450 0.578257
4.070047 0.788738 0.561083
4.070780 0.821877 0.561709
4.071374 0.821589 0.578883
4.090206 0.821726 0.577105
4.089939 0.821174 0.560597
4.070307 0.788715 0.561981
4.070900 0.788427 0.579155
4.089733 0.788564 0.577377
4.089465 0.788012 0.560869
4.086758 0.822366 0.531945
4.068044 0.823329 0.532472
4.069695 0.822586 0.547472
4.088633 0.821762 0.546652
4.085140 0.789264 0.530637
4.066426 0.790228 0.531163
4.068077 0.789485 0.546163
4.087015 0.788661 0.545343
4.068027 0.823324 0.532623
4.049312 0.824283 0.533149
4.050740 0.823401 0.548445
4.069678 0.822580 0.547624
4.066405 0.790236 0.531013
4.047691 0.791195 0.531539
4.049118 0.790313 0.546834
4.068057 0.789492 0.546013
4.049298 0.824276 0.533297
4.030583 0.825237 0.533824
4.031787 0.824211 0.549412
4.050725 0.823393 0.548592
4.047667 0.791204 0.531392
4.028953 0.792165 0.531919
4.030157 0.791139 0.547508
4.049095 0.790322 0.546688
4.030059 0.825254 0.533839
4.011407 0.825425 0.535296
4.012376 0.824597 0.550759
4.031263 0.824228 0.549428
4.029439 0.792149 0.531906
4.010787 0.792320 0.533363
4.011755 0.791493 0.548826
4.030643 0.791123 0.547495
4.011260 0.825438 0.535083
3.992586 0.825452 0.536739
3.993624 0.824865 0.551974
4.012228 0.824611 0.550546
4.010897 0.792308 0.533579
3.992223 0.792322 0.535235
3.993261 0.791734 0.550470
4.011865 0.791480 0.549042
4.088523 0.821766 0.546685
4.069586 0.822590 0.547505
4.071240 0.821852 0.562502
4.090399 0.821148 0.561390
4.087128 0.788656 0.545339
4.068190 0.789480 0.546160
4.069845 0.788742 0.561157
4.089003 0.788038 0.560045
4.069701 0.822587 0.547445
4.050762 0.823407 0.548266
4.052216 0.822873 0.563499
4.071355 0.821849 0.562442
4.068037 0.789484 0.546222
4.049099 0.790305 0.547043
4.050552 0.789770 0.562277
4.069692 0.788746 0.561219
4.050784 0.823414 0.547973
4.031846 0.824232 0.548793
4.033104 0.824034 0.564243
4.052238 0.822880 0.563207
4.049039 0.790299 0.547337
4.030100 0.791117 0.548158
4.031359 0.790919 0.563607
4.050492 0.789765 0.562571
4.031032 0.824249 0.549031
4.012145 0.824618 0.550362
4.013113 0.823771 0.565824
4.032291 0.824051 0.564480
4.030876 0.791101 0.547922
4.011989 0.791470 0.549253
4.012957 0.790623 0.564715
4.032134 0.790903 0.563372
4.012442 0.824606 0.550559
3.993837 0.824860 0.551988
3.994876 0.824269 0.567225
4.013410 0.823759 0.566021
4.011654 0.791483 0.549059
3.993050 0.791737 0.550488
3.994088 0.791146 0.565725
4.012623 0.790636 0.564521
3.994285 0.831252 0.539851
3.993451 0.818670 0.549329
4.012125 0.818656 0.547673
4.012413 0.830365 0.539280
3.992192 0.811699 0.513142
3.991357 0.799117 0.522620
4.010031 0.799103 0.520965
4.010319 0.810812 0.512572
4.012416 0.830093 0.539475
4.012128 0.818384 0.547868
4.030780 0.818212 0.546411
4.030779 0.829198 0.538862
4.010353 0.811084 0.512375
4.010065 0.799374 0.520768
4.028717 0.799203 0.519311
4.028716 0.810189 0.511762
4.030694 0.829139 0.538910
4.030695 0.818153 0.546458
4.049410 0.817192 0.545931
4.048818 0.828296 0.538175
4.028838 0.810246 0.511713
4.028839 0.799260 0.519262
4.047554 0.798299 0.518735
4.046962 0.809403 0.510978
4.048842 0.828435 0.538076
4.049434 0.817331 0.545833
4.068148 0.816371 0.545307
4.066965 0.827585 0.537339
4.046975 0.809263 0.511076
4.047567 0.798159 0.518833
4.066281 0.797200 0.518306
4.065098 0.808414 0.510339
4.066986 0.827719 0.537241
4.068170 0.816505 0.545209
4.086884 0.815542 0.544683
4.085110 0.826873 0.536506
4.065113 0.808278 0.510435
4.066296 0.797064 0.518403
4.085011 0.796101 0.517877
4.083237 0.807432 0.509700
3.992174 0.840120 0.505478
3.993154 0.839048 0.516714
4.011265 0.838133 0.516109
4.010265 0.839176 0.504845
3.990379 0.807133 0.502535
3.991359 0.806061 0.513771
4.009470 0.805146 0.513166
4.008471 0.806189 0.501902
4.010265 0.839179 0.504804
4.011264 0.838137 0.516068
4.029540 0.837233 0.515409
4.028459 0.838260 0.504098
4.008508 0.806183 0.501941
4.009507 0.805141 0.513205
4.027783 0.804237 0.512546
4.026702 0.805264 0.501235
4.028412 0.838263 0.504096
4.029493 0.837235 0.515408
4.047596 0.836413 0.514519
4.046493 0.837468 0.503057
4.026785 0.805260 0.501235
4.027865 0.804232 0.512546
4.045968 0.803410 0.511657
4.044865 0.804465 0.500195
4.046515 0.837465 0.503071
4.047619 0.836410 0.514533
4.065721 0.835586 0.513646
4.064594 0.836664 0.502028
4.044878 0.804465 0.500179
4.045981 0.803410 0.511641
4.064083 0.802586 0.510754
4.062957 0.803664 0.499136
4.064604 0.836662 0.502047
4.065731 0.835584 0.513665
4.083833 0.834764 0.512776
4.082685 0.835875 0.501007
4.062984 0.803665 0.499116
4.064110 0.802586 0.510734
4.082212 0.801767 0.509845
4.081064 0.802878 0.498076
3.993125 0.839048 0.516727
3.994106 0.837977 0.527960
4.012233 0.837090 0.527390
4.011236 0.838134 0.516123
3.991390 0.806058 0.513779
3.992371 0.804987 0.525012
4.010498 0.804100 0.524442
4.009501 0.805144 0.513175
4.011247 0.838136 0.516086
4.012244 0.837093 0.527354
4.030607 0.836198 0.526741
4.029522 0.837232 0.515427
4.009527 0.805139 0.513210
4.010524 0.804096 0.524477
4.028887 0.803201 0.523864
4.027802 0.804235 0.512551
4.029503 0.837234 0.515422
4.030588 0.836200 0.526735
4.048712 0.835357 0.526000
4.047606 0.836411 0.514533
4.027858 0.804232 0.512555
4.028942 0.803198 0.523868
4.047066 0.802355 0.523134
4.045960 0.803409 0.511666
4.047628 0.836409 0.514544
4.048734 0.835355 0.526011
4.066858 0.834505 0.525274
4.065730 0.835584 0.513656
4.045974 0.803410 0.511654
4.047080 0.802356 0.523122
4.065203 0.801506 0.522385
4.064076 0.802585 0.510767
4.065745 0.835582 0.513672
4.066873 0.834503 0.525290
4.084996 0.833657 0.524554
4.083848 0.834763 0.512784
4.064097 0.802586 0.510750
4.065224 0.801507 0.522367
4.083348 0.800660 0.521632
4.082199 0.801766 0.509861
3.964554 0.839528 0.529858
3.979371 0.838748 0.528953
3.978136 0.839899 0.517378
3.963064 0.840758 0.517948
3.962593 0.806566 0.526743
3.977410 0.805786 0.525838
3.976175 0.806937 0.514263
3.961103 0.807796 0.514833
3.963102 0.840756 0.517942
3.978174 0.839897 0.517372
3.976938 0.841052 0.505802
3.961613 0.841999 0.506029
3.961062 0.807800 0.514815
3.976134 0.806941 0.514246
3.974898 0.808096 0.502675
3.959573 0.809043 0.502903
3.979388 0.838751 0.528906
3.994204 0.837968 0.527998
3.993224 0.839039 0.516765
3.978153 0.839903 0.517331
3.977423 0.805781 0.525884
3.992239 0.804998 0.524976
3.991258 0.806069 0.513743
3.976187 0.806932 0.514309
3.978189 0.839901 0.517319
3.993260 0.839038 0.516753
3.992280 0.840111 0.505517
3.976954 0.841056 0.505748
3.976149 0.806936 0.514298
3.991220 0.806072 0.513732
3.990239 0.807145 0.502497
3.974913 0.808090 0.502728
3.993589 0.825423 0.536346
3.980104 0.826190 0.537792
3.980493 0.826052 0.551227
3.994628 0.824836 0.551582
3.991187 0.792352 0.535629
3.977702 0.793118 0.537075
3.978090 0.792981 0.550511
3.992225 0.791764 0.550865
3.980077 0.826195 0.537319
3.966592 0.826971 0.538770
3.966332 0.827273 0.550399
3.980466 0.826058 0.550755
3.977701 0.793114 0.537549
3.964216 0.793890 0.538999
3.963956 0.794192 0.550629
3.978089 0.792977 0.550985
3.995041 0.824801 0.551581
3.980906 0.826017 0.551227
3.981295 0.825873 0.564660
3.996079 0.824209 0.566818
3.991814 0.791798 0.550895
3.977679 0.793015 0.550540
3.978068 0.792870 0.563974
3.992852 0.791207 0.566132
3.980929 0.826018 0.550770
3.966796 0.827233 0.550414
3.966534 0.827535 0.562046
3.981319 0.825873 0.564204
3.977626 0.793017 0.550994
3.963493 0.794232 0.550638
3.963231 0.794534 0.562270
3.978016 0.792872 0.564428
3.994026 0.818982 0.549035
3.994861 0.831564 0.539557
3.980044 0.832348 0.540465
3.980541 0.819748 0.550481
3.990749 0.798806 0.522916
3.991584 0.811388 0.513438
3.976767 0.812171 0.514346
3.977264 0.799572 0.524362
3.980525 0.820188 0.550131
3.980028 0.832788 0.540115
3.965212 0.833567 0.541020
3.967040 0.820965 0.551581
3.977252 0.799133 0.524714
3.976755 0.811732 0.514698
3.961939 0.812512 0.515603
3.963767 0.799910 0.526165
3.963502 0.841816 0.505457
3.958250 0.842372 0.507637
3.958722 0.841883 0.518458
3.964991 0.840574 0.517369
3.957663 0.809227 0.503478
3.952412 0.809784 0.505658
3.952884 0.809294 0.516479
3.959152 0.807985 0.515390
3.966146 0.840331 0.517238
3.959877 0.841641 0.518326
3.960354 0.841173 0.529153
3.967636 0.839101 0.529147
3.957999 0.808225 0.515545
3.951730 0.809534 0.516633
3.952207 0.809067 0.527460
3.959490 0.806995 0.527455
3.978487 0.820500 0.562532
3.978749 0.820198 0.550901
3.967778 0.836623 0.544952
3.965644 0.838663 0.561187
3.951251 0.801588 0.561779
3.951513 0.801286 0.550147
3.940542 0.817712 0.544199
3.938408 0.819751 0.560434
3.978960 0.819886 0.550918
3.979220 0.819584 0.539289
3.970109 0.834259 0.528733
3.967989 0.836311 0.544970
3.951305 0.801596 0.550102
3.951564 0.801294 0.538473
3.942454 0.815968 0.527916
3.940334 0.818021 0.544154
3.959344 0.835842 0.540586
3.968454 0.821168 0.551143
3.966626 0.833770 0.540581
3.953222 0.814387 0.516045
3.962332 0.799713 0.526602
3.960504 0.812316 0.516040
3.978282 0.820305 0.559110
3.965439 0.838468 0.557764
3.971179 0.834012 0.569455
3.951454 0.801787 0.565223
3.938611 0.819950 0.563878
3.944351 0.815494 0.575569
3.998174 0.820089 0.556092
3.983390 0.821752 0.553934
3.974987 0.836098 0.566863
3.988474 0.835074 0.571603
3.990748 0.795341 0.576887
3.975964 0.797005 0.574729
3.967561 0.811350 0.587658
3.981048 0.810327 0.592398
3.983515 0.820887 0.553025
3.968730 0.822549 0.550867
3.961626 0.836256 0.561213
3.975112 0.835232 0.565954
3.975812 0.797873 0.575631
3.961027 0.799535 0.573474
3.953923 0.813242 0.583819
3.967409 0.812218 0.588560
3.997836 0.832788 0.580428
4.008862 0.818587 0.580929
4.007536 0.817802 0.564918
3.971704 0.812608 0.583581
3.982731 0.798407 0.584081
3.981405 0.797622 0.568070
4.008974 0.818545 0.581865
3.997947 0.832745 0.581365
3.999021 0.832656 0.598046
4.009802 0.818360 0.599282
3.982617 0.798454 0.583173
3.971590 0.812655 0.582673
3.972664 0.812565 0.599354
3.983445 0.798269 0.600590
4.009898 0.818240 0.599413
3.999118 0.832536 0.598177
3.999900 0.832456 0.614941
4.010704 0.818032 0.616412
3.983350 0.798389 0.600493
3.972570 0.812684 0.599257
3.973352 0.812604 0.616020
3.984157 0.798181 0.617492
4.010676 0.818077 0.616555
3.999871 0.832501 0.615084
4.000349 0.832427 0.631793
4.011497 0.817841 0.633970
3.984187 0.798135 0.617383
3.973382 0.812559 0.615911
3.973860 0.812486 0.632621
3.985008 0.797900 0.634798
4.011419 0.817946 0.634005
4.000271 0.832532 0.631828
4.000749 0.832460 0.648535
4.012170 0.817752 0.651402
3.985087 0.797795 0.634798
3.973939 0.812381 0.632621
3.974417 0.812310 0.649327
3.985839 0.797601 0.652195
4.012213 0.817701 0.651540
4.000791 0.832409 0.648672
4.001461 0.832252 0.665475
4.012097 0.818071 0.668972
3.985797 0.797653 0.652091
3.974375 0.812361 0.649224
3.975044 0.812204 0.666026
3.985681 0.798023 0.669523
4.012311 0.817785 0.669090
4.001675 0.831966 0.665593
4.002347 0.831756 0.682297
4.012183 0.817857 0.686531
3.985467 0.798309 0.669439
3.974831 0.812490 0.665942
3.975503 0.812280 0.682646
3.985339 0.798381 0.686881
4.012138 0.817900 0.687350
4.002302 0.831799 0.683115
4.002223 0.830665 0.699763
4.011985 0.817191 0.704413
3.985385 0.798337 0.686096
3.975548 0.812236 0.681861
3.975469 0.811102 0.698509
3.985231 0.797628 0.703160
3.997781 0.820501 0.737437
3.992366 0.820026 0.722723
3.980959 0.834401 0.724192
3.981430 0.835058 0.750445
3.975020 0.796698 0.741365
3.969605 0.796223 0.726650
3.958198 0.810599 0.728119
3.958669 0.811255 0.754373
3.992312 0.816955 0.732965
4.001116 0.816592 0.722535
3.990531 0.830530 0.720945
3.980905 0.831330 0.734434
3.969666 0.799293 0.716375
3.978469 0.798930 0.705945
3.967884 0.812868 0.704355
3.958258 0.813668 0.717844
4.000617 0.817576 0.722082
4.009418 0.817226 0.711655
3.999656 0.830699 0.707005
3.990032 0.831514 0.720493
3.978987 0.797944 0.706373
3.987788 0.797594 0.695946
3.978026 0.811067 0.691296
3.968402 0.811882 0.704784
4.077508 0.816074 0.577456
4.078006 0.815990 0.594941
4.087862 0.827599 0.593896
4.087454 0.827161 0.574139
4.102460 0.794228 0.577057
4.102958 0.794143 0.594541
4.112814 0.805752 0.593496
4.112406 0.805315 0.573739
4.077848 0.815797 0.595245
4.078310 0.815511 0.612656
4.088472 0.827459 0.614009
4.087703 0.827405 0.594200
4.103117 0.794336 0.594275
4.103580 0.794051 0.611687
4.113742 0.805999 0.613039
4.112973 0.805945 0.593230
4.078332 0.815529 0.612802
4.078778 0.815157 0.630286
4.089428 0.827349 0.633897
4.088494 0.827478 0.614155
4.103559 0.794032 0.611578
4.104005 0.793660 0.629061
4.114655 0.805851 0.632672
4.113721 0.805980 0.612930
4.078844 0.815238 0.630205
4.079226 0.814877 0.647676
4.090015 0.827071 0.653651
4.089494 0.827430 0.633816
4.103940 0.793578 0.629179
4.104322 0.793216 0.646650
4.115111 0.805411 0.652626
4.114590 0.805769 0.632790
4.079261 0.814924 0.647506
4.079477 0.814612 0.664995
4.090307 0.826863 0.673278
4.090050 0.827118 0.653481
4.104288 0.793169 0.646857
4.104503 0.792857 0.664347
4.115334 0.805108 0.672630
4.115076 0.805363 0.652833
4.079702 0.814870 0.664572
4.079890 0.815472 0.682040
4.091107 0.827752 0.692606
4.090532 0.827121 0.672855
4.104279 0.792600 0.664807
4.104467 0.793202 0.682275
4.115684 0.805482 0.692841
4.115110 0.804851 0.673090
4.080275 0.815881 0.681896
4.080450 0.816940 0.699325
4.092062 0.828764 0.711938
4.091493 0.828161 0.692462
4.104082 0.792795 0.682456
4.104256 0.793854 0.699885
4.115869 0.805678 0.712498
4.115299 0.805075 0.693022
4.103438 0.829460 0.701049
4.091825 0.817636 0.688436
4.073719 0.818039 0.689923
4.081236 0.830177 0.702655
4.104473 0.804984 0.723407
4.092861 0.793160 0.710794
4.074755 0.793563 0.712281
4.082272 0.805701 0.725014
4.081193 0.830014 0.702482
4.073676 0.817877 0.689749
4.055569 0.818297 0.691240
4.058992 0.830704 0.704091
4.082274 0.805864 0.725190
4.074757 0.793726 0.712457
4.056650 0.794147 0.713948
4.060073 0.806553 0.726798
4.058959 0.830535 0.703916
4.055536 0.818129 0.691065
4.037429 0.818530 0.692553
4.036757 0.831254 0.705520
4.060065 0.806723 0.726976
4.056642 0.794316 0.714126
4.038535 0.794718 0.715613
4.037864 0.807442 0.728580
4.029467 0.816558 0.693886
4.015674 0.817057 0.705880
4.015868 0.830000 0.718296
4.028796 0.829282 0.706853
4.046463 0.796692 0.714294
4.032670 0.797190 0.726288
4.032864 0.810133 0.738705
4.045792 0.809416 0.727261
4.015645 0.817025 0.705872
4.001848 0.817501 0.717866
4.002911 0.830709 0.729728
4.015839 0.829968 0.718289
4.032671 0.797224 0.726319
4.018874 0.797700 0.738313
4.019937 0.810908 0.750175
4.032865 0.810167 0.738736
4.001817 0.817467 0.717860
3.988023 0.817964 0.729852
3.989951 0.831397 0.741164
4.002879 0.830675 0.729722
4.018879 0.797735 0.738343
4.005085 0.798232 0.750335
4.007013 0.811665 0.761647
4.019942 0.810943 0.750205
3.998971 0.832551 0.739028
3.997042 0.819118 0.727717
3.986916 0.819618 0.727028
3.970566 0.834175 0.740037
3.997961 0.810513 0.763794
3.996033 0.797080 0.752482
3.985906 0.797580 0.751794
3.969556 0.812137 0.764802
3.999382 0.837881 0.748755
3.970977 0.839506 0.749763
3.963643 0.841524 0.758723
4.000131 0.839467 0.759595
3.997539 0.805198 0.754089
3.969134 0.806823 0.755098
3.961800 0.808841 0.764057
3.998288 0.806783 0.764930
4.104523 0.833802 0.712292
4.101452 0.833936 0.730749
4.118830 0.833284 0.727593
4.119967 0.833391 0.709681
4.103432 0.800653 0.712191
4.100361 0.800787 0.730649
4.117739 0.800136 0.727493
4.118876 0.800242 0.709580
4.101553 0.833932 0.730835
4.098480 0.833927 0.749294
4.117791 0.833191 0.745591
4.118931 0.833280 0.727679
4.100256 0.800791 0.730599
4.097182 0.800786 0.749057
4.116493 0.800050 0.745354
4.117633 0.800140 0.727443
4.098569 0.833923 0.749102
4.095510 0.834310 0.767560
4.116747 0.833190 0.763313
4.117880 0.833187 0.745398
4.097089 0.800790 0.749286
4.094030 0.801177 0.767744
4.115266 0.800057 0.763497
4.116400 0.800054 0.745583
4.095479 0.834118 0.765138
4.101470 0.836474 0.779109
4.119758 0.834690 0.775632
4.116716 0.832999 0.760891
4.094063 0.801371 0.770199
4.100054 0.803726 0.784171
4.118343 0.801943 0.780693
4.115300 0.800251 0.765952
4.119998 0.833389 0.709775
4.118861 0.833283 0.727687
4.136049 0.832716 0.724488
4.135442 0.832904 0.707163
4.118878 0.800242 0.709481
4.117741 0.800136 0.727393
4.134929 0.799570 0.724195
4.134322 0.799758 0.706870
4.118981 0.833277 0.727774
4.117841 0.833188 0.745686
4.136772 0.832362 0.741901
4.136170 0.832711 0.724576
4.117620 0.800141 0.727341
4.116480 0.800052 0.745252
4.135410 0.799226 0.741468
4.134808 0.799575 0.724143
4.117970 0.833183 0.745602
4.116837 0.833186 0.763517
4.137507 0.832133 0.759143
4.136901 0.832357 0.741818
4.116350 0.800056 0.745371
4.115217 0.800060 0.763285
4.135887 0.799006 0.758911
4.135281 0.799230 0.741587
4.117007 0.833113 0.761953
4.120050 0.834805 0.776694
4.138305 0.833002 0.774956
4.137677 0.832060 0.757580
4.115047 0.800134 0.764882
4.118090 0.801826 0.779623
4.136345 0.800023 0.777885
4.135718 0.799081 0.760508
3.985935 0.839249 0.582074
3.972449 0.840272 0.577334
3.967644 0.840507 0.595517
3.987009 0.839159 0.598755
3.983576 0.806167 0.581958
3.970089 0.807190 0.577219
3.965285 0.807424 0.595402
3.984650 0.806077 0.598640
3.986962 0.839163 0.598753
3.967597 0.840510 0.595515
3.963485 0.840738 0.613558
3.987744 0.839083 0.615517
3.984693 0.806074 0.598677
3.965328 0.807421 0.595439
3.961216 0.807649 0.613482
3.985475 0.805994 0.615441
3.987796 0.839079 0.615454
3.963537 0.840735 0.613496
3.962456 0.840937 0.631020
3.988274 0.839005 0.632164
3.985421 0.805997 0.615537
3.961162 0.807653 0.613579
3.960081 0.807856 0.631103
3.985899 0.805924 0.632247
3.988976 0.838917 0.649005
3.964076 0.840978 0.654975
3.968922 0.840558 0.669424
3.989645 0.838759 0.665808
3.986157 0.805870 0.648892
3.961256 0.807931 0.654862
3.966103 0.807511 0.669311
3.986826 0.805713 0.665695
3.989748 0.838750 0.665834
3.969025 0.840548 0.669449
3.974057 0.840108 0.684941
3.990420 0.838540 0.682537
3.986729 0.805721 0.665701
3.966005 0.807520 0.669317
3.971038 0.807079 0.684808
3.987401 0.805511 0.682405
3.990835 0.838471 0.683408
3.974473 0.840039 0.685811
3.976649 0.839086 0.702057
3.990756 0.837337 0.700056
3.986989 0.805579 0.681567
3.970626 0.807147 0.683970
3.972803 0.806194 0.700216
3.986910 0.804445 0.698215
3.972425 0.840274 0.577398
3.958939 0.841297 0.572657
3.947596 0.841920 0.592394
3.967620 0.840508 0.595581
3.970080 0.807191 0.577147
3.956594 0.808215 0.572405
3.945251 0.808837 0.592142
3.965275 0.807425 0.595330
3.967558 0.840512 0.595559
3.947534 0.841924 0.592371
3.936189 0.842548 0.612107
3.963445 0.840741 0.613602
3.965322 0.807421 0.595390
3.945298 0.808833 0.592202
3.933953 0.809457 0.611938
3.961209 0.807650 0.613433
3.963482 0.840737 0.613337
3.936226 0.842544 0.611842
3.935447 0.842957 0.634422
3.962402 0.840940 0.630862
3.961164 0.807654 0.613737
3.933907 0.809461 0.612242
3.933128 0.809874 0.634822
3.960083 0.807857 0.631262
3.968975 0.840553 0.669302
3.948067 0.842368 0.671900
3.960422 0.841405 0.686423
3.974008 0.840112 0.684793
3.966019 0.807518 0.669470
3.945111 0.809334 0.672068
3.957467 0.808371 0.686591
3.971052 0.807078 0.684961
3.974405 0.840064 0.685407
3.960819 0.841357 0.687037
3.962472 0.840849 0.703657
3.976581 0.839111 0.701653
3.970666 0.807125 0.684379
3.957080 0.808417 0.686009
3.958734 0.807909 0.702628
3.972842 0.806172 0.700625
3.975180 0.832250 0.702541
3.973527 0.832758 0.685922
3.967954 0.844476 0.687228
3.972272 0.836409 0.703199
3.946008 0.816517 0.703746
3.944354 0.817025 0.687127
3.938781 0.828743 0.688433
3.943099 0.820676 0.704404
3.970479 0.831840 0.676842
3.958124 0.832803 0.662319
3.950147 0.846009 0.662734
3.964906 0.843558 0.678149
3.947386 0.817950 0.696175
3.935030 0.818913 0.681652
3.927053 0.832119 0.682067
3.941813 0.829667 0.697481
3.947188 0.836819 0.634489
3.947967 0.836406 0.611909
3.934956 0.851751 0.613378
3.935815 0.851809 0.635095
3.921348 0.816029 0.634757
3.922127 0.815616 0.612176
3.909116 0.830960 0.613645
3.909974 0.831018 0.635362
3.946527 0.836900 0.616997
3.957871 0.836277 0.597261
3.948495 0.846181 0.592149
3.933515 0.852245 0.618465
3.923581 0.815118 0.607044
3.934925 0.814495 0.587308
3.925550 0.824399 0.582196
3.910569 0.830463 0.608512
3.955550 0.838829 0.595531
3.966894 0.838206 0.575795
3.961154 0.842662 0.564103
3.946175 0.848732 0.590419
3.937272 0.811936 0.588992
3.948616 0.811314 0.569255
3.942876 0.815770 0.557564
3.927897 0.821840 0.583880
3.964089 0.841120 0.730068
3.972977 0.838736 0.726323
3.973431 0.839325 0.715057
3.963920 0.840791 0.712809
3.957269 0.808664 0.729704
3.966156 0.806280 0.725958
3.966611 0.806869 0.714693
3.957100 0.808335 0.712445
3.962740 0.840996 0.712620
3.972250 0.839530 0.714868
3.976940 0.839075 0.701159
3.962831 0.840812 0.703163
3.958283 0.808130 0.712607
3.967794 0.806664 0.714855
3.972483 0.806209 0.701146
3.958374 0.807946 0.703150
3.972327 0.839514 0.715301
3.981499 0.838124 0.713078
3.991124 0.837309 0.699590
3.977017 0.839058 0.701592
3.967740 0.806677 0.714421
3.976913 0.805288 0.712197
3.986537 0.804473 0.698710
3.972430 0.806222 0.700712
3.974060 0.839248 0.751978
3.973588 0.838591 0.725724
3.964700 0.840975 0.729470
3.966725 0.841265 0.760938
3.966018 0.807082 0.752854
3.965546 0.806426 0.726600
3.956659 0.808809 0.730346
3.958683 0.809100 0.761814
3.972282 0.838839 0.727101
3.981908 0.838039 0.713612
3.972736 0.839428 0.715835
3.966867 0.806174 0.725174
3.976493 0.805374 0.711685
3.967321 0.806763 0.713909
4.095531 0.834308 0.767469
4.098590 0.833922 0.749011
4.081201 0.834769 0.748190
4.079673 0.834993 0.765306
4.093972 0.801180 0.767837
4.097031 0.800794 0.749379
4.079642 0.801640 0.748558
4.078113 0.801865 0.765674
4.079737 0.834990 0.765281
4.081266 0.834765 0.748165
4.064051 0.835584 0.747689
4.063885 0.835856 0.763120
4.078016 0.801870 0.765696
4.079544 0.801646 0.748580
4.062330 0.802465 0.748104
4.062164 0.802736 0.763535
4.064028 0.835844 0.762932
4.064194 0.835573 0.747501
4.047605 0.836498 0.747876
4.048188 0.836876 0.760766
4.061988 0.802750 0.763721
4.062154 0.802478 0.748290
4.045565 0.803403 0.748665
4.046148 0.803781 0.761555
4.048047 0.836877 0.760530
4.047464 0.836499 0.747640
4.032292 0.837318 0.749757
4.032119 0.837808 0.760227
4.046258 0.803782 0.761792
4.045675 0.803404 0.748901
4.030503 0.804224 0.751019
4.030330 0.804714 0.761489
4.032058 0.837799 0.759953
4.032231 0.837309 0.749483
4.018879 0.838057 0.752329
4.016079 0.838750 0.760652
4.030361 0.804725 0.761766
4.030533 0.804235 0.751296
4.017182 0.804983 0.754142
4.014381 0.805676 0.762465
4.098517 0.833926 0.749203
4.101590 0.833931 0.730744
4.082056 0.834653 0.731244
4.081128 0.834773 0.748382
4.097109 0.800789 0.749152
4.100182 0.800794 0.730693
4.080648 0.801516 0.731193
4.079720 0.801636 0.748331
4.081109 0.834773 0.748188
4.082036 0.834653 0.731050
4.062763 0.835386 0.731968
4.063894 0.835592 0.747712
4.079702 0.801637 0.748525
4.080630 0.801518 0.731387
4.061357 0.802251 0.732305
4.062487 0.802457 0.748049
4.064000 0.835584 0.747513
4.062869 0.835378 0.731769
4.044677 0.836245 0.733864
4.047411 0.836509 0.747888
4.062346 0.802467 0.748250
4.061215 0.802261 0.732506
4.043023 0.803128 0.734600
4.045757 0.803391 0.748624
4.047309 0.836509 0.747719
4.044575 0.836246 0.733695
4.029866 0.837012 0.739172
4.032137 0.837328 0.749837
4.045826 0.803393 0.748798
4.043092 0.803130 0.734774
4.028383 0.803896 0.740251
4.030654 0.804212 0.750916
4.032016 0.837324 0.749595
4.029745 0.837007 0.738930
4.017279 0.837677 0.745139
4.018665 0.838072 0.752441
4.030748 0.804219 0.751166
4.028477 0.803902 0.740501
4.016011 0.804572 0.746710
4.017396 0.804967 0.754012
4.101456 0.833936 0.730629
4.104527 0.833802 0.712172
4.082326 0.834518 0.713778
4.081921 0.834658 0.731129
4.100320 0.800789 0.730773
4.103391 0.800655 0.712315
4.081190 0.801371 0.713921
4.080786 0.801511 0.731272
4.081889 0.834658 0.731010
4.082294 0.834518 0.713658
4.060092 0.835208 0.715267
4.062616 0.835392 0.731928
4.080776 0.801512 0.731394
4.081180 0.801373 0.714043
4.058979 0.802062 0.715652
4.061502 0.802246 0.732312
4.062651 0.835386 0.731705
4.060127 0.835202 0.715044
4.037926 0.835922 0.716648
4.044459 0.836253 0.733799
4.061426 0.802253 0.732538
4.058902 0.802068 0.715878
4.036701 0.802788 0.717482
4.043234 0.803120 0.734633
4.044340 0.836251 0.733602
4.037806 0.835920 0.716451
4.024878 0.836637 0.727895
4.029631 0.837017 0.739079
4.043320 0.803123 0.734841
4.036786 0.802792 0.717689
4.023858 0.803509 0.729133
4.028611 0.803889 0.740318
4.029434 0.837012 0.738852
4.024681 0.836632 0.727667
4.011753 0.837374 0.739107
4.016968 0.837682 0.745060
4.028781 0.803896 0.740562
4.024029 0.803516 0.729378
4.011101 0.804257 0.740817
4.016315 0.804566 0.746771
4.099509 0.832819 0.573623
4.099916 0.833256 0.593381
4.115152 0.833565 0.591432
4.114513 0.833228 0.571743
4.100376 0.799669 0.574250
4.100784 0.800106 0.594008
4.116020 0.800415 0.592060
4.115380 0.800079 0.572371
4.100046 0.833262 0.593706
4.100815 0.833316 0.613515
4.115941 0.833563 0.611454
4.115282 0.833571 0.591757
4.100656 0.800101 0.593722
4.101424 0.800155 0.613532
4.116550 0.800402 0.611471
4.115891 0.800410 0.591774
4.100891 0.833317 0.613680
4.101826 0.833187 0.633422
4.116684 0.833389 0.631319
4.116017 0.833564 0.611619
4.101349 0.800154 0.613406
4.102283 0.800025 0.633148
4.117141 0.800226 0.631044
4.116475 0.800401 0.611345
4.101851 0.833185 0.633594
4.102372 0.832827 0.653430
4.117121 0.833065 0.651205
4.116709 0.833387 0.631491
4.102259 0.800026 0.633015
4.102779 0.799668 0.652850
4.117529 0.799906 0.650625
4.117117 0.800227 0.630911
4.102432 0.832827 0.653437
4.102690 0.832572 0.673234
4.117411 0.832665 0.670905
4.117182 0.833066 0.651212
4.102720 0.799666 0.652883
4.102977 0.799411 0.672680
4.117699 0.799504 0.670351
4.117469 0.799905 0.650657
4.102813 0.832570 0.672558
4.103387 0.833202 0.692309
4.118479 0.833028 0.689930
4.117534 0.832663 0.670230
4.102855 0.799414 0.673395
4.103430 0.800045 0.693145
4.118521 0.799872 0.690766
4.117577 0.799507 0.671066
4.103657 0.833200 0.692322
4.104227 0.833803 0.711799
4.119671 0.833392 0.709188
4.118749 0.833027 0.689943
4.103161 0.800048 0.693171
4.103731 0.800651 0.712647
4.119175 0.800240 0.710036
4.118253 0.799874 0.690791
4.114566 0.833231 0.571852
4.115206 0.833568 0.591541
4.130433 0.833827 0.589577
4.129568 0.833646 0.569971
4.115357 0.800076 0.572259
4.115996 0.800413 0.591947
4.131224 0.800672 0.589984
4.130358 0.800491 0.570378
4.115355 0.833572 0.591802
4.116014 0.833564 0.611499
4.131160 0.833767 0.609386
4.130582 0.833831 0.589839
4.115849 0.800409 0.591725
4.116508 0.800401 0.611422
4.131654 0.800604 0.609309
4.131076 0.800668 0.589762
4.116071 0.833564 0.611641
4.116737 0.833389 0.631340
4.131636 0.833573 0.629146
4.131217 0.833767 0.609528
4.116452 0.800401 0.611319
4.117118 0.800226 0.631019
4.132017 0.800410 0.628824
4.131598 0.800604 0.609206
4.116731 0.833388 0.631452
4.117144 0.833066 0.651165
4.131906 0.833300 0.649012
4.131630 0.833571 0.629257
4.117125 0.800227 0.630947
4.117537 0.799905 0.650660
4.132299 0.800140 0.648508
4.132023 0.800411 0.628752
4.117146 0.833064 0.651284
4.117375 0.832663 0.670978
4.132047 0.832868 0.668777
4.131908 0.833298 0.649132
4.117535 0.799907 0.650580
4.117765 0.799506 0.670274
4.132437 0.799711 0.668073
4.132298 0.800141 0.648428
4.117504 0.832667 0.670482
4.118448 0.833033 0.690182
4.133516 0.832903 0.687863
4.132176 0.832872 0.668281
4.117637 0.799502 0.670809
4.118582 0.799868 0.690509
4.133649 0.799738 0.688190
4.132309 0.799707 0.668608
4.118820 0.833030 0.690184
4.119742 0.833395 0.709429
4.135186 0.832911 0.706818
4.133888 0.832901 0.687865
4.118211 0.799871 0.690545
4.119133 0.800236 0.709790
4.134577 0.799751 0.707179
4.133279 0.799741 0.688226
4.088265 0.817425 0.550320
4.098478 0.829064 0.563510
4.113482 0.829473 0.561631
4.103302 0.817750 0.548894
4.091183 0.791773 0.571140
4.101396 0.803412 0.584331
4.116400 0.803821 0.582451
4.106220 0.792098 0.569715
4.103083 0.817733 0.548907
4.113263 0.829457 0.561643
4.128265 0.829872 0.559763
4.118057 0.818566 0.547444
4.106469 0.792115 0.569699
4.116649 0.803839 0.582435
4.131650 0.804254 0.580555
4.121442 0.792948 0.568235
4.116865 0.820614 0.532313
4.101434 0.821113 0.532115
4.103083 0.821246 0.545445
4.118374 0.821467 0.544738
4.116586 0.787474 0.533615
4.101156 0.787973 0.533417
4.102804 0.788106 0.546747
4.118095 0.788327 0.546040
4.117614 0.821457 0.544774
4.102323 0.821236 0.545482
4.104148 0.821478 0.558663
4.119122 0.822311 0.557199
4.118857 0.788337 0.546030
4.103566 0.788116 0.546737
4.105391 0.788358 0.559918
4.120365 0.789191 0.558455
4.102254 0.821098 0.532921
4.086941 0.822368 0.531447
4.088815 0.821765 0.546153
4.103903 0.821230 0.546252
4.100305 0.787990 0.532610
4.084991 0.789260 0.531135
4.086866 0.788657 0.545842
4.101953 0.788122 0.545941
4.103054 0.821258 0.546317
4.087967 0.821792 0.546218
4.089842 0.821175 0.560924
4.104879 0.821500 0.559498
4.102806 0.788094 0.545903
4.087718 0.788629 0.545804
4.089594 0.788011 0.560510
4.104631 0.788336 0.559084
4.086260 0.816152 0.544248
4.101573 0.814882 0.545722
4.101047 0.827596 0.534794
4.084486 0.827483 0.536071
4.085670 0.795489 0.518311
4.100983 0.794218 0.519785
4.100457 0.806933 0.508857
4.083896 0.806820 0.510134
4.101752 0.815546 0.545158
4.117182 0.815047 0.545356
4.117811 0.827426 0.534033
4.101226 0.828261 0.534230
4.100837 0.793552 0.520350
4.116267 0.793053 0.520548
4.116895 0.805432 0.509225
4.100310 0.806267 0.509421
4.084409 0.833697 0.524287
4.100971 0.833810 0.523010
4.100386 0.834381 0.511873
4.083261 0.834803 0.512516
4.083970 0.800619 0.521898
4.100532 0.800732 0.520620
4.099947 0.801304 0.509484
4.082822 0.801725 0.510127
4.101610 0.833813 0.522619
4.118195 0.832978 0.522422
4.118135 0.833538 0.510961
4.101025 0.834384 0.511482
4.099926 0.800728 0.521010
4.116511 0.799893 0.520813
4.116451 0.800454 0.509353
4.099341 0.801299 0.509873
4.083722 0.834794 0.512467
4.100847 0.834372 0.511824
4.100265 0.834936 0.500684
4.082574 0.835905 0.500698
4.082359 0.801736 0.510153
4.099484 0.801314 0.509510
4.098902 0.801879 0.498369
4.081210 0.802847 0.498384
4.101020 0.834385 0.511468
4.118130 0.833539 0.510947
4.118071 0.834103 0.499488
4.100438 0.834950 0.500328
4.099345 0.801300 0.509865
4.116455 0.800454 0.509344
4.116397 0.801017 0.497885
4.098763 0.801864 0.498724
4.117024 0.834135 0.499152
4.117082 0.833572 0.510611
4.127299 0.833957 0.510434
4.126628 0.834001 0.499903
4.117471 0.800984 0.498221
4.117530 0.800421 0.509680
4.127746 0.800806 0.509503
4.127076 0.800850 0.498972
4.116320 0.833543 0.510640
4.116380 0.832983 0.522100
4.127204 0.833890 0.520993
4.126536 0.833928 0.510463
4.118294 0.800449 0.509673
4.118354 0.799889 0.521134
4.129178 0.800796 0.520027
4.128510 0.800834 0.509497
4.106488 0.815690 0.558391
4.112888 0.824802 0.556378
4.111042 0.822715 0.541852
4.104980 0.814836 0.545967
4.133021 0.795821 0.557258
4.139421 0.804933 0.555244
4.137575 0.802846 0.540719
4.131513 0.794967 0.544833
4.105522 0.815529 0.545810
4.111585 0.823408 0.541695
4.109740 0.821320 0.527170
4.104014 0.814676 0.533385
4.130967 0.794272 0.544963
4.137030 0.802151 0.540849
4.135185 0.800063 0.526324
4.129459 0.793419 0.532538
4.112792 0.824689 0.555829
4.119189 0.833804 0.553816
4.117012 0.830479 0.537189
4.110947 0.822602 0.541304
4.139529 0.805063 0.555787
4.145926 0.814177 0.553773
4.143749 0.810853 0.537146
4.137683 0.802976 0.541261
4.111394 0.823183 0.541132
4.117459 0.831060 0.537017
4.115276 0.827737 0.520391
4.109549 0.821095 0.526606
4.137232 0.802390 0.541402
4.143298 0.810267 0.537287
4.141114 0.806945 0.520661
4.135388 0.800302 0.526877
4.119301 0.833744 0.555837
4.112904 0.824630 0.557851
4.116712 0.826824 0.572184
4.145816 0.814238 0.551777
4.139419 0.805123 0.553791
4.143227 0.807317 0.568124
4.112903 0.824628 0.557851
4.106503 0.815516 0.559865
4.116711 0.826821 0.572184
4.139412 0.805113 0.553794
4.133012 0.796001 0.555807
4.143220 0.807307 0.568126
4.135551 0.815707 0.759960
4.117296 0.817510 0.761698
4.118678 0.836805 0.760734
4.137072 0.835513 0.758674
4.139103 0.817339 0.792896
4.120848 0.819141 0.794634
4.122230 0.838436 0.793670
4.140624 0.837145 0.791610
4.136826 0.835553 0.758700
4.118432 0.836844 0.760761
4.119814 0.856139 0.759797
4.138347 0.855359 0.757414
4.140872 0.837145 0.791581
4.122478 0.838436 0.793641
4.123860 0.857732 0.792677
4.142393 0.856951 0.790294
4.116926 0.816569 0.761816
4.098638 0.818352 0.765294
4.099905 0.837153 0.761817
4.118308 0.835864 0.760852
4.121181 0.820085 0.794520
4.102893 0.821868 0.797998
4.104160 0.840670 0.794522
4.122563 0.839380 0.793556
4.119774 0.836597 0.760665
4.101371 0.837887 0.761630
4.102604 0.856668 0.760086
4.121156 0.855893 0.759701
4.121099 0.838685 0.793740
4.102696 0.839975 0.794705
4.103929 0.858756 0.793161
4.122481 0.857980 0.792776
3.997020 0.824662 0.739633
4.010814 0.824165 0.727641
3.981479 0.824687 0.724230
3.986893 0.825162 0.738945
3.996067 0.791521 0.740540
4.009861 0.791024 0.728548
3.980526 0.791547 0.725137
3.985940 0.792022 0.739852
4.010671 0.824172 0.727790
4.024468 0.823695 0.715796
3.990140 0.824331 0.713948
3.981336 0.824694 0.724379
4.010020 0.791017 0.728375
4.023816 0.790540 0.716381
3.989489 0.791176 0.714533
3.980685 0.791539 0.724964
3.990148 0.824331 0.713934
4.024475 0.823695 0.715782
4.017710 0.823603 0.703642
3.998949 0.823980 0.703507
3.989493 0.791176 0.714525
4.023821 0.790540 0.716373
4.017056 0.790448 0.704233
3.998294 0.790825 0.704098
4.017732 0.823602 0.703627
4.024497 0.823694 0.715766
4.038291 0.823196 0.703772
4.017072 0.790448 0.704246
4.023837 0.790540 0.716385
4.037631 0.790041 0.704391
4.128506 0.828524 0.532759
4.117681 0.827616 0.533866
4.122780 0.821881 0.538974
4.127877 0.806158 0.508276
4.117052 0.805250 0.509383
4.122150 0.799515 0.514492
4.122774 0.821876 0.538979
4.117676 0.827611 0.533871
4.117047 0.815232 0.545194
4.122148 0.799511 0.514495
4.117050 0.805247 0.509386
4.116422 0.792868 0.520710
4.016723 0.837681 0.744983
4.011508 0.837372 0.739030
3.998580 0.838094 0.750472
4.016537 0.804568 0.746862
4.011322 0.804259 0.740909
3.998394 0.804981 0.752351
3.998589 0.838096 0.750500
4.018118 0.838078 0.752313
4.016732 0.837683 0.745011
3.998389 0.804980 0.752331
4.017918 0.804962 0.754145
4.016532 0.804567 0.746843
4.015704 0.838680 0.759654
4.018504 0.837987 0.751331
3.998975 0.838005 0.749518
3.999724 0.839590 0.760358
4.014724 0.805747 0.763464
4.017525 0.805055 0.755141
3.997996 0.805072 0.753327
3.998744 0.806657 0.764168
3.988861 0.838926 0.648876
3.988383 0.838997 0.632170
3.962565 0.840929 0.631026
3.963961 0.840987 0.654845
3.986268 0.805861 0.648986
3.985790 0.805932 0.632279
3.959973 0.807864 0.631135
3.961368 0.807922 0.654955
4.087559 0.827281 0.573756
4.077346 0.815642 0.560565
4.077613 0.816194 0.577073
4.112297 0.805191 0.574093
4.102084 0.793552 0.560903
4.102351 0.794104 0.577411
3.947571 0.836634 0.657061
3.947632 0.836236 0.634284
3.936259 0.851226 0.634889
3.937165 0.851315 0.656613
3.920843 0.817010 0.657783
3.920904 0.816612 0.635006
3.909531 0.831602 0.635612
3.910436 0.831690 0.657335
3.947974 0.842376 0.671930
3.968882 0.840561 0.669332
3.964036 0.840981 0.654883
3.935625 0.843338 0.657400
3.945187 0.809327 0.672009
3.966095 0.807512 0.669410
3.961248 0.807932 0.654961
3.932837 0.810288 0.657478
3.935511 0.843346 0.657222
3.963922 0.840989 0.654704
3.962527 0.840931 0.630885
3.935571 0.842948 0.634445
3.932942 0.810281 0.657619
3.961353 0.807924 0.655101
3.959958 0.807866 0.631282
3.933003 0.809883 0.634842
3.957939 0.833348 0.662508
3.945590 0.834309 0.647978
3.935183 0.848990 0.647530
3.949962 0.846554 0.662923
3.935188 0.818372 0.681433
3.922839 0.819333 0.666903
3.912432 0.834014 0.666455
3.927211 0.831578 0.681848
