3.329343 1.118607 0.785660
3.333719 1.107190 0.802959
3.333997 1.086596 0.803682
3.330617 1.085863 0.783565
3.278800 1.116879 0.795644
3.283176 1.105462 0.812943
3.283454 1.084868 0.813667
3.280074 1.084135 0.793549
3.330780 1.085738 0.784449
3.334160 1.086470 0.804566
3.334345 1.077199 0.804948
3.331347 1.073001 0.784672
3.279913 1.084224 0.792665
3.283293 1.084956 0.812783
3.283479 1.075685 0.813165
3.280480 1.071487 0.792889
3.331196 1.073666 0.783975
3.334194 1.077863 0.804251
3.336155 1.049577 0.802838
3.332015 1.047502 0.783682
3.280633 1.070783 0.793586
3.283632 1.074981 0.813862
3.285592 1.046694 0.812450
3.281452 1.044620 0.793293
3.221324 1.121194 0.765804
3.248485 1.121330 0.764252
3.242698 1.087799 0.762708
3.211935 1.087366 0.763533
3.223465 1.117800 0.817196
3.250626 1.117937 0.815644
3.244840 1.084405 0.814100
3.214077 1.083973 0.814925
3.249479 1.120984 0.764209
3.276710 1.120473 0.764262
3.274437 1.087330 0.762341
3.243693 1.087452 0.762665
3.249690 1.118284 0.815686
3.276921 1.117772 0.815739
3.274647 1.084630 0.813819
3.243904 1.084752 0.814142
3.277400 1.120681 0.764280
3.304610 1.119305 0.764921
3.305885 1.086562 0.762827
3.275126 1.087538 0.762359
3.276289 1.117563 0.815722
3.303500 1.116188 0.816363
3.304774 1.083444 0.814269
3.274016 1.084420 0.813801
3.306256 1.072364 0.762999
3.307075 1.046201 0.762706
3.276475 1.045394 0.762436
3.275927 1.071174 0.762410
3.305539 1.072080 0.814541
3.306358 1.045917 0.814249
3.275757 1.045110 0.813978
3.275210 1.070890 0.813953
3.275405 1.070981 0.762408
3.275953 1.045201 0.762433
3.245318 1.044903 0.762614
3.245031 1.069681 0.762545
3.275671 1.071082 0.813955
3.276219 1.045301 0.813981
3.245584 1.045004 0.814161
3.245297 1.069782 0.814092
3.244671 1.069691 0.762549
3.244959 1.044913 0.762618
3.214426 1.044982 0.763129
3.214465 1.068332 0.763128
3.245595 1.069771 0.814089
3.245882 1.044993 0.814158
3.215350 1.045063 0.814669
3.215388 1.068412 0.814668
3.212402 1.085903 0.763462
3.243166 1.086336 0.762637
3.244532 1.070010 0.762553
3.214325 1.068651 0.763132
3.213604 1.085386 0.814993
3.244367 1.085818 0.814169
3.245733 1.069493 0.814085
3.215526 1.068133 0.814664
3.243603 1.086048 0.762629
3.274347 1.085926 0.762306
3.275344 1.071022 0.762408
3.244969 1.069723 0.762545
3.243990 1.086107 0.814176
3.274734 1.085985 0.813853
3.275731 1.071081 0.813955
3.245357 1.069782 0.814092
3.275018 1.085677 0.762311
3.305776 1.084701 0.762778
3.306343 1.071964 0.763001
3.276014 1.070774 0.762413
3.274125 1.086234 0.813848
3.304883 1.085258 0.814315
3.305450 1.072521 0.814539
3.275122 1.071330 0.813950
3.193598 1.117155 0.763451
3.200106 1.083380 0.763899
3.169474 1.088005 0.763342
3.170121 1.118454 0.764434
3.193949 1.116670 0.814996
3.200458 1.082895 0.815444
3.169826 1.087521 0.814887
3.170473 1.117969 0.815979
3.192555 1.089642 0.771016
3.194637 1.126548 0.780958
3.208701 1.125349 0.770454
3.199312 1.091522 0.768183
3.219903 1.077938 0.813115
3.221985 1.114844 0.823057
3.236049 1.113645 0.812554
3.226660 1.079817 0.810282
3.209576 1.120396 0.769152
3.216883 1.122366 0.776432
3.219044 1.086946 0.770791
3.216084 1.086620 0.769600
3.178004 1.113428 0.809300
3.185311 1.115398 0.816580
3.187472 1.079978 0.810940
3.184512 1.079653 0.809748
3.214360 1.123552 0.774906
3.221562 1.125364 0.780406
3.219480 1.088458 0.770463
3.216521 1.088132 0.769266
3.187843 1.114215 0.818113
3.195045 1.116026 0.823613
3.192962 1.079120 0.813671
3.190004 1.078794 0.812473
3.169381 1.070317 0.763461
3.200777 1.067598 0.763251
3.202026 1.044599 0.763418
3.169008 1.060723 0.762851
3.168887 1.069604 0.815002
3.200282 1.066886 0.814792
3.201532 1.043887 0.814959
3.168513 1.060011 0.814392
3.169844 1.088145 0.763344
3.200476 1.083519 0.763901
3.200722 1.067665 0.763251
3.169326 1.070384 0.763461
3.169459 1.087332 0.814884
3.200091 1.082706 0.815442
3.200337 1.066852 0.814792
3.168941 1.069571 0.815002
3.200172 1.067134 0.763250
3.214524 1.068267 0.763127
3.214485 1.044918 0.763128
3.201422 1.044135 0.763418
3.200933 1.067342 0.814793
3.215285 1.068475 0.814669
3.215246 1.045126 0.814671
3.202183 1.044343 0.814960
3.170544 1.143705 0.786311
3.189256 1.144927 0.801501
3.201328 1.144376 0.792609
3.194021 1.142406 0.785329
3.170060 1.092752 0.794112
3.188772 1.093975 0.809302
3.200843 1.093424 0.800410
3.193537 1.091453 0.793130
3.187109 1.145119 0.804057
3.205811 1.146337 0.819262
3.206382 1.146380 0.800664
3.199180 1.144569 0.795165
3.190945 1.093785 0.806768
3.209647 1.095003 0.821973
3.210218 1.095046 0.803376
3.203017 1.093235 0.797876
3.208779 1.146472 0.801233
3.208208 1.146428 0.819831
3.226767 1.146740 0.820545
3.222843 1.145273 0.790730
3.207851 1.094956 0.802812
3.207280 1.094913 0.821410
3.225839 1.095224 0.822124
3.221915 1.093757 0.792309
3.278787 1.144838 0.790283
3.276000 1.145464 0.816039
3.305513 1.142716 0.799840
3.305997 1.143462 0.790924
3.274901 1.093439 0.789738
3.272115 1.094065 0.815494
3.301627 1.091317 0.799295
3.302111 1.092064 0.790379
3.222382 1.145265 0.790411
3.226307 1.146732 0.820226
3.250076 1.146539 0.819649
3.249543 1.145402 0.788859
3.222417 1.093764 0.792621
3.226341 1.095231 0.822437
3.250111 1.095038 0.821859
3.249578 1.093901 0.791069
3.250283 1.145404 0.789187
3.250816 1.146541 0.819977
3.274728 1.145519 0.814997
3.277514 1.144893 0.789240
3.248889 1.093898 0.790738
3.249422 1.095035 0.821527
3.273333 1.094013 0.816547
3.276120 1.093387 0.790791
