3.081898 1.207864 -0.257638
3.129956 1.204943 -0.266456
3.127810 1.204781 -0.278052
3.128495 1.214993 -0.276824
3.131128 1.214897 -0.263791
3.081969 1.207564 -0.257151
3.079823 1.207402 -0.268747
3.080508 1.217615 -0.267520
3.083141 1.217518 -0.254486
3.127044 1.193425 -0.278800
3.125389 1.193052 -0.288960
3.125756 1.204826 -0.289194
3.127904 1.204988 -0.277596
3.078863 1.195610 -0.270432
3.077208 1.195237 -0.280593
3.077575 1.207011 -0.280826
3.079723 1.207173 -0.269229
3.127828 1.205300 -0.278077
3.125679 1.205137 -0.289674
3.125875 1.215608 -0.289880
3.128513 1.215512 -0.276850
3.079800 1.206884 -0.268747
3.077652 1.206721 -0.280344
3.077847 1.217192 -0.280550
3.080485 1.217096 -0.267519
3.114510 1.193589 -0.305377
3.106591 1.195839 -0.310671
3.107841 1.206236 -0.309999
3.114877 1.205363 -0.305610
3.088077 1.194701 -0.264191
3.080158 1.196950 -0.269486
3.081407 1.207347 -0.268813
3.088444 1.206475 -0.264425
3.114319 1.205519 -0.305962
3.107282 1.206392 -0.310350
3.108523 1.216695 -0.309684
3.114514 1.215990 -0.306168
3.089003 1.206340 -0.264073
3.081967 1.207213 -0.268462
3.083207 1.217515 -0.267795
3.089199 1.216811 -0.264279
3.028068 1.087904 -0.299168
3.027961 1.088322 -0.308037
3.039594 1.099279 -0.304176
3.039943 1.098976 -0.295318
2.994233 1.123203 -0.296863
2.994126 1.123621 -0.305731
3.005759 1.134578 -0.301871
3.006108 1.134276 -0.293012
3.039992 1.099040 -0.295552
3.039643 1.099342 -0.304410
3.051272 1.110303 -0.300550
3.051866 1.110114 -0.291700
3.006083 1.134234 -0.292771
3.005734 1.134536 -0.301629
3.017363 1.145497 -0.297769
3.017956 1.145308 -0.288919
3.051909 1.110177 -0.291938
3.051316 1.110366 -0.300788
3.062946 1.121326 -0.296927
3.063781 1.121253 -0.288087
3.017936 1.145268 -0.288674
3.017342 1.145457 -0.297524
3.028973 1.156417 -0.293664
3.029807 1.156343 -0.284823
3.063978 1.121466 -0.288292
3.063143 1.121540 -0.297132
3.074665 1.132565 -0.293158
3.075695 1.132594 -0.284189
3.029633 1.156152 -0.284610
3.028799 1.156226 -0.293451
3.040320 1.167250 -0.289476
3.041350 1.167280 -0.280507
3.075968 1.132884 -0.284325
3.074938 1.132854 -0.293293
3.086294 1.143990 -0.289120
3.087479 1.144106 -0.279854
3.041101 1.167013 -0.280363
3.040071 1.166983 -0.289332
3.051427 1.178119 -0.285159
3.052612 1.178235 -0.275893
3.087505 1.144141 -0.279926
3.086320 1.144025 -0.289192
3.097671 1.155165 -0.285020
3.099015 1.155366 -0.275455
3.052608 1.178222 -0.275812
3.051424 1.178106 -0.285078
3.062774 1.189246 -0.280906
3.064119 1.189447 -0.271341
3.099033 1.155392 -0.275522
3.097688 1.155192 -0.285086
3.109044 1.166329 -0.280913
3.110542 1.166616 -0.271051
3.064124 1.189442 -0.271265
3.062779 1.189242 -0.280830
3.074134 1.200379 -0.276657
3.075633 1.200666 -0.266795
3.110568 1.166650 -0.271112
3.109070 1.166364 -0.280974
3.120418 1.177505 -0.276802
3.122076 1.177878 -0.266640
3.075630 1.200654 -0.266725
3.074131 1.200367 -0.276587
3.085479 1.211508 -0.272415
3.087137 1.211882 -0.262253
3.028055 1.088412 -0.308037
3.027951 1.088827 -0.316905
3.039341 1.099672 -0.313037
3.039688 1.099369 -0.304177
2.994032 1.123532 -0.305748
2.993928 1.123947 -0.314616
3.005318 1.134792 -0.310748
3.005665 1.134488 -0.301888
3.039737 1.099433 -0.304412
3.039390 1.099737 -0.313272
3.050779 1.110582 -0.309404
3.051366 1.110394 -0.300552
3.005639 1.134446 -0.301645
3.005292 1.134749 -0.310506
3.016681 1.145594 -0.306637
3.017268 1.145407 -0.297785
3.051409 1.110456 -0.300787
3.050822 1.110644 -0.309639
3.062211 1.121489 -0.305771
3.063039 1.121417 -0.296927
3.017248 1.145367 -0.297543
3.016662 1.145554 -0.306394
3.028050 1.156400 -0.302527
3.028878 1.156327 -0.293682
3.063200 1.121596 -0.297130
3.062372 1.121669 -0.305975
3.073714 1.132601 -0.302099
3.074721 1.132620 -0.293155
3.028741 1.156170 -0.293471
3.027913 1.156243 -0.302316
3.039255 1.167175 -0.298440
3.040262 1.167195 -0.289496
3.074967 1.132884 -0.293296
3.073959 1.132864 -0.302240
3.085151 1.143913 -0.298372
3.086323 1.144020 -0.289123
3.040039 1.166953 -0.289348
3.039032 1.166933 -0.298292
3.050224 1.177982 -0.294424
3.051396 1.178089 -0.285175
3.086349 1.144055 -0.289198
3.085177 1.143949 -0.298448
3.096368 1.154999 -0.294578
3.097699 1.155195 -0.285026
3.051392 1.178075 -0.285091
3.050220 1.177969 -0.294340
3.061411 1.189019 -0.290470
3.062743 1.189215 -0.280918
3.097715 1.155220 -0.285094
3.096384 1.155024 -0.294646
3.107575 1.166073 -0.290778
3.109071 1.166358 -0.280921
3.062749 1.189213 -0.280842
3.061418 1.189017 -0.290394
3.072608 1.200065 -0.286527
3.074104 1.200350 -0.276669
3.109096 1.166392 -0.280987
3.107600 1.166107 -0.290844
3.118790 1.177160 -0.286974
3.120444 1.177533 -0.276814
3.074102 1.200338 -0.276595
3.072606 1.200053 -0.286453
3.083796 1.211106 -0.282583
3.085450 1.211479 -0.272422
3.113743 1.188887 -0.305192
3.102553 1.177834 -0.309062
3.095097 1.180565 -0.314433
3.105823 1.191136 -0.310487
3.088833 1.199381 -0.264380
3.077644 1.188329 -0.268250
3.070188 1.191060 -0.273621
3.080914 1.201631 -0.269675
3.102820 1.177424 -0.308786
3.091629 1.166376 -0.312653
3.084630 1.169585 -0.318095
3.095364 1.180156 -0.314156
3.077354 1.188717 -0.268535
3.066163 1.177668 -0.272402
3.059164 1.180878 -0.277844
3.069898 1.191448 -0.273905
3.091888 1.166002 -0.312378
3.080697 1.154951 -0.316247
3.074161 1.158642 -0.321763
3.084889 1.169211 -0.317819
3.065883 1.178021 -0.272686
3.054692 1.166970 -0.276555
3.048156 1.170661 -0.282071
3.058884 1.181230 -0.278127
3.080940 1.154575 -0.315968
3.069748 1.143526 -0.319836
3.063672 1.147696 -0.325428
3.074404 1.158266 -0.321484
3.054427 1.167324 -0.276843
3.043235 1.156275 -0.280711
3.037160 1.160445 -0.286303
3.047891 1.171015 -0.282359
3.069657 1.143082 -0.319747
3.058315 1.132150 -0.323622
3.052748 1.136659 -0.328944
3.063581 1.147252 -0.325339
3.043305 1.156698 -0.280807
3.031962 1.145766 -0.284682
3.026395 1.150275 -0.290004
3.037229 1.160868 -0.286399
3.058171 1.132148 -0.323718
3.046782 1.121302 -0.327586
3.041747 1.126065 -0.332555
3.052604 1.136658 -0.329041
3.032084 1.145746 -0.284594
3.020695 1.134900 -0.288461
3.015660 1.139663 -0.293430
3.026517 1.150255 -0.289916
3.046686 1.121429 -0.327693
3.035296 1.110583 -0.331562
3.030799 1.115596 -0.336185
3.041650 1.126191 -0.332663
3.020770 1.134753 -0.288361
3.009381 1.123907 -0.292230
3.004884 1.128920 -0.296852
3.015735 1.139515 -0.293330
3.035179 1.110706 -0.331680
3.023788 1.099861 -0.335548
3.019822 1.105129 -0.339816
3.030682 1.115719 -0.336303
3.009476 1.123763 -0.292119
2.998086 1.112919 -0.295987
2.994119 1.118186 -0.300255
3.004979 1.128776 -0.296742
3.121266 1.177298 -0.256604
3.109622 1.166198 -0.260721
3.109850 1.165843 -0.267766
3.121358 1.177071 -0.263294
3.087765 1.212916 -0.258891
3.076121 1.201816 -0.263008
3.076349 1.201461 -0.270054
3.087856 1.212689 -0.265582
3.109467 1.166100 -0.260144
3.097816 1.155003 -0.264261
3.098186 1.154522 -0.271660
3.109695 1.165745 -0.267189
3.076253 1.201892 -0.263594
3.064602 1.190796 -0.267711
3.064972 1.190314 -0.275110
3.076481 1.201537 -0.270639
3.097672 1.154928 -0.263739
3.086022 1.143832 -0.267856
3.086531 1.143222 -0.275610
3.098042 1.154446 -0.271138
3.064723 1.190849 -0.268242
3.053073 1.179753 -0.272358
3.053583 1.179143 -0.280112
3.065093 1.190367 -0.275640
3.085880 1.143768 -0.267384
3.074228 1.132674 -0.271500
3.074878 1.131935 -0.279607
3.086389 1.143157 -0.275137
3.053193 1.179795 -0.272840
3.041540 1.168702 -0.276956
3.042191 1.167962 -0.285064
3.053702 1.179185 -0.280593
3.073936 1.132477 -0.271103
3.062199 1.121462 -0.275388
3.062869 1.120610 -0.283313
3.074587 1.131738 -0.279211
3.041809 1.168876 -0.277362
3.030072 1.157860 -0.281647
3.030742 1.157009 -0.289572
3.042459 1.168137 -0.285469
3.061966 1.121323 -0.275028
3.050228 1.110422 -0.279407
3.050765 1.109396 -0.286804
3.062636 1.120472 -0.282953
3.030282 1.157977 -0.282015
3.018544 1.147075 -0.286394
3.019080 1.146050 -0.293791
3.030952 1.157125 -0.289940
3.050097 1.110388 -0.279013
3.038360 1.099486 -0.283391
3.038760 1.098288 -0.290261
3.050634 1.109363 -0.286410
3.018651 1.147086 -0.286796
3.006914 1.136184 -0.291174
3.007314 1.134986 -0.298045
3.019188 1.146061 -0.294193
3.038201 1.099453 -0.282931
3.026461 1.088554 -0.287309
3.026726 1.087183 -0.293653
3.038601 1.098255 -0.289802
3.007050 1.136195 -0.291642
2.995310 1.125296 -0.296020
2.995575 1.123925 -0.302363
3.007450 1.134997 -0.298513
3.029291 1.088701 -0.289018
3.028134 1.090666 -0.297759
3.039874 1.101566 -0.293381
3.041253 1.099868 -0.285190
2.994795 1.121217 -0.276815
2.993638 1.123183 -0.285556
3.005378 1.134082 -0.281177
3.006757 1.132384 -0.272987
3.041263 1.100010 -0.285533
3.039883 1.101708 -0.293723
3.051620 1.112611 -0.289345
3.053228 1.111174 -0.281705
3.006772 1.132263 -0.272636
3.005392 1.133961 -0.280827
3.017129 1.144864 -0.276449
3.018738 1.143427 -0.268809
3.053235 1.111347 -0.282106
3.051626 1.112783 -0.289746
3.063364 1.123685 -0.285367
3.065196 1.122514 -0.278278
3.018755 1.143277 -0.268400
3.017147 1.144713 -0.276040
3.028885 1.155615 -0.271661
3.030717 1.154444 -0.264573
3.065278 1.122761 -0.278634
3.063446 1.123932 -0.285722
3.075183 1.134948 -0.281438
3.077164 1.133958 -0.274664
3.030658 1.154219 -0.264209
3.028826 1.155390 -0.271298
3.040563 1.166406 -0.267013
3.042544 1.165416 -0.260239
3.077279 1.134146 -0.274793
3.075298 1.135136 -0.281567
3.086950 1.146229 -0.277450
3.089063 1.145383 -0.270632
3.042453 1.165250 -0.260102
3.040471 1.166240 -0.266875
3.052123 1.177333 -0.262759
3.054236 1.176487 -0.255941
3.089076 1.145383 -0.270600
3.086964 1.146229 -0.277418
3.098613 1.157325 -0.273301
3.100862 1.156620 -0.266440
3.054246 1.176509 -0.255965
3.052133 1.177356 -0.262782
3.063783 1.188451 -0.258666
3.066032 1.187746 -0.251805
3.100879 1.156622 -0.266405
3.098630 1.157327 -0.273265
3.110281 1.168423 -0.269148
3.112658 1.167862 -0.262243
3.066039 1.187767 -0.251832
3.063790 1.188472 -0.258693
3.075441 1.199568 -0.254576
3.077818 1.199007 -0.247671
3.112674 1.167864 -0.262209
3.110297 1.168425 -0.269113
3.121941 1.179525 -0.264996
3.124456 1.179106 -0.258048
3.077825 1.199028 -0.247697
3.075448 1.199589 -0.254602
3.087093 1.210689 -0.250485
3.089607 1.210270 -0.243537
3.126799 1.177291 -0.231234
3.114953 1.165962 -0.236235
3.113751 1.166114 -0.246686
3.125565 1.177403 -0.242097
3.092194 1.211635 -0.226855
3.080347 1.200306 -0.231856
3.079146 1.200457 -0.242307
3.090960 1.211747 -0.237718
3.114953 1.165977 -0.236348
3.103108 1.154650 -0.241353
3.101929 1.154840 -0.251386
3.113751 1.166128 -0.246798
3.080323 1.200269 -0.231754
3.068478 1.188942 -0.236759
3.067300 1.189132 -0.246792
3.079122 1.200420 -0.242204
3.103109 1.154668 -0.241474
3.091258 1.143344 -0.246476
3.090112 1.143572 -0.256095
3.101930 1.154858 -0.251507
3.068453 1.188901 -0.236648
3.056602 1.177577 -0.241650
3.055456 1.177805 -0.251269
3.067275 1.189091 -0.246680
3.091260 1.143366 -0.246606
3.079412 1.132043 -0.251611
3.078290 1.132309 -0.260813
3.090115 1.143594 -0.256226
3.056575 1.177533 -0.241529
3.044727 1.166209 -0.246534
3.043604 1.166476 -0.255735
3.055430 1.177760 -0.251148
3.079162 1.131797 -0.251643
3.067068 1.120578 -0.256459
3.066062 1.120872 -0.265231
3.078039 1.132063 -0.260844
3.044953 1.166433 -0.246512
3.032860 1.155214 -0.251329
3.031854 1.155508 -0.260100
3.043831 1.166699 -0.255713
3.066791 1.120280 -0.256257
3.054518 1.109238 -0.260852
3.053663 1.109462 -0.269236
3.065785 1.120573 -0.265028
3.033113 1.155490 -0.251540
3.020841 1.144449 -0.256135
3.019985 1.144673 -0.264519
3.032107 1.155784 -0.260311
3.054454 1.109134 -0.260507
3.042178 1.098095 -0.265100
3.041475 1.098252 -0.273099
3.053599 1.109359 -0.268891
3.020880 1.144530 -0.256490
3.008603 1.133490 -0.261082
3.007901 1.133647 -0.269081
3.020025 1.144754 -0.264873
3.042113 1.097995 -0.264722
3.029838 1.086954 -0.269316
3.029308 1.087063 -0.276921
3.041410 1.098152 -0.272721
3.008644 1.133568 -0.261469
2.996369 1.122526 -0.266064
2.995839 1.122636 -0.273669
3.007941 1.133725 -0.269468
3.125515 1.177354 -0.242101
3.113702 1.166064 -0.246690
3.112506 1.166224 -0.257127
3.124288 1.177466 -0.252967
3.091007 1.211797 -0.237735
3.079193 1.200507 -0.242324
3.077997 1.200667 -0.252761
3.089779 1.211909 -0.248601
3.113700 1.166078 -0.246804
3.101878 1.154789 -0.251391
3.100725 1.154997 -0.261402
3.112504 1.166237 -0.257241
3.079171 1.200471 -0.242219
3.067349 1.189183 -0.246806
3.066196 1.189391 -0.256817
3.077975 1.200631 -0.252656
3.101878 1.154806 -0.251515
3.090059 1.143520 -0.256104
3.088939 1.143777 -0.265686
3.100725 1.155014 -0.261526
3.067325 1.189144 -0.246691
3.055507 1.177857 -0.251280
3.054386 1.178114 -0.260862
3.066172 1.189352 -0.256702
3.090061 1.143541 -0.256239
3.078235 1.132256 -0.260826
3.077157 1.132561 -0.269981
3.088940 1.143798 -0.265821
3.055482 1.177814 -0.251154
3.043656 1.166529 -0.255741
3.042578 1.166834 -0.264897
3.054361 1.178071 -0.260736
3.078059 1.132084 -0.260848
3.066082 1.120892 -0.265235
3.065095 1.121192 -0.273974
3.076981 1.132388 -0.270004
3.043809 1.166679 -0.255727
3.031832 1.155488 -0.260113
3.030844 1.155788 -0.268853
3.042730 1.166984 -0.264883
3.065907 1.120692 -0.265033
3.053785 1.109581 -0.269241
3.052958 1.109824 -0.277600
3.064920 1.120992 -0.273772
3.031983 1.155666 -0.260323
3.019861 1.144555 -0.264531
3.019034 1.144798 -0.272890
3.030995 1.155965 -0.269062
3.053728 1.109483 -0.268900
3.041604 1.098376 -0.273108
3.040935 1.098562 -0.281086
3.052901 1.109726 -0.277259
3.019894 1.144630 -0.264880
3.007770 1.133524 -0.269088
3.007102 1.133710 -0.277066
3.019067 1.144873 -0.273239
3.041547 1.098284 -0.272733
3.029445 1.087194 -0.276933
3.028916 1.087303 -0.284539
3.040879 1.098470 -0.280711
3.007802 1.133594 -0.269472
2.995700 1.122505 -0.273672
2.995171 1.122613 -0.281278
3.007134 1.133780 -0.277450
3.018444 1.090534 -0.248484
3.030718 1.101576 -0.243889
3.026691 1.105325 -0.239833
3.014369 1.094634 -0.244477
3.007760 1.118949 -0.286885
3.020035 1.129991 -0.282290
3.016007 1.133741 -0.278234
3.003685 1.123049 -0.282878
3.031331 1.101129 -0.244412
3.043607 1.112169 -0.239819
3.039621 1.115573 -0.235707
3.027303 1.104879 -0.240356
3.019447 1.130459 -0.281758
3.031724 1.141499 -0.277165
3.027737 1.144903 -0.273053
3.015419 1.134209 -0.277702
3.044244 1.111724 -0.240396
3.056517 1.122766 -0.235801
3.052579 1.125821 -0.231639
3.040258 1.115128 -0.236284
3.031111 1.141966 -0.276579
3.043384 1.153007 -0.271984
3.039447 1.156062 -0.267822
3.027125 1.145369 -0.272466
3.057088 1.122489 -0.236257
3.069182 1.133708 -0.231440
3.065218 1.136459 -0.227334
3.053151 1.125544 -0.232095
3.042837 1.153306 -0.271518
3.054930 1.164524 -0.266702
3.050966 1.167276 -0.262596
3.038899 1.156361 -0.267357
3.069424 1.133719 -0.231530
3.081273 1.145042 -0.226525
3.077225 1.147673 -0.222541
3.065460 1.136470 -0.227424
3.054711 1.164536 -0.266602
3.066560 1.175859 -0.261597
3.062512 1.178490 -0.257613
3.050747 1.167287 -0.262496
3.081204 1.145093 -0.226452
3.093056 1.156417 -0.221450
3.088918 1.158919 -0.217570
3.077156 1.147724 -0.222467
3.066652 1.175830 -0.261661
3.078504 1.187154 -0.256659
3.074366 1.189656 -0.252779
3.062604 1.178461 -0.257676
3.093000 1.156486 -0.221367
3.104845 1.167813 -0.216362
3.100623 1.170195 -0.212604
3.088862 1.158988 -0.217487
3.078583 1.187108 -0.256731
3.090428 1.198435 -0.251726
3.086206 1.200817 -0.247968
3.074445 1.189610 -0.252851
3.104774 1.167868 -0.216285
3.116621 1.179196 -0.211284
3.112310 1.181449 -0.207630
3.100551 1.170250 -0.212528
3.090523 1.198403 -0.251792
3.102370 1.209731 -0.246790
3.098059 1.211984 -0.243137
3.086301 1.200785 -0.248035
3.132215 1.213368 -0.254995
3.130519 1.203220 -0.257544
3.130161 1.203408 -0.264132
3.131333 1.213362 -0.261467
3.083822 1.219058 -0.250318
3.082125 1.208910 -0.252868
3.081768 1.209098 -0.259456
3.082939 1.219052 -0.256791
3.130566 1.202741 -0.255685
3.128768 1.191804 -0.258221
3.128859 1.191578 -0.264911
3.130208 1.202929 -0.262274
3.082075 1.209368 -0.254732
3.080277 1.198432 -0.257267
3.080368 1.198205 -0.263958
3.081718 1.209556 -0.261320
3.020933 1.080838 -0.318983
3.028956 1.089827 -0.316159
3.029060 1.089411 -0.307291
3.021146 1.081172 -0.309929
2.984880 1.113940 -0.318193
2.992903 1.122928 -0.315369
2.993007 1.122513 -0.306501
2.985093 1.114274 -0.309139
3.020492 1.080486 -0.309919
3.028406 1.088725 -0.307281
3.028513 1.088307 -0.298413
3.020706 1.080819 -0.300866
2.985748 1.114959 -0.309132
2.993662 1.123199 -0.306494
2.993769 1.122781 -0.297625
2.985962 1.115292 -0.300079
3.019178 1.079982 -0.295846
3.026985 1.087470 -0.293392
3.026720 1.088841 -0.287049
3.017702 1.080315 -0.289548
2.987489 1.116130 -0.305083
2.995296 1.123618 -0.302630
2.995031 1.124989 -0.296287
2.986012 1.116462 -0.298785
3.021057 1.081038 -0.292299
3.019131 1.082188 -0.300340
3.028150 1.090714 -0.297841
3.029306 1.088749 -0.289101
2.986509 1.113439 -0.279937
2.984583 1.114589 -0.287978
2.993602 1.123115 -0.285480
2.994759 1.121150 -0.276739
3.020731 1.079632 -0.287490
3.028980 1.087343 -0.284292
3.029509 1.087235 -0.276687
3.021082 1.079388 -0.279795
2.986838 1.114843 -0.284729
2.995087 1.122554 -0.281531
2.995616 1.122445 -0.273926
2.987189 1.114599 -0.277035
3.021034 1.079340 -0.279786
3.029461 1.087187 -0.276678
3.029991 1.087078 -0.269073
3.021384 1.079098 -0.272091
2.987239 1.114646 -0.277028
2.995666 1.122493 -0.273920
2.996196 1.122383 -0.266315
2.987589 1.114404 -0.269333
3.010058 1.083244 -0.251072
3.018665 1.091223 -0.248054
3.014590 1.095323 -0.244047
3.006449 1.088015 -0.246794
2.998912 1.110262 -0.290340
3.007519 1.118242 -0.287322
3.003443 1.122342 -0.283315
2.995303 1.115034 -0.286062
2.997417 1.057860 -0.320481
3.008685 1.068841 -0.319357
3.008788 1.069061 -0.313527
2.963294 1.092950 -0.321203
2.974562 1.103930 -0.320079
2.974665 1.104151 -0.314249
3.008686 1.068841 -0.319425
3.019950 1.079825 -0.318300
3.020163 1.080159 -0.309247
3.008789 1.069061 -0.313595
2.974579 1.103949 -0.320006
2.985844 1.114934 -0.318881
2.986057 1.115267 -0.309827
2.974683 1.104170 -0.314176
2.997335 1.057784 -0.320364
3.008707 1.068985 -0.313410
3.008834 1.069279 -0.304972
2.997368 1.058150 -0.309937
2.963372 1.093023 -0.321309
2.974743 1.104224 -0.314355
2.974871 1.104518 -0.305917
2.963404 1.093389 -0.310881
3.008747 1.069020 -0.313579
3.020121 1.080118 -0.309231
3.020335 1.080451 -0.300178
3.008875 1.069315 -0.305141
2.974725 1.104211 -0.314175
2.986099 1.115308 -0.309827
2.986313 1.115641 -0.300774
2.974853 1.104505 -0.305737
3.018855 1.079763 -0.295617
3.017379 1.080095 -0.289319
3.005978 1.069358 -0.293602
3.007395 1.068627 -0.300581
2.987792 1.116330 -0.305319
2.986316 1.116663 -0.299021
2.974915 1.105926 -0.303304
2.976332 1.105194 -0.310283
3.007232 1.068594 -0.300198
3.005814 1.069326 -0.293219
2.994410 1.058593 -0.297502
2.995765 1.057465 -0.305162
2.976472 1.105204 -0.310675
2.975055 1.105936 -0.303696
2.963651 1.095203 -0.307980
2.965006 1.094075 -0.315639
3.019156 1.082195 -0.300291
3.021082 1.081045 -0.292249
3.009541 1.070251 -0.295905
3.007755 1.071458 -0.304574
2.984538 1.114562 -0.288034
2.986464 1.113412 -0.279993
2.974923 1.102617 -0.283649
2.973137 1.103825 -0.292318
3.007734 1.071232 -0.304006
3.009519 1.070024 -0.295337
2.997972 1.059236 -0.298992
2.996329 1.060499 -0.308289
2.973136 1.104030 -0.292894
2.974922 1.102822 -0.284225
2.963374 1.092034 -0.287880
2.961732 1.093297 -0.297177
2.997418 1.057796 -0.294117
3.008966 1.068584 -0.290462
3.009360 1.068574 -0.282936
2.997859 1.058015 -0.286760
2.963930 1.093472 -0.292738
2.975477 1.104261 -0.289084
2.975872 1.104250 -0.281558
2.964370 1.093692 -0.285382
3.009049 1.068684 -0.290889
3.020590 1.079479 -0.287234
3.020942 1.079235 -0.279539
3.009444 1.068674 -0.283363
2.975417 1.104182 -0.288649
2.986958 1.114977 -0.284993
2.987310 1.114733 -0.277298
2.975812 1.104172 -0.281123
2.997703 1.057870 -0.286746
3.009205 1.068429 -0.282922
3.009602 1.068415 -0.275396
2.998143 1.058090 -0.279390
2.964526 1.093837 -0.285381
2.976028 1.104396 -0.281557
2.976425 1.104382 -0.274031
2.964966 1.094057 -0.278025
3.009295 1.068534 -0.283355
3.020793 1.079096 -0.279530
3.021144 1.078853 -0.271835
3.009692 1.068521 -0.275829
2.975961 1.104311 -0.281116
2.987459 1.114873 -0.277291
2.987809 1.114630 -0.269596
2.976357 1.104297 -0.273590
3.009908 1.083172 -0.251080
3.006298 1.087944 -0.246801
2.995246 1.077445 -0.250982
2.998456 1.072839 -0.255074
2.999043 1.110316 -0.290340
2.995434 1.115087 -0.286061
2.984381 1.104589 -0.290242
2.987591 1.099983 -0.294334
2.998487 1.072772 -0.255129
2.995277 1.077378 -0.251037
2.984222 1.066889 -0.255236
2.987028 1.062448 -0.259123
2.987537 1.100029 -0.294287
2.984328 1.104635 -0.290195
2.973272 1.094146 -0.294394
2.976078 1.089705 -0.298281
2.983393 1.066454 -0.255328
2.973271 1.057385 -0.259464
2.973995 1.051793 -0.263654
2.986199 1.062013 -0.259215
2.974079 1.094560 -0.294309
2.963957 1.085490 -0.298445
2.964681 1.079898 -0.302635
2.976885 1.090119 -0.298197
2.973221 1.057398 -0.259442
2.963100 1.048325 -0.263568
2.961721 1.041607 -0.268073
2.973945 1.051806 -0.263632
2.963985 1.085458 -0.298475
2.953864 1.076385 -0.302601
2.952485 1.069666 -0.307106
2.964709 1.079866 -0.302665
2.972959 1.037055 -0.289157
2.972177 1.037032 -0.295165
2.984476 1.047132 -0.292105
2.985183 1.047254 -0.284716
2.941245 1.074213 -0.286033
2.940464 1.074190 -0.292041
2.952763 1.084290 -0.288982
2.953469 1.084412 -0.281592
2.985068 1.047108 -0.283938
2.984362 1.046986 -0.291328
2.996833 1.057109 -0.286856
2.997272 1.057329 -0.279500
2.953608 1.084578 -0.282362
2.952902 1.084456 -0.289751
2.965373 1.094578 -0.285280
2.965812 1.094798 -0.277923
2.971922 1.036815 -0.295132
2.971139 1.036790 -0.301141
2.983518 1.046791 -0.299461
2.984221 1.046915 -0.292072
2.940718 1.074408 -0.292088
2.939934 1.074383 -0.298097
2.952314 1.084384 -0.296418
2.953016 1.084508 -0.289028
2.984070 1.046744 -0.291302
2.983367 1.046620 -0.298691
2.996101 1.056647 -0.294187
2.996541 1.056866 -0.286830
2.953192 1.084698 -0.289792
2.952489 1.084574 -0.297181
2.965223 1.094601 -0.292676
2.965664 1.094820 -0.285320
3.017636 1.079677 -0.334604
3.019627 1.079782 -0.321677
3.008362 1.068798 -0.322801
3.006780 1.070056 -0.335907
2.984175 1.114872 -0.328452
2.986165 1.114977 -0.315525
2.974901 1.103992 -0.316650
2.973319 1.105251 -0.329755
3.006707 1.070244 -0.337131
3.008289 1.068986 -0.324025
2.997022 1.058005 -0.325150
2.995847 1.060626 -0.338435
2.973370 1.105042 -0.328534
2.974952 1.103784 -0.315428
2.963684 1.092803 -0.316552
2.962510 1.095424 -0.329838
2.951483 1.043898 -0.266859
2.952863 1.050616 -0.262354
2.938593 1.056600 -0.263153
2.932825 1.051157 -0.267466
2.962695 1.067373 -0.308325
2.964074 1.074091 -0.303820
2.949805 1.080074 -0.304619
2.944036 1.074632 -0.308932
2.933181 1.052173 -0.266832
2.938950 1.057616 -0.262519
2.924653 1.063540 -0.263214
2.914633 1.059680 -0.267437
2.943646 1.073629 -0.309568
2.949415 1.079071 -0.305254
2.935118 1.084995 -0.305950
2.925098 1.081136 -0.310173
2.975149 1.066250 -0.355222
2.963681 1.055509 -0.347011
2.948962 1.062206 -0.347982
2.963142 1.071695 -0.355943
2.983172 1.089788 -0.313058
2.971704 1.079047 -0.304847
2.956986 1.085744 -0.305818
2.971165 1.095232 -0.313779
2.963719 1.055439 -0.346978
2.952251 1.044700 -0.338767
2.934823 1.052652 -0.339977
2.949000 1.062136 -0.347949
2.971641 1.079097 -0.304863
2.960173 1.068359 -0.296651
2.942745 1.076310 -0.297862
2.956922 1.085794 -0.305834
2.963164 1.071766 -0.355987
2.948984 1.062277 -0.348025
2.934266 1.068971 -0.348999
2.951156 1.077211 -0.356708
2.971117 1.095173 -0.313737
2.956937 1.085685 -0.305776
2.942219 1.092379 -0.306749
2.959110 1.100619 -0.314459
2.949003 1.062182 -0.347976
2.934826 1.052699 -0.340004
2.917398 1.060655 -0.341213
2.934285 1.068877 -0.348950
2.956887 1.085762 -0.305809
2.942709 1.076279 -0.297837
2.925281 1.084235 -0.299046
2.942168 1.092456 -0.306783
2.993512 1.058839 -0.339188
2.994687 1.056218 -0.325903
2.982634 1.046786 -0.324335
2.982045 1.048098 -0.330977
2.964822 1.097191 -0.329081
2.965996 1.094570 -0.315795
2.953943 1.085138 -0.314227
2.953355 1.086450 -0.320869
2.982028 1.048085 -0.330979
2.982616 1.046773 -0.324337
2.970559 1.037347 -0.322767
2.953353 1.086446 -0.320859
2.953941 1.085134 -0.314217
2.941885 1.075708 -0.312648
2.995672 1.059953 -0.333544
2.996257 1.059756 -0.345335
3.006589 1.069550 -0.344482
3.006532 1.069571 -0.332240
2.962684 1.096099 -0.334753
2.963269 1.095901 -0.346544
2.973601 1.105696 -0.345691
2.973544 1.105717 -0.333450
2.996878 1.060343 -0.345332
2.997461 1.060147 -0.357123
3.007271 1.070112 -0.356720
3.007210 1.070137 -0.344479
2.962648 1.095314 -0.346571
2.963231 1.095118 -0.358362
2.973041 1.105083 -0.357959
2.972980 1.105109 -0.345718
2.998082 1.060777 -0.357126
2.998667 1.060580 -0.368916
3.007951 1.070720 -0.368965
3.007893 1.070743 -0.356723
2.962610 1.094487 -0.358383
2.963195 1.094290 -0.370174
2.972479 1.104430 -0.370222
2.972421 1.104453 -0.357980
2.999285 1.061255 -0.368915
2.999869 1.061059 -0.380706
3.008632 1.071370 -0.381204
3.008569 1.071396 -0.368963
2.962577 1.093614 -0.370199
2.963161 1.093418 -0.381991
2.971924 1.103729 -0.382489
2.971862 1.103755 -0.370248
3.000479 1.061779 -0.380710
3.001064 1.061582 -0.392500
3.009302 1.072066 -0.393450
3.009242 1.072090 -0.381208
2.962551 1.092698 -0.382011
2.963136 1.092501 -0.393801
2.971374 1.102985 -0.394751
2.971314 1.103009 -0.382509
3.001664 1.062350 -0.392502
3.002248 1.062153 -0.404293
3.009964 1.072809 -0.405692
3.009903 1.072834 -0.393451
2.962536 1.091733 -0.393824
2.963120 1.091537 -0.405615
2.970836 1.102193 -0.407014
2.970774 1.102218 -0.394773
3.002831 1.062963 -0.404295
3.003415 1.062766 -0.416085
3.010610 1.073593 -0.417936
3.010547 1.073619 -0.405695
2.962537 1.090727 -0.405637
2.963122 1.090530 -0.417427
2.970316 1.101357 -0.419278
2.970254 1.101382 -0.407036
3.006601 1.069628 -0.333208
3.006658 1.069607 -0.345449
3.016992 1.079399 -0.344596
3.017457 1.079249 -0.331904
2.973496 1.105680 -0.332480
2.973553 1.105659 -0.344722
2.983887 1.115451 -0.343868
2.984352 1.115301 -0.331176
3.007255 1.070175 -0.345463
3.007317 1.070149 -0.357704
3.017124 1.080117 -0.357302
3.017590 1.079967 -0.344610
2.972955 1.105091 -0.344733
2.973016 1.105066 -0.356974
2.982824 1.115034 -0.356571
2.983289 1.114884 -0.343879
3.007915 1.070759 -0.357725
3.007974 1.070737 -0.369967
3.017260 1.080875 -0.370014
3.017723 1.080727 -0.357323
2.972417 1.104457 -0.356978
2.972476 1.104434 -0.369220
2.981762 1.114573 -0.369267
2.982225 1.114424 -0.356576
3.008569 1.071387 -0.369980
3.008632 1.071362 -0.382221
3.017392 1.081674 -0.382720
3.017856 1.081526 -0.370028
2.971880 1.103783 -0.369231
2.971942 1.103758 -0.381472
2.980703 1.114070 -0.381971
2.981166 1.113922 -0.369279
3.009221 1.072055 -0.382241
3.009281 1.072032 -0.394483
3.017520 1.082515 -0.395432
3.017982 1.082368 -0.382740
2.971352 1.103064 -0.381477
2.971412 1.103040 -0.393719
2.979651 1.113524 -0.394668
2.980113 1.113377 -0.381976
3.009858 1.072764 -0.394496
3.009919 1.072739 -0.406737
3.017638 1.083394 -0.408137
3.018097 1.083248 -0.395444
2.970835 1.102308 -0.393731
2.970897 1.102283 -0.405972
2.978615 1.112938 -0.407372
2.979074 1.112792 -0.394680
3.010482 1.073514 -0.406754
3.010545 1.073488 -0.418996
3.017741 1.084314 -0.420846
3.018201 1.084168 -0.408154
2.970334 1.101508 -0.405980
2.970396 1.101483 -0.418221
2.977592 1.112309 -0.420072
2.978052 1.112163 -0.407380
2.973159 1.054351 -0.416885
2.972575 1.054548 -0.405095
2.960567 1.059991 -0.405817
2.961152 1.059796 -0.417608
2.993358 1.098939 -0.416626
2.992774 1.099136 -0.404836
2.980766 1.104579 -0.405558
2.981351 1.104384 -0.417349
2.961140 1.059801 -0.417612
2.960556 1.059996 -0.405821
2.948547 1.065439 -0.406543
2.949133 1.065245 -0.418333
2.981338 1.104390 -0.417346
2.980754 1.104585 -0.405555
2.968745 1.110028 -0.406277
2.969331 1.109834 -0.418068
2.972576 1.054547 -0.405082
2.971992 1.054744 -0.393292
2.959984 1.060187 -0.394014
2.960568 1.059990 -0.405804
2.992772 1.099137 -0.404824
2.992188 1.099334 -0.393033
2.980179 1.104777 -0.393756
2.980764 1.104580 -0.405546
2.960557 1.059996 -0.405806
2.959972 1.060192 -0.394016
2.947964 1.065634 -0.394738
2.948549 1.065439 -0.406529
2.980751 1.104586 -0.405545
2.980167 1.104782 -0.393755
2.968159 1.110224 -0.394477
2.968743 1.110029 -0.406268
2.971993 1.054744 -0.393280
2.971408 1.054941 -0.381489
2.959400 1.060382 -0.382211
2.959984 1.060186 -0.394002
2.992186 1.099335 -0.393022
2.991601 1.099532 -0.381231
2.979593 1.104973 -0.381953
2.980177 1.104777 -0.393744
2.959972 1.060192 -0.394004
2.959388 1.060388 -0.382212
2.947380 1.065830 -0.382935
2.947964 1.065634 -0.394725
2.980165 1.104783 -0.393744
2.979581 1.104979 -0.381953
2.967572 1.110421 -0.382675
2.968157 1.110225 -0.394466
2.971408 1.054940 -0.381477
2.970825 1.055137 -0.369686
2.958816 1.060579 -0.370408
2.959400 1.060382 -0.382199
2.991600 1.099532 -0.381220
2.991017 1.099728 -0.369429
2.979008 1.105170 -0.370151
2.979592 1.104974 -0.381941
2.959388 1.060387 -0.382200
2.958804 1.060584 -0.370410
2.946796 1.066025 -0.371131
2.947380 1.065830 -0.382922
2.979580 1.104979 -0.381941
2.978995 1.105176 -0.370151
2.966987 1.110617 -0.370872
2.967571 1.110422 -0.382664
2.970825 1.055137 -0.369674
2.970240 1.055334 -0.357883
2.958232 1.060775 -0.358605
2.958816 1.060579 -0.370396
2.991016 1.099729 -0.369417
2.990431 1.099926 -0.357627
2.978423 1.105367 -0.358348
2.979006 1.105171 -0.370139
2.958803 1.060584 -0.370397
2.958219 1.060780 -0.358605
2.946211 1.066223 -0.359327
2.946795 1.066026 -0.371118
2.978995 1.105176 -0.370140
2.978411 1.105372 -0.358349
2.966403 1.110815 -0.359071
2.966987 1.110617 -0.370862
2.970239 1.055334 -0.357870
2.969655 1.055530 -0.346079
2.957647 1.060974 -0.346801
2.958230 1.060775 -0.358591
2.990431 1.099926 -0.357617
2.989848 1.100122 -0.345826
2.977840 1.105565 -0.346547
2.978423 1.105367 -0.358338
2.958218 1.060781 -0.358591
2.957635 1.060979 -0.346800
2.945627 1.066421 -0.347521
2.946210 1.066223 -0.359313
2.978411 1.105372 -0.358340
2.977828 1.105570 -0.346549
2.965820 1.111012 -0.347271
2.966402 1.110815 -0.359062
2.969651 1.055532 -0.346065
2.969067 1.055730 -0.334275
2.957061 1.061174 -0.334996
2.957642 1.060976 -0.346787
2.989851 1.100120 -0.345815
2.989267 1.100318 -0.334025
2.977261 1.105762 -0.334746
2.977843 1.105564 -0.346537
2.957631 1.060981 -0.346781
2.957049 1.061180 -0.334990
2.945041 1.066626 -0.335712
2.945623 1.066422 -0.347503
2.977830 1.105569 -0.346545
2.977249 1.105768 -0.334754
2.965241 1.111214 -0.335475
2.965822 1.111011 -0.347266
3.021795 1.102352 -0.421349
3.020502 1.109912 -0.421271
3.021033 1.109754 -0.408446
3.022254 1.102206 -0.408657
2.973545 1.094289 -0.419571
2.972252 1.101848 -0.419494
2.972784 1.101690 -0.406668
2.974005 1.094143 -0.406879
3.022281 1.102050 -0.408616
3.021060 1.109597 -0.408405
3.021561 1.109435 -0.395579
3.022740 1.101904 -0.395924
2.973979 1.094299 -0.406894
2.972758 1.101846 -0.406683
2.973259 1.101683 -0.393856
2.974437 1.094153 -0.394201
3.022764 1.101747 -0.395950
3.021585 1.109277 -0.395604
3.022121 1.109117 -0.382778
3.023226 1.101599 -0.383259
2.974414 1.094311 -0.394150
2.973236 1.101841 -0.393804
2.973771 1.101681 -0.380978
2.974876 1.094163 -0.381458
3.023253 1.101425 -0.383229
3.022148 1.108943 -0.382748
3.022662 1.108779 -0.369922
3.023716 1.101277 -0.370536
2.974850 1.094338 -0.381462
2.973745 1.101856 -0.380982
2.974259 1.101692 -0.368155
2.975313 1.094189 -0.368770
3.023739 1.101113 -0.370543
3.022685 1.108615 -0.369929
3.023216 1.108453 -0.357103
3.024203 1.100964 -0.357852
2.975291 1.094353 -0.368737
2.974237 1.101856 -0.368123
2.974768 1.101693 -0.355297
2.975754 1.094204 -0.356046
3.024227 1.100792 -0.357831
3.023240 1.108281 -0.357082
3.023759 1.108117 -0.344256
3.024692 1.100643 -0.345139
2.975731 1.094376 -0.356041
2.974745 1.101865 -0.355292
2.975263 1.101700 -0.342466
2.976196 1.094226 -0.343349
3.024714 1.100471 -0.345142
3.023781 1.107946 -0.344260
3.024314 1.107782 -0.331433
3.025178 1.100321 -0.332451
2.976175 1.094397 -0.343319
2.975242 1.101871 -0.342436
2.975775 1.101707 -0.329610
2.976640 1.094246 -0.330628
2.977491 1.065562 -0.395716
2.965484 1.071007 -0.396438
2.952580 1.062197 -0.404305
2.967085 1.056485 -0.403643
2.989015 1.087719 -0.437816
2.977008 1.093164 -0.438538
2.964104 1.084354 -0.446406
2.978609 1.078642 -0.445743
2.967660 1.055867 -0.403828
2.953155 1.061580 -0.404490
2.940251 1.052770 -0.412358
2.957254 1.046790 -0.411755
2.978010 1.079241 -0.445574
2.963505 1.084954 -0.446236
2.950601 1.076144 -0.454103
2.967604 1.070164 -0.453501
2.965727 1.071681 -0.396032
2.953720 1.077125 -0.396754
2.938319 1.068586 -0.404566
2.952823 1.062871 -0.403900
2.976738 1.092501 -0.438945
2.964730 1.097945 -0.439667
2.949329 1.089406 -0.447479
2.963834 1.083691 -0.446812
2.953345 1.062190 -0.404115
2.938841 1.067905 -0.404781
2.923438 1.059361 -0.412584
2.940441 1.053381 -0.411982
2.963283 1.084355 -0.446613
2.948779 1.090070 -0.447280
2.933376 1.081526 -0.455083
2.950379 1.075546 -0.454481
3.001024 1.063580 -0.433501
2.990374 1.052498 -0.434588
2.987999 1.051846 -0.441631
3.000130 1.063798 -0.442589
2.966471 1.097717 -0.427420
2.955822 1.086636 -0.428506
2.953447 1.085983 -0.435550
2.965577 1.097935 -0.436508
2.990020 1.052840 -0.437284
2.979369 1.041759 -0.438371
2.975515 1.040234 -0.443369
2.987645 1.052188 -0.444327
2.956153 1.086270 -0.425811
2.945502 1.075189 -0.426898
2.941648 1.073664 -0.431895
2.953778 1.085618 -0.432854
3.000246 1.063761 -0.441531
2.988116 1.051809 -0.440573
2.987943 1.052137 -0.449210
2.999358 1.064691 -0.453156
2.965458 1.097972 -0.437584
2.953328 1.086020 -0.436626
2.953156 1.086348 -0.445263
2.964570 1.098903 -0.449209
2.988399 1.051991 -0.438199
2.976269 1.040037 -0.437241
2.976814 1.039763 -0.442890
2.988227 1.052319 -0.446836
2.953021 1.085813 -0.438995
2.940891 1.073860 -0.438036
2.941436 1.073585 -0.443685
2.952849 1.086142 -0.447631
2.977366 1.040600 -0.440468
2.978306 1.039863 -0.452425
2.989245 1.052139 -0.451503
2.988778 1.053157 -0.444414
2.940885 1.072747 -0.446123
2.941826 1.072010 -0.458080
2.952764 1.084286 -0.457158
2.952298 1.085303 -0.450069
2.989040 1.053556 -0.443916
2.989506 1.052539 -0.451005
3.000459 1.064895 -0.453914
3.000454 1.066110 -0.447862
2.952059 1.084929 -0.450573
2.952525 1.083912 -0.457661
2.963478 1.096268 -0.460571
2.963473 1.097484 -0.454519
3.000255 1.064314 -0.457439
2.989303 1.051958 -0.454530
2.989204 1.051914 -0.459467
3.000056 1.064167 -0.464745
2.963682 1.096847 -0.457059
2.952729 1.084491 -0.454149
2.952631 1.084448 -0.459086
2.963483 1.096700 -0.464365
2.989288 1.051942 -0.454557
2.978349 1.039666 -0.455479
2.989189 1.051898 -0.459494
2.952725 1.084487 -0.454117
2.941787 1.072211 -0.455039
2.952627 1.084443 -0.459054
3.000041 1.064150 -0.464754
2.989189 1.051898 -0.459475
2.989105 1.051904 -0.466980
2.999844 1.064002 -0.472060
2.963497 1.096717 -0.464369
2.952645 1.084464 -0.459091
2.952561 1.084471 -0.466596
2.963300 1.096568 -0.471675
2.989171 1.051878 -0.459533
2.978331 1.039645 -0.455518
2.978351 1.039784 -0.461958
2.989087 1.051884 -0.467037
2.952642 1.084460 -0.459024
2.941802 1.072227 -0.455009
2.941821 1.072366 -0.461450
2.952558 1.084466 -0.466529
2.950706 1.033486 -0.462788
2.950686 1.033347 -0.456347
2.935758 1.039496 -0.458831
2.937683 1.039152 -0.464909
2.969442 1.078658 -0.460618
2.969422 1.078519 -0.454178
2.954494 1.084668 -0.456662
2.956419 1.084323 -0.462740
2.938072 1.039112 -0.466378
2.936147 1.039457 -0.460299
2.920349 1.045845 -0.463827
2.925048 1.044777 -0.468501
2.956001 1.084375 -0.461277
2.954076 1.084719 -0.455198
2.938279 1.091108 -0.458726
2.942977 1.090040 -0.463400
2.950858 1.033255 -0.454847
2.949917 1.033991 -0.442890
2.935231 1.039696 -0.448965
2.935929 1.039403 -0.457331
2.969248 1.078612 -0.455662
2.968308 1.079349 -0.443705
2.953622 1.085054 -0.449780
2.954320 1.084761 -0.458146
2.936078 1.039341 -0.457935
2.935380 1.039634 -0.449569
2.920534 1.045464 -0.452259
2.920280 1.045730 -0.461462
2.954141 1.084836 -0.457549
2.953443 1.085128 -0.449184
2.938597 1.090959 -0.451873
2.938344 1.091224 -0.461077
2.950141 1.033900 -0.443014
2.949596 1.034175 -0.437365
2.934547 1.040079 -0.440042
2.935454 1.039605 -0.449090
2.968083 1.079441 -0.443563
2.967538 1.079716 -0.437914
2.952489 1.085620 -0.440591
2.953396 1.085146 -0.449638
2.935093 1.039761 -0.448626
2.934186 1.040235 -0.439578
2.919285 1.046483 -0.442198
2.920248 1.045592 -0.451315
2.953728 1.085002 -0.450109
2.952821 1.085476 -0.441062
2.937919 1.091724 -0.443681
2.938882 1.090833 -0.452799
2.949879 1.036144 -0.428103
2.953733 1.037669 -0.423106
2.936730 1.043650 -0.423708
2.934830 1.042048 -0.430780
2.967257 1.077749 -0.447162
2.971111 1.079274 -0.442165
2.954107 1.085255 -0.442767
2.952208 1.083653 -0.449839
2.934490 1.040652 -0.435333
2.936390 1.042254 -0.428261
2.919386 1.048234 -0.428863
2.919589 1.046900 -0.437953
2.952516 1.085061 -0.445290
2.954415 1.086663 -0.438217
2.937412 1.092643 -0.438819
2.937614 1.091309 -0.447909
2.956381 1.040202 -0.479969
2.943358 1.045867 -0.482091
2.945790 1.050456 -0.486740
2.956797 1.046548 -0.485401
2.963769 1.071948 -0.443448
2.950746 1.077613 -0.445570
2.953179 1.082201 -0.450219
2.964185 1.078294 -0.448880
2.943009 1.045262 -0.481471
2.929985 1.050927 -0.483594
2.934437 1.053761 -0.487454
2.945442 1.049851 -0.486120
2.951070 1.078228 -0.446194
2.938046 1.083893 -0.448317
2.942498 1.086727 -0.452177
2.953503 1.082816 -0.450843
2.989284 1.066084 -0.490253
2.978545 1.053986 -0.485174
2.976872 1.058750 -0.489795
2.985518 1.069271 -0.494059
2.973857 1.094490 -0.453494
2.963118 1.082393 -0.448414
2.961445 1.087157 -0.453035
2.970091 1.097678 -0.457299
2.979648 1.053418 -0.484204
2.968912 1.041317 -0.479125
2.969328 1.047663 -0.484557
2.977975 1.058182 -0.488826
2.961996 1.082939 -0.449374
2.951259 1.070838 -0.444295
2.951676 1.077184 -0.449727
2.960322 1.087703 -0.453996
3.018502 1.084459 -0.431882
3.017362 1.083783 -0.420697
3.010166 1.072957 -0.418846
3.010982 1.075298 -0.431279
2.979112 1.113517 -0.431432
2.977972 1.112842 -0.420246
2.970776 1.102016 -0.418396
2.971591 1.104356 -0.430829
3.010725 1.075181 -0.433640
3.009909 1.072840 -0.421207
3.002715 1.062013 -0.419356
3.003203 1.066021 -0.433037
2.971833 1.104453 -0.428465
2.971018 1.102113 -0.416032
2.963823 1.091285 -0.414182
2.964311 1.095294 -0.427862
3.002566 1.065099 -0.432229
3.009576 1.074253 -0.438228
3.010089 1.074258 -0.432832
2.964951 1.096223 -0.428687
2.971960 1.105377 -0.434686
2.972473 1.105382 -0.429291
3.010067 1.074216 -0.432681
3.009555 1.074211 -0.438077
3.016820 1.083285 -0.441807
3.017587 1.083377 -0.433284
2.972506 1.105440 -0.429446
2.971994 1.105434 -0.434842
2.979259 1.114508 -0.438572
2.980026 1.114601 -0.430049
3.002368 1.064890 -0.432462
3.001474 1.065107 -0.441550
3.008675 1.074066 -0.446132
3.009378 1.074044 -0.438461
2.965146 1.096429 -0.428464
2.964251 1.096646 -0.437552
2.971452 1.105605 -0.442134
2.972155 1.105583 -0.434463
3.009452 1.074089 -0.438092
3.008749 1.074111 -0.445763
3.015950 1.083069 -0.450345
3.016717 1.083163 -0.441822
2.972096 1.105556 -0.434842
2.971393 1.105578 -0.442512
2.978595 1.114537 -0.447094
2.979361 1.114630 -0.438572
3.015187 1.082870 -0.453649
3.007985 1.073912 -0.449067
3.007151 1.075379 -0.458647
3.014407 1.084875 -0.461184
2.979357 1.114738 -0.443807
2.972155 1.105780 -0.439225
2.971321 1.107247 -0.448805
2.978577 1.116742 -0.451343
3.008527 1.074108 -0.447421
3.001326 1.065149 -0.442839
3.000437 1.066079 -0.454464
3.007693 1.075575 -0.457001
2.971599 1.105565 -0.440864
2.964398 1.096606 -0.436282
2.963510 1.097537 -0.447907
2.970765 1.107032 -0.450444
3.001463 1.067441 -0.447618
3.001468 1.066225 -0.453670
3.009147 1.075596 -0.456740
3.008719 1.076937 -0.450155
2.962483 1.096175 -0.454770
2.962488 1.094959 -0.460822
2.970167 1.104329 -0.463891
2.969739 1.105670 -0.457307
3.008729 1.077278 -0.449035
3.009158 1.075936 -0.455619
3.016837 1.085306 -0.458689
3.015985 1.086773 -0.451572
2.969743 1.105349 -0.458433
2.970172 1.104007 -0.465018
2.977852 1.113377 -0.468088
2.976999 1.114844 -0.460971
3.016251 1.083798 -0.463336
3.008572 1.074428 -0.460266
3.008324 1.074138 -0.467802
3.015955 1.083366 -0.471101
2.978438 1.114884 -0.463456
2.970759 1.105514 -0.460386
2.970511 1.105225 -0.467921
2.978142 1.114453 -0.471221
3.008535 1.074383 -0.460432
3.000855 1.065013 -0.457362
3.000656 1.064866 -0.464668
3.008287 1.074094 -0.467968
2.970780 1.105540 -0.460213
2.963100 1.096170 -0.457143
2.962901 1.096023 -0.464449
2.970533 1.105250 -0.467749
3.015888 1.083286 -0.471103
3.008257 1.074057 -0.467804
3.008010 1.073768 -0.475339
3.015591 1.082854 -0.478870
2.978208 1.114533 -0.471234
2.970577 1.105305 -0.467935
2.970330 1.105015 -0.475470
2.977911 1.114101 -0.479000
3.008218 1.074011 -0.467969
3.000587 1.064783 -0.464669
3.000390 1.064635 -0.471975
3.007971 1.073721 -0.475504
2.970601 1.105333 -0.467763
2.962970 1.096105 -0.464463
2.962772 1.095957 -0.471769
2.970353 1.105044 -0.475299
2.989321 1.066271 -0.490381
2.985556 1.069459 -0.494187
2.992759 1.078879 -0.498499
2.996902 1.075358 -0.493911
2.973836 1.094323 -0.453374
2.970071 1.097511 -0.457180
2.977275 1.106930 -0.461492
2.981418 1.103410 -0.456904
2.997598 1.075048 -0.493361
2.993455 1.078568 -0.497949
3.000661 1.087986 -0.502262
3.005179 1.084134 -0.496891
2.980737 1.103739 -0.457462
2.976594 1.107259 -0.462050
2.983800 1.116677 -0.466363
2.988318 1.112825 -0.460992
3.010170 1.090936 -0.500839
3.004191 1.083353 -0.496685
2.999674 1.087205 -0.502056
3.005526 1.094277 -0.505445
2.995297 1.121205 -0.465360
2.989319 1.113622 -0.461205
2.984801 1.117474 -0.466577
2.990653 1.124545 -0.469965
3.021948 1.090905 -0.483033
3.022696 1.091862 -0.474375
3.016267 1.083754 -0.471113
3.015970 1.083322 -0.478879
2.983524 1.121233 -0.483153
2.984272 1.122190 -0.474494
2.977843 1.114082 -0.471232
2.977546 1.113650 -0.478998
3.022652 1.091806 -0.474363
3.023402 1.092762 -0.465704
3.016519 1.084129 -0.463335
3.016223 1.083698 -0.471101
2.984317 1.122247 -0.474490
2.985068 1.123203 -0.465831
2.978184 1.114570 -0.463462
2.977888 1.114139 -0.471228
3.023667 1.094101 -0.460401
3.023109 1.095891 -0.453968
3.015932 1.086935 -0.450915
3.016784 1.085468 -0.458032
2.984803 1.121866 -0.471119
2.984245 1.123656 -0.464686
2.977067 1.114700 -0.461633
2.977920 1.113233 -0.468750
3.013548 1.084528 -0.462828
3.020726 1.093484 -0.465881
3.023390 1.093012 -0.458320
3.014327 1.082523 -0.455292
2.979452 1.117108 -0.449706
2.986629 1.126064 -0.452759
2.989294 1.125593 -0.445199
2.980231 1.115103 -0.442171
3.025266 1.093783 -0.452127
3.025576 1.094589 -0.443582
3.016970 1.083388 -0.440576
3.016203 1.083294 -0.449099
2.987420 1.124821 -0.451376
2.987730 1.125627 -0.442831
2.979124 1.114425 -0.439825
2.978357 1.114331 -0.448348
3.026407 1.095665 -0.443685
3.026717 1.096471 -0.435140
3.018568 1.084556 -0.432157
3.017801 1.084463 -0.440679
2.986900 1.124552 -0.442710
2.987211 1.125358 -0.434165
2.979062 1.113443 -0.431182
2.978294 1.113350 -0.439704
3.075315 1.168359 -0.531447
3.067344 1.158781 -0.527728
3.062872 1.162183 -0.533038
3.070713 1.171877 -0.536879
3.056479 1.197394 -0.496830
3.048507 1.187816 -0.493111
3.044036 1.191219 -0.498421
3.051876 1.200912 -0.502262
3.067415 1.158736 -0.527651
3.059444 1.149160 -0.523931
3.055103 1.152443 -0.529123
3.062944 1.162139 -0.532961
3.048420 1.187841 -0.493180
3.040448 1.178265 -0.489460
3.036107 1.181547 -0.494651
3.043949 1.191244 -0.498490
3.059530 1.149113 -0.523843
3.051559 1.139535 -0.520125
3.047351 1.142698 -0.525198
3.055189 1.152395 -0.529035
3.040346 1.178292 -0.489540
3.032375 1.168715 -0.485822
3.028167 1.171878 -0.490895
3.036005 1.181575 -0.494731
3.051640 1.139478 -0.520031
3.043668 1.129903 -0.516311
3.039590 1.132947 -0.521265
3.047432 1.142642 -0.525105
3.032278 1.168752 -0.485908
3.024307 1.159176 -0.482188
3.020229 1.162221 -0.487142
3.028070 1.171915 -0.490981
3.043550 1.129750 -0.516246
3.035689 1.120179 -0.512362
3.031573 1.123142 -0.517243
3.039472 1.132795 -0.521200
3.024410 1.159310 -0.482245
3.016549 1.149739 -0.478361
3.012433 1.152702 -0.483242
3.020332 1.162354 -0.487199
3.035162 1.120060 -0.512546
3.027392 1.110463 -0.508472
3.023099 1.113552 -0.513260
3.031046 1.123023 -0.517427
3.017061 1.149839 -0.478169
3.009290 1.140242 -0.474095
3.004997 1.143330 -0.478883
3.012945 1.152801 -0.483050
3.026887 1.110682 -0.508912
3.019117 1.101083 -0.504839
3.014650 1.104294 -0.509537
3.022594 1.113770 -0.513701
3.009780 1.140004 -0.473646
3.002009 1.130406 -0.469573
2.997543 1.133617 -0.474271
3.005487 1.143093 -0.478434
3.018608 1.101299 -0.505252
3.010793 1.091643 -0.501154
3.006149 1.094984 -0.505759
3.014141 1.104510 -0.509951
3.002503 1.130171 -0.469151
2.994688 1.120515 -0.465053
2.990044 1.123855 -0.469658
2.998036 1.133382 -0.473850
3.023012 1.092284 -0.465834
3.022262 1.091328 -0.474493
3.030228 1.100957 -0.478404
3.031148 1.101927 -0.469584
2.985472 1.123699 -0.465707
2.984722 1.122744 -0.474366
2.992688 1.132373 -0.478277
2.993608 1.133343 -0.469457
3.031093 1.101866 -0.469909
3.030173 1.100896 -0.478729
3.038136 1.110527 -0.482640
3.039230 1.111510 -0.473658
2.993679 1.133423 -0.469139
2.992759 1.132453 -0.477959
3.000722 1.142083 -0.481870
3.001815 1.143066 -0.472888
3.039167 1.111447 -0.473966
3.038074 1.110464 -0.482947
3.046043 1.120091 -0.486858
3.047304 1.121089 -0.477715
3.001894 1.143149 -0.472588
3.000801 1.142166 -0.481570
3.008770 1.151793 -0.485481
3.010032 1.152791 -0.476338
3.047261 1.121051 -0.477967
3.046000 1.120053 -0.487110
3.053980 1.129670 -0.490948
3.055422 1.130752 -0.481744
3.010091 1.152848 -0.476093
3.008829 1.151850 -0.485236
3.016809 1.161466 -0.489075
3.018251 1.162548 -0.479871
3.055405 1.130740 -0.481870
3.053963 1.129658 -0.491074
3.061998 1.139288 -0.494825
3.063494 1.140411 -0.485650
3.018284 1.162579 -0.479753
3.016841 1.161497 -0.488957
3.024876 1.171127 -0.492708
3.026373 1.172249 -0.483533
3.063494 1.140413 -0.485694
3.061997 1.139290 -0.494869
3.070031 1.148919 -0.498621
3.071583 1.150084 -0.489473
3.026389 1.172266 -0.483498
3.024893 1.171144 -0.492673
3.032927 1.180773 -0.496425
3.034479 1.181938 -0.487278
3.071582 1.150086 -0.489518
3.070030 1.148921 -0.498665
3.078065 1.158552 -0.502416
3.079671 1.159756 -0.493298
3.034496 1.181955 -0.487241
3.032944 1.180790 -0.496388
3.040979 1.190421 -0.500139
3.042585 1.191625 -0.491021
3.079669 1.159758 -0.493342
3.078063 1.158553 -0.502460
3.086054 1.168130 -0.506192
3.087674 1.169328 -0.497082
3.042602 1.191643 -0.490985
3.040996 1.190439 -0.500103
3.048987 1.200015 -0.503835
3.050608 1.201214 -0.494726
3.022411 1.091508 -0.474545
3.021663 1.090551 -0.483204
3.029478 1.100207 -0.487302
3.030377 1.101137 -0.478456
2.984571 1.122561 -0.474332
2.983823 1.121604 -0.482990
2.991638 1.131260 -0.487088
2.992537 1.132190 -0.478242
3.030313 1.101066 -0.478801
3.029414 1.100136 -0.487647
3.037184 1.109734 -0.491721
3.038276 1.110697 -0.482712
2.992617 1.132281 -0.477905
2.991718 1.131351 -0.486751
2.999488 1.140950 -0.490824
3.000580 1.141912 -0.481816
3.038206 1.110625 -0.483042
3.037114 1.109663 -0.492050
3.044884 1.119260 -0.496124
3.046175 1.120252 -0.486952
3.000666 1.142003 -0.481494
2.999574 1.141040 -0.490503
3.007344 1.150637 -0.494577
3.008635 1.151630 -0.485405
3.046074 1.120144 -0.487178
3.044783 1.119152 -0.496350
3.052643 1.128722 -0.500234
3.054053 1.129761 -0.491017
3.008753 1.151757 -0.485186
3.007462 1.150765 -0.494359
3.015322 1.160335 -0.498243
3.016732 1.161373 -0.489025
3.053978 1.129677 -0.491095
3.052568 1.128639 -0.500313
3.060539 1.138215 -0.504033
3.062013 1.139307 -0.494847
3.016823 1.161476 -0.488954
3.015413 1.160438 -0.498172
3.023384 1.170013 -0.501892
3.024858 1.171106 -0.492705
3.062013 1.139310 -0.494889
3.060539 1.138218 -0.504075
3.068511 1.147796 -0.507794
3.070047 1.148939 -0.498641
3.024874 1.171122 -0.492671
3.023400 1.170029 -0.501857
3.031372 1.179607 -0.505575
3.032908 1.180750 -0.496423
3.070046 1.148941 -0.498682
3.068510 1.147797 -0.507835
3.076481 1.157374 -0.511555
3.078081 1.158571 -0.502434
3.032925 1.180768 -0.496389
3.031389 1.179625 -0.505541
3.039360 1.189201 -0.509262
3.040960 1.190399 -0.500140
3.078080 1.158574 -0.502476
