3.201035 0.867237 -0.173524
3.218298 0.866697 -0.163487
3.207017 0.866299 -0.144707
3.203495 0.827106 -0.140946
3.214658 0.823508 -0.159344
3.201217 0.867189 -0.173841
3.189936 0.866791 -0.155061
3.186414 0.827597 -0.151300
3.197578 0.824000 -0.169698
3.214611 0.823486 -0.159267
3.203447 0.827083 -0.140868
3.200129 0.789826 -0.137293
3.210994 0.780295 -0.155112
3.197618 0.823941 -0.169767
3.186455 0.827538 -0.151369
3.183137 0.790281 -0.147794
3.194002 0.780750 -0.165612
3.210943 0.780263 -0.155032
3.200078 0.789794 -0.137213
3.196579 0.750714 -0.133457
3.207327 0.737072 -0.150874
3.194046 0.780700 -0.165684
3.183181 0.790231 -0.147866
3.179681 0.751151 -0.144110
3.190429 0.737509 -0.161526
3.206998 0.866248 -0.144678
3.196467 0.865875 -0.127159
3.192125 0.828945 -0.122357
3.203476 0.827055 -0.140917
3.189933 0.866844 -0.155053
3.179402 0.866471 -0.137534
3.175060 0.829541 -0.132732
3.186411 0.827651 -0.151291
3.203422 0.827040 -0.140830
3.192071 0.828931 -0.122270
3.189408 0.801194 -0.119636
3.200104 0.789783 -0.137255
3.186458 0.827594 -0.151371
3.175107 0.829485 -0.132812
3.172444 0.801748 -0.130177
3.183140 0.790337 -0.147796
3.200050 0.789757 -0.137170
3.189354 0.801168 -0.119551
3.185801 0.764319 -0.115996
3.196550 0.750677 -0.133414
3.183187 0.790292 -0.147874
3.172491 0.801704 -0.130255
3.168939 0.764854 -0.126700
3.179688 0.751213 -0.144118
3.196447 0.865802 -0.127131
3.184402 0.865376 -0.107096
3.179768 0.821652 -0.102912
3.192105 0.828872 -0.122329
3.179399 0.866541 -0.137524
3.167354 0.866116 -0.117490
3.162720 0.822392 -0.113305
3.175057 0.829611 -0.132722
3.192060 0.828900 -0.122255
3.179723 0.821680 -0.102837
3.189397 0.801163 -0.119620
3.175100 0.829527 -0.132797
3.162763 0.822308 -0.113380
3.172436 0.801790 -0.130163
3.189611 0.801246 -0.119977
3.179937 0.821763 -0.103193
3.175515 0.772279 -0.096200
3.186058 0.764396 -0.116422
3.172213 0.801653 -0.129794
3.162540 0.822170 -0.113010
3.158118 0.772686 -0.106017
3.168661 0.764804 -0.126239
3.175340 0.866085 -0.074987
3.175145 0.829821 -0.075816
3.180905 0.821542 -0.105626
3.185539 0.865265 -0.109811
3.155997 0.867047 -0.079899
3.155802 0.830783 -0.080728
3.161562 0.822503 -0.110538
3.166196 0.866227 -0.114723
3.175344 0.829902 -0.076789
3.175490 0.786654 -0.077571
3.176683 0.772139 -0.099605
3.181105 0.821623 -0.106599
3.155598 0.830615 -0.079751
3.155743 0.787366 -0.080533
3.156937 0.772851 -0.102567
3.161358 0.822335 -0.109561
3.171724 0.642218 -0.180803
3.202518 0.665005 -0.190985
3.196346 0.692872 -0.168038
3.172128 0.675432 -0.159480
3.160450 0.651187 -0.194647
3.191243 0.673974 -0.204829
3.185072 0.701841 -0.181882
3.160853 0.684401 -0.173324
3.202683 0.665121 -0.191047
3.230393 0.688233 -0.199635
3.217526 0.710533 -0.174509
3.196512 0.692987 -0.168100
3.191130 0.673899 -0.204783
3.218841 0.697011 -0.213371
3.205974 0.719311 -0.188245
3.184959 0.701766 -0.181836
3.172661 0.675463 -0.159930
3.196879 0.692903 -0.168488
3.189898 0.720239 -0.145312
3.173356 0.702716 -0.139155
3.160315 0.684427 -0.172830
3.184533 0.701867 -0.181388
3.177552 0.729203 -0.158212
3.161010 0.711680 -0.152055
3.196461 0.692990 -0.168056
3.217476 0.710535 -0.174465
3.204615 0.732833 -0.149329
3.189480 0.720326 -0.144881
3.184990 0.701813 -0.181832
3.206004 0.719358 -0.188241
3.193143 0.741656 -0.163104
3.178008 0.729149 -0.158657
3.204542 0.732867 -0.149247
3.193794 0.746509 -0.131831
3.183939 0.737286 -0.129634
3.189407 0.720360 -0.144800
3.193198 0.741663 -0.163145
3.182450 0.755305 -0.145729
3.172595 0.746082 -0.143531
3.178063 0.729155 -0.158698
3.190485 0.720927 -0.145460
3.185017 0.737854 -0.130294
3.173897 0.724077 -0.125693
3.173943 0.703404 -0.139303
3.176959 0.728562 -0.158028
3.171491 0.745488 -0.142862
3.160371 0.731711 -0.138261
3.160417 0.711038 -0.151871
3.193785 0.746518 -0.131818
3.183036 0.760160 -0.114400
3.179826 0.750143 -0.118126
3.183930 0.737296 -0.129620
3.182443 0.755324 -0.145712
3.171694 0.768966 -0.128294
3.168485 0.758949 -0.132020
3.172589 0.746101 -0.143514
3.185609 0.738245 -0.130750
3.181505 0.751092 -0.119257
3.174443 0.745140 -0.112537
3.174489 0.724468 -0.126149
3.170894 0.745133 -0.142379
3.166790 0.757980 -0.130885
3.159728 0.752028 -0.124165
3.159774 0.731356 -0.137778
3.172728 0.594114 -0.226996
3.198743 0.614851 -0.226881
3.204293 0.645941 -0.206646
3.172882 0.608036 -0.205457
3.160654 0.605738 -0.237872
3.186669 0.626475 -0.237758
3.192219 0.657565 -0.217523
3.160808 0.619660 -0.216334
3.197396 0.615723 -0.225012
3.223427 0.636443 -0.224886
3.226362 0.662022 -0.212052
3.202945 0.646813 -0.204778
3.188070 0.625650 -0.239630
3.214101 0.646370 -0.239504
3.217036 0.671949 -0.226670
3.193620 0.656740 -0.219396
3.172630 0.609194 -0.204207
3.204040 0.647099 -0.205396
3.202666 0.664784 -0.191259
3.171873 0.641996 -0.181077
3.161063 0.618550 -0.217544
3.192473 0.656455 -0.218733
3.191099 0.674140 -0.204595
3.160306 0.651352 -0.194414
3.203841 0.647269 -0.205115
3.227257 0.662478 -0.212390
3.230177 0.688066 -0.199565
3.202467 0.664954 -0.190978
3.192729 0.656335 -0.219028
3.216146 0.671543 -0.226302
3.219066 0.697131 -0.213478
3.191355 0.674019 -0.204890
3.245872 0.995590 -0.210595
3.259728 0.992817 -0.234132
3.266287 1.001316 -0.233355
3.251762 1.003263 -0.206823
3.232818 1.008050 -0.219170
3.246674 1.005277 -0.242706
3.253233 1.013776 -0.241929
3.238708 1.015724 -0.215398
3.253737 1.008567 -0.205942
3.268262 1.006619 -0.232474
3.269349 1.016401 -0.230205
3.253748 1.017908 -0.206555
3.236739 1.010438 -0.216276
3.251265 1.008490 -0.242807
3.252352 1.018272 -0.240539
3.236750 1.019779 -0.216889
3.251651 1.025637 -0.208153
3.267253 1.024130 -0.231803
3.260685 1.031571 -0.235637
3.245654 1.033602 -0.211055
3.238841 1.012068 -0.215293
3.254443 1.010561 -0.238943
3.247875 1.018002 -0.242778
3.232844 1.020033 -0.218195
3.241512 0.884369 -0.205566
3.245668 0.889944 -0.239741
3.250359 0.926469 -0.233028
3.243721 0.923266 -0.206798
3.221897 0.886397 -0.208776
3.226052 0.891972 -0.242951
3.230743 0.928497 -0.236238
3.224105 0.925293 -0.210008
3.243387 0.923378 -0.205363
3.250025 0.926582 -0.231594
3.255472 0.962440 -0.230963
3.245792 0.962216 -0.207394
3.224447 0.925256 -0.211441
3.231084 0.928459 -0.237671
3.236532 0.964317 -0.237040
3.226851 0.964093 -0.213471
3.245226 0.962503 -0.205951
3.254907 0.962728 -0.229520
3.262096 0.998336 -0.233934
3.248240 1.001109 -0.210397
3.227426 0.963880 -0.214919
3.237106 0.964104 -0.238488
3.244295 0.999712 -0.242902
3.230439 1.002486 -0.219365
3.245499 0.888802 -0.239850
3.249722 0.894366 -0.274018
3.257011 0.926838 -0.258685
3.250190 0.925327 -0.233138
3.226232 0.893122 -0.242901
3.230455 0.898687 -0.277069
3.237744 0.931158 -0.261737
3.230923 0.929647 -0.236189
3.249763 0.925400 -0.231391
3.256584 0.926912 -0.256939
3.266172 0.961229 -0.254346
3.255210 0.961259 -0.230761
3.231363 0.929643 -0.237923
3.238184 0.931154 -0.263471
3.247773 0.965472 -0.260878
3.236811 0.965501 -0.237292
3.254704 0.961821 -0.229355
3.265666 0.961791 -0.252941
3.275759 0.994652 -0.257295
3.261892 0.997429 -0.233769
3.237334 0.965008 -0.238700
3.248296 0.964979 -0.262286
3.258389 0.997840 -0.266639
3.244522 1.000617 -0.243114
3.241062 0.862400 -0.206919
3.242246 0.861988 -0.244479
3.245786 0.890056 -0.240672
3.241631 0.884481 -0.206497
3.221204 0.864141 -0.208272
3.222388 0.863729 -0.245832
3.225928 0.891797 -0.242024
3.221773 0.886223 -0.207850
3.242143 0.861156 -0.244568
3.243365 0.860742 -0.282128
3.249907 0.894789 -0.274929
3.245684 0.889224 -0.240761
3.222496 0.864566 -0.245815
3.223718 0.864152 -0.283374
3.230259 0.898199 -0.276175
3.226036 0.892634 -0.242007
3.242663 0.691450 -0.256272
3.243099 0.734621 -0.259839
3.239656 0.734452 -0.232464
3.238557 0.690489 -0.230647
3.222883 0.691625 -0.259085
3.223319 0.734796 -0.262653
3.219876 0.734626 -0.235278
3.218777 0.690663 -0.233461
3.243150 0.735013 -0.260297
3.242422 0.776721 -0.272634
3.240053 0.778214 -0.239908
3.239707 0.734844 -0.232921
3.223269 0.734490 -0.262208
3.222540 0.776197 -0.274545
3.220172 0.777691 -0.241819
3.219825 0.734320 -0.234833
3.242456 0.776474 -0.273052
3.242421 0.818198 -0.280978
3.240986 0.820891 -0.243960
3.240088 0.777968 -0.240325
3.222506 0.776528 -0.274143
3.222471 0.818252 -0.282069
3.221035 0.820945 -0.245051
3.220138 0.778022 -0.241417
3.242426 0.817998 -0.281160
3.243518 0.862140 -0.282386
3.242296 0.862554 -0.244827
3.240991 0.820691 -0.244142
3.222467 0.818538 -0.281893
3.223559 0.862680 -0.283120
3.222337 0.863094 -0.245561
3.221032 0.821231 -0.244876
3.238547 0.690298 -0.230602
3.239646 0.734260 -0.232419
3.236202 0.736082 -0.205375
3.234522 0.692362 -0.205107
3.218779 0.690856 -0.233453
3.219878 0.734819 -0.235270
3.216434 0.736641 -0.208227
3.214755 0.692921 -0.207958
3.239709 0.734431 -0.232924
3.240056 0.777802 -0.239911
3.237923 0.780042 -0.206154
3.236265 0.736253 -0.205881
3.219817 0.734735 -0.234769
3.220164 0.778106 -0.241756
3.218031 0.780345 -0.207999
3.216373 0.736557 -0.207726
3.240084 0.777725 -0.240324
3.240982 0.820648 -0.243958
3.239627 0.823960 -0.206841
3.237951 0.779965 -0.206567
3.220138 0.778270 -0.241348
3.221036 0.821193 -0.244983
3.219681 0.824504 -0.207865
3.218005 0.780509 -0.207592
3.240988 0.820623 -0.244116
3.242293 0.862486 -0.244800
3.241109 0.862898 -0.207241
3.239633 0.823935 -0.206998
3.221032 0.821302 -0.244828
3.222337 0.863165 -0.245512
3.221154 0.863577 -0.207953
3.219678 0.824613 -0.207710
3.239771 0.860096 -0.275321
3.262337 0.854059 -0.294118
3.267735 0.894851 -0.287675
3.246312 0.894142 -0.268122
3.227337 0.864798 -0.290236
3.249903 0.858762 -0.309033
3.255300 0.899554 -0.302590
3.233878 0.898845 -0.283037
3.261759 0.854305 -0.293604
3.291245 0.851624 -0.315535
3.291290 0.896808 -0.303162
3.267157 0.895097 -0.287161
3.250530 0.858513 -0.309585
3.280016 0.855832 -0.331516
3.280061 0.901016 -0.319143
3.255927 0.899305 -0.303142
3.291326 0.895070 -0.303870
3.292219 0.923672 -0.291140
3.274924 0.921870 -0.276839
3.267193 0.893359 -0.287870
3.280031 0.902825 -0.318413
3.280925 0.931428 -0.305683
3.263630 0.929625 -0.291381
3.255898 0.901115 -0.302412
3.293359 0.926038 -0.291233
3.294114 0.955725 -0.287234
3.281941 0.956541 -0.273874
3.276063 0.924235 -0.276931
3.279793 0.929122 -0.305574
3.280548 0.958809 -0.301576
3.268376 0.959625 -0.288216
3.262498 0.927319 -0.291273
3.295925 0.958345 -0.289419
3.296962 0.985417 -0.304321
3.286642 0.989898 -0.280057
3.283753 0.959160 -0.276059
3.278742 0.956250 -0.299397
3.279778 0.983322 -0.314299
3.269459 0.987803 -0.290034
3.266570 0.957065 -0.286037
3.267768 0.892897 -0.288642
3.275499 0.921408 -0.277611
3.253634 0.924660 -0.253757
3.246345 0.892188 -0.269089
3.255281 0.901576 -0.301603
3.263012 0.930086 -0.290571
3.241148 0.933338 -0.266717
3.233859 0.900867 -0.282050
3.276491 0.923548 -0.277558
3.282369 0.955853 -0.274501
3.264215 0.961117 -0.251111
3.254627 0.926800 -0.253704
3.262035 0.928011 -0.290608
3.267913 0.960316 -0.287551
3.249759 0.965580 -0.264161
3.240170 0.931262 -0.266754
3.283450 0.957141 -0.275556
3.286340 0.987879 -0.279554
3.275389 0.995266 -0.256520
3.265296 0.962405 -0.252166
3.266846 0.959094 -0.286498
3.269736 0.989831 -0.290495
3.258786 0.997218 -0.267461
3.248692 0.964358 -0.263107
3.176069 1.079932 -0.076368
3.176600 1.063031 -0.076826
3.191001 1.053183 -0.118588
3.191667 1.077551 -0.122988
3.157133 1.079387 -0.082720
3.157665 1.062486 -0.083178
3.172066 1.052638 -0.124939
3.172732 1.077006 -0.129340
3.176561 1.062585 -0.076704
3.176492 1.045670 -0.077323
3.190962 1.052737 -0.118466
3.157699 1.062904 -0.083284
3.157629 1.045988 -0.083903
3.172099 1.053056 -0.125046
3.176464 1.046067 -0.077251
3.177005 1.029165 -0.077710
3.190125 1.028756 -0.114078
3.190935 1.053135 -0.118394
3.157661 1.045561 -0.083988
3.158201 1.028659 -0.084446
3.171321 1.028249 -0.120815
3.172132 1.052628 -0.125130
3.229097 1.064158 -0.179987
3.208988 1.070825 -0.150936
3.208140 1.049839 -0.146242
3.226213 1.046376 -0.176088
3.212284 1.063390 -0.190754
3.192175 1.070057 -0.161703
3.191327 1.049071 -0.157009
3.209400 1.045608 -0.186855
3.226347 1.046702 -0.176338
3.208274 1.050165 -0.146492
3.207191 1.029158 -0.141938
3.225084 1.029086 -0.171493
3.209263 1.045243 -0.186595
3.191190 1.048706 -0.156749
3.190107 1.027700 -0.152195
3.208000 1.027627 -0.181750
3.209125 1.071182 -0.151195
3.190778 1.078009 -0.121107
3.190112 1.053641 -0.116707
3.208277 1.050195 -0.146501
3.192001 1.069710 -0.161384
3.173654 1.076537 -0.131296
3.172988 1.052170 -0.126895
3.191153 1.048724 -0.156690
3.208251 1.050087 -0.146443
3.190086 1.053533 -0.116648
3.189276 1.029153 -0.112333
3.207168 1.029081 -0.141889
3.191177 1.048787 -0.156739
3.173012 1.052232 -0.126944
3.172202 1.027853 -0.122629
3.190095 1.027781 -0.152184
3.247787 1.027614 -0.209506
3.226385 1.046752 -0.176409
3.225122 1.029136 -0.171564
3.230660 1.026045 -0.219675
3.209258 1.045184 -0.186578
3.207994 1.027568 -0.181732
3.247840 1.027167 -0.209546
3.247338 1.057950 -0.212808
3.229322 1.064088 -0.180348
3.226438 1.046306 -0.176449
3.230617 1.026521 -0.219653
3.230115 1.057304 -0.222915
3.212099 1.063442 -0.190455
3.209215 1.045660 -0.186556
3.276772 1.023459 -0.256899
3.277349 1.049163 -0.261066
3.262848 1.053712 -0.236654
3.262869 1.025343 -0.234143
3.259616 1.022378 -0.267083
3.260193 1.048081 -0.271249
3.245692 1.052630 -0.246838
3.245713 1.024262 -0.244326
3.262746 1.025394 -0.233946
3.262725 1.053763 -0.236458
3.247214 1.058208 -0.212626
3.247716 1.027425 -0.209364
3.245807 1.024217 -0.244475
3.245785 1.052585 -0.246987
3.230274 1.057030 -0.223155
3.230776 1.026247 -0.219892
3.297497 0.984213 -0.305255
3.298997 1.016846 -0.306253
3.288044 1.020829 -0.282316
3.287178 0.988694 -0.280991
3.279246 0.984588 -0.313376
3.280746 1.017222 -0.314374
3.269792 1.021204 -0.290436
3.268927 0.989069 -0.289111
3.287110 0.988676 -0.280841
3.287976 1.020811 -0.282167
3.277275 1.022679 -0.257827
3.276160 0.996063 -0.257807
3.268973 0.989096 -0.289213
3.269839 1.021231 -0.290538
3.259138 1.023098 -0.266198
3.258023 0.996483 -0.266178
3.298792 1.017262 -0.305820
3.301351 1.043046 -0.309657
3.288286 1.044534 -0.286191
3.287838 1.021245 -0.281883
3.280954 1.016863 -0.314812
3.283513 1.042646 -0.318649
3.270448 1.044134 -0.295183
3.270000 1.020845 -0.290875
3.288078 1.021536 -0.282421
3.288525 1.044826 -0.286729
3.277953 1.049108 -0.262248
3.277377 1.023404 -0.258081
3.269738 1.020559 -0.290289
3.270186 1.043848 -0.294597
3.259614 1.048130 -0.270116
3.259037 1.022427 -0.265949
3.310576 1.011447 -0.343749
3.310574 1.038866 -0.347935
3.310489 1.040923 -0.328832
3.310579 1.014841 -0.330808
3.290596 1.011411 -0.343794
3.290594 1.038830 -0.347980
3.290509 1.040886 -0.328877
3.290599 1.014805 -0.330853
3.308672 0.982904 -0.326871
3.311120 0.976902 -0.342379
3.310534 1.011255 -0.342867
3.310537 1.014649 -0.329926
3.288775 0.983193 -0.328677
3.291224 0.977190 -0.344184
3.290637 1.011543 -0.344672
3.290641 1.014937 -0.331731
3.309363 1.014637 -0.326049
3.298662 1.016872 -0.305572
3.297162 0.984238 -0.304574
3.307498 0.982893 -0.322994
3.291803 1.014955 -0.335575
3.281102 1.017190 -0.315098
3.279602 0.984557 -0.314100
3.289938 0.983211 -0.332520
3.309383 1.014576 -0.326088
3.309293 1.040658 -0.324113
3.301241 1.042595 -0.309449
3.298682 1.016811 -0.305612
3.291786 1.015075 -0.335538
3.291696 1.041156 -0.333563
3.283644 1.043093 -0.318899
3.281085 1.017309 -0.315062
3.310270 0.973876 -0.340620
3.307821 0.979879 -0.325113
3.296968 0.955354 -0.316962
3.292065 0.980168 -0.345930
3.289617 0.986171 -0.330423
3.278763 0.961647 -0.322272
3.296183 0.902331 -0.322950
3.297039 0.931199 -0.321110
3.296564 0.927197 -0.298224
3.295671 0.898595 -0.310954
3.276220 0.903042 -0.323358
3.277076 0.931910 -0.321518
3.276601 0.927908 -0.298631
3.275708 0.899306 -0.311362
3.297043 0.931291 -0.321134
3.297841 0.958180 -0.319421
3.297323 0.956977 -0.294249
3.296568 0.927290 -0.298248
3.277074 0.931875 -0.321483
3.277872 0.958763 -0.319770
3.277355 0.957561 -0.294599
3.276599 0.927873 -0.298597
3.308794 0.914608 -0.340718
3.309311 0.945565 -0.339521
3.295727 0.931113 -0.316378
3.294871 0.902245 -0.318218
3.291469 0.915508 -0.350629
3.291986 0.946465 -0.349433
3.278402 0.932013 -0.326290
3.277547 0.903146 -0.328130
3.309433 0.945606 -0.339738
3.309950 0.976564 -0.338540
3.296648 0.958043 -0.314881
3.295850 0.931154 -0.316595
3.291865 0.946483 -0.349213
3.292382 0.977441 -0.348015
3.279079 0.958919 -0.324357
3.278281 0.932031 -0.326070
3.315105 0.905283 -0.512348
3.313889 0.907568 -0.470563
3.310131 0.861329 -0.474626
3.313685 0.859282 -0.512547
3.295199 0.906459 -0.513604
3.293983 0.908744 -0.471819
3.290225 0.862504 -0.475882
3.293779 0.860458 -0.513802
3.313814 0.907550 -0.469818
3.307522 0.903976 -0.435738
3.306524 0.863356 -0.435959
3.310056 0.861311 -0.473881
3.294050 0.908764 -0.472488
3.287758 0.905190 -0.438409
3.286761 0.864570 -0.438630
3.290293 0.862524 -0.476552
3.307576 0.904350 -0.436066
3.303788 0.903708 -0.398140
3.302991 0.865778 -0.398368
3.306578 0.863731 -0.436286
3.287696 0.904815 -0.438008
3.283908 0.904174 -0.400081
3.283111 0.866243 -0.400310
3.286698 0.864196 -0.438228
3.303785 0.903748 -0.398096
3.299967 0.903106 -0.360171
3.299383 0.867866 -0.360410
3.302988 0.865817 -0.398325
3.283904 0.904136 -0.400049
3.280087 0.903494 -0.362123
3.279502 0.868254 -0.362363
3.283107 0.866205 -0.400278
3.299965 0.903155 -0.360138
3.296145 0.902512 -0.322211
3.295588 0.853592 -0.322588
3.299380 0.867914 -0.360377
3.280082 0.903439 -0.362081
3.276262 0.902796 -0.324154
3.275704 0.853876 -0.324531
3.279497 0.868198 -0.362320
3.313671 0.859517 -0.512244
3.310118 0.861563 -0.474323
3.308858 0.818255 -0.474536
3.312205 0.813518 -0.512445
3.293788 0.860132 -0.514108
3.290235 0.862179 -0.476187
3.288974 0.818871 -0.476400
3.292321 0.814133 -0.514309
3.310116 0.861594 -0.474291
3.306584 0.863640 -0.436369
3.305515 0.823022 -0.436594
3.308856 0.818285 -0.474504
3.290230 0.862155 -0.476143
3.286698 0.864201 -0.438222
3.285629 0.823583 -0.438446
3.288970 0.818847 -0.476356
3.306581 0.863677 -0.436324
3.302993 0.865724 -0.398406
3.302152 0.827795 -0.398641
3.305512 0.823059 -0.436549
3.286694 0.864171 -0.438191
3.283107 0.866219 -0.400273
3.282265 0.828290 -0.400507
3.285626 0.823553 -0.438415
3.302991 0.865771 -0.398367
3.299386 0.867819 -0.360453
3.298771 0.832579 -0.360696
3.302149 0.827842 -0.398602
3.283102 0.866179 -0.400236
3.279498 0.868227 -0.362321
3.278883 0.832987 -0.362564
3.282261 0.828250 -0.400470
3.312206 0.813473 -0.512478
3.308859 0.818210 -0.474569
3.307605 0.774902 -0.474780
3.310734 0.767474 -0.512678
3.292317 0.814088 -0.514276
3.288970 0.818826 -0.476367
3.287716 0.775517 -0.476578
3.290845 0.768090 -0.514476
3.308857 0.818247 -0.474536
3.305517 0.822983 -0.436626
3.304467 0.782364 -0.436849
3.307603 0.774938 -0.474747
3.288965 0.818802 -0.476324
3.285625 0.823538 -0.438414
3.284575 0.782920 -0.438637
3.287711 0.775493 -0.476536
3.305515 0.823024 -0.436590
3.302154 0.827761 -0.398683
3.301328 0.789832 -0.398915
3.304465 0.782405 -0.436814
3.285621 0.823509 -0.438374
3.282260 0.828246 -0.400466
3.281434 0.790317 -0.400699
3.284571 0.782891 -0.438597
3.302153 0.827812 -0.398650
3.298775 0.832549 -0.360743
3.298190 0.797309 -0.360984
3.301326 0.789883 -0.398882
3.282255 0.828207 -0.400423
3.278877 0.832944 -0.362517
3.278292 0.797704 -0.362757
3.281429 0.790278 -0.400656
3.298773 0.832617 -0.360712
3.295595 0.853534 -0.322681
3.295052 0.804803 -0.323054
3.298188 0.797376 -0.360953
3.278873 0.832897 -0.362472
3.275695 0.853814 -0.324440
3.275152 0.805084 -0.324813
3.278288 0.797657 -0.362712
3.301696 0.693376 -0.334568
3.302610 0.693137 -0.370391
3.305542 0.737865 -0.371412
3.304792 0.739929 -0.335909
3.281765 0.694679 -0.335075
3.282679 0.694441 -0.370897
3.285611 0.739168 -0.371919
3.284861 0.741232 -0.336415
3.302611 0.693146 -0.370426
3.303531 0.692905 -0.406247
3.306287 0.735812 -0.406953
3.305543 0.737874 -0.371448
3.282679 0.694430 -0.370933
3.283599 0.694189 -0.406753
3.286355 0.737096 -0.407459
3.285611 0.739157 -0.371954
3.303533 0.692918 -0.406287
3.304448 0.692679 -0.442108
3.307009 0.733763 -0.442497
3.306289 0.735825 -0.406993
3.283599 0.694173 -0.406784
3.284513 0.693935 -0.442606
3.287075 0.735018 -0.442994
3.286355 0.737081 -0.407490
3.304449 0.692694 -0.442140
3.305370 0.692452 -0.477961
3.307752 0.731716 -0.478033
3.307011 0.733777 -0.442529
3.284513 0.693918 -0.442645
3.285434 0.693676 -0.478466
3.287816 0.732940 -0.478537
3.287075 0.735001 -0.443034
3.305372 0.692465 -0.477997
3.306289 0.692226 -0.513817
3.308506 0.729664 -0.513573
3.307754 0.731728 -0.478068
3.285434 0.693661 -0.478502
3.286351 0.693423 -0.514322
3.288568 0.730861 -0.514078
3.287816 0.732925 -0.478573
3.304796 0.739974 -0.335922
3.305545 0.737910 -0.371425
3.308473 0.782640 -0.372448
3.307900 0.786524 -0.337261
3.284864 0.741278 -0.336405
3.285614 0.739215 -0.371908
3.288541 0.783944 -0.372931
3.287968 0.787829 -0.337744
3.305547 0.737918 -0.371463
3.306290 0.735857 -0.406968
3.309044 0.778761 -0.407673
3.308474 0.782648 -0.372486
3.285614 0.739201 -0.371941
3.286357 0.737139 -0.407446
3.289111 0.780044 -0.408151
3.288541 0.783931 -0.372964
3.306292 0.735862 -0.407006
3.307012 0.733799 -0.442511
3.309619 0.774883 -0.442899
3.309045 0.778766 -0.407712
3.286357 0.737128 -0.407478
3.287077 0.735066 -0.442982
3.289685 0.776149 -0.443370
3.289111 0.780033 -0.408183
3.307029 0.734140 -0.442955
3.307770 0.732078 -0.478458
3.307643 0.774880 -0.475818
3.309636 0.775223 -0.443343
3.287060 0.734721 -0.442607
3.287802 0.732659 -0.478111
3.287674 0.775461 -0.475471
3.289668 0.775804 -0.442996
3.307757 0.732082 -0.477756
3.308509 0.730018 -0.513260
3.310758 0.767456 -0.513014
3.307629 0.774883 -0.475116
3.287817 0.732650 -0.478884
3.288569 0.730586 -0.514388
3.290818 0.768024 -0.514142
3.287689 0.775451 -0.476244
3.169802 0.589423 -0.326878
3.213689 0.619377 -0.331785
3.208819 0.615922 -0.307092
3.170999 0.590290 -0.303311
3.158566 0.605944 -0.326847
3.202453 0.635898 -0.331754
3.197582 0.632443 -0.307062
3.159762 0.606811 -0.303280
3.171019 0.590304 -0.303350
3.208839 0.615936 -0.307131
3.205283 0.613549 -0.282951
3.171233 0.589954 -0.279753
3.159739 0.606795 -0.303194
3.197559 0.632427 -0.306975
3.194003 0.630039 -0.282795
3.159953 0.606444 -0.279597
3.171401 0.590077 -0.279367
3.205452 0.613672 -0.282565
3.207357 0.616555 -0.257486
3.171787 0.590528 -0.255771
3.159783 0.606321 -0.279933
3.193834 0.629917 -0.283131
3.195739 0.632800 -0.258052
3.160168 0.606772 -0.256337
3.214318 0.619842 -0.331559
3.256233 0.652776 -0.333281
3.242911 0.643094 -0.310747
3.209447 0.616387 -0.306866
3.201904 0.635492 -0.331988
3.243818 0.668425 -0.333710
3.230497 0.658744 -0.311176
3.197033 0.632036 -0.307295
3.209461 0.616396 -0.306936
3.242925 0.643104 -0.310816
3.231910 0.634609 -0.287307
3.205905 0.614009 -0.282755
3.197002 0.632014 -0.307178
3.230466 0.658722 -0.311059
3.219451 0.650228 -0.287550
3.193447 0.629627 -0.282998
3.205817 0.613945 -0.282559
3.231822 0.634545 -0.287111
3.226413 0.630866 -0.259990
3.207722 0.616828 -0.257480
3.193526 0.629686 -0.283144
3.219530 0.650286 -0.287696
3.214122 0.646607 -0.260575
3.195431 0.632569 -0.258064
3.256383 0.652922 -0.332840
3.298019 0.686273 -0.334134
3.272305 0.667559 -0.314330
3.243061 0.643240 -0.310306
3.243741 0.668338 -0.334156
3.285377 0.701689 -0.335450
3.259663 0.682975 -0.315646
3.230420 0.658656 -0.311622
3.243324 0.643476 -0.310177
3.272568 0.667795 -0.314200
3.249625 0.650990 -0.291303
3.232309 0.634982 -0.286668
3.230120 0.658393 -0.311707
3.259364 0.682712 -0.315731
3.236420 0.665906 -0.292834
3.219105 0.649899 -0.288198
3.232619 0.635248 -0.286906
3.249934 0.651255 -0.291541
3.238619 0.642652 -0.263713
3.227211 0.631568 -0.259784
3.218770 0.649614 -0.287909
3.236085 0.665622 -0.292545
3.224770 0.657019 -0.264716
3.213361 0.645935 -0.260788
3.169820 0.589437 -0.327060
3.169175 0.589612 -0.363920
3.212788 0.619623 -0.367987
3.213707 0.619391 -0.331967
3.158550 0.605932 -0.326726
3.157905 0.606107 -0.363587
3.201518 0.636118 -0.367653
3.202437 0.635886 -0.331633
3.169210 0.589637 -0.363961
3.168564 0.589808 -0.400823
3.211763 0.619816 -0.403972
3.212823 0.619648 -0.368028
3.157869 0.606082 -0.363619
3.157223 0.606254 -0.400481
3.200421 0.636261 -0.403629
3.201482 0.636094 -0.367685
3.168602 0.589835 -0.400861
3.167962 0.590008 -0.437722
3.210609 0.619920 -0.439881
3.211801 0.619843 -0.404009
3.157183 0.606227 -0.400517
3.156542 0.606399 -0.437378
3.199189 0.636311 -0.439537
3.200381 0.636234 -0.403665
3.168003 0.590037 -0.437762
3.167359 0.590205 -0.474623
3.210800 0.620998 -0.475765
3.210650 0.619950 -0.439921
3.156500 0.606370 -0.437411
3.155855 0.606538 -0.474272
3.199297 0.637330 -0.475414
3.199147 0.636282 -0.439570
3.167394 0.590231 -0.474647
3.166754 0.590401 -0.511509
3.211455 0.622291 -0.511639
3.210836 0.621023 -0.475789
3.155820 0.606513 -0.474321
3.155179 0.606683 -0.511183
3.199881 0.638574 -0.511314
3.199261 0.637306 -0.475463
3.214238 0.619777 -0.331924
3.213319 0.620009 -0.367944
3.256166 0.652875 -0.369462
3.256152 0.652711 -0.333646
3.201992 0.635563 -0.331683
3.201074 0.635795 -0.367703
3.243921 0.668661 -0.369221
3.243907 0.668497 -0.333405
3.213223 0.619936 -0.367979
3.212162 0.620104 -0.403923
3.256166 0.652986 -0.405318
3.256070 0.652801 -0.369497
3.201169 0.635869 -0.367739
3.200109 0.636036 -0.403683
3.244113 0.668919 -0.405077
3.244016 0.668734 -0.369257
3.212060 0.620028 -0.403955
3.210868 0.620105 -0.439827
3.256249 0.653123 -0.441170
3.256064 0.652911 -0.405349
3.200209 0.636112 -0.403723
3.199017 0.636189 -0.439595
3.244397 0.669207 -0.440938
3.244213 0.668995 -0.405118
3.210763 0.620029 -0.439854
3.210913 0.621077 -0.475699
3.256426 0.653260 -0.477021
3.256143 0.653047 -0.441198
3.199122 0.636266 -0.439639
3.199272 0.637314 -0.475483
3.244785 0.669497 -0.476805
3.244502 0.669284 -0.440982
3.210806 0.621001 -0.475717
3.211425 0.622269 -0.511567
3.256705 0.653401 -0.512863
3.256318 0.653184 -0.477038
3.199381 0.637391 -0.475537
3.200000 0.638659 -0.511388
3.245280 0.669791 -0.512684
3.244893 0.669575 -0.476859
3.256255 0.652791 -0.333439
3.256269 0.652954 -0.369255
3.298805 0.685903 -0.370554
3.297891 0.686142 -0.334732
3.243889 0.668483 -0.333615
3.243903 0.668647 -0.369431
3.286439 0.701596 -0.370731
3.285525 0.701835 -0.334909
3.256144 0.652857 -0.369287
3.256240 0.653042 -0.405107
3.299600 0.685565 -0.406407
3.298680 0.685806 -0.370586
3.244029 0.668744 -0.369471
3.244125 0.668929 -0.405291
3.287485 0.701452 -0.406591
3.286565 0.701693 -0.370771
3.256120 0.652952 -0.405141
3.256304 0.653164 -0.440961
3.300394 0.685236 -0.442262
3.299480 0.685474 -0.406441
3.244246 0.669019 -0.405329
3.244430 0.669231 -0.441149
3.288520 0.701304 -0.442450
3.287606 0.701542 -0.406629
3.256191 0.653081 -0.440990
3.256474 0.653294 -0.476813
3.301202 0.684911 -0.478112
3.300281 0.685153 -0.442291
3.244545 0.669314 -0.441192
3.244827 0.669528 -0.477015
3.289555 0.701145 -0.478314
3.288635 0.701386 -0.442493
3.256369 0.653220 -0.476844
3.256755 0.653437 -0.512668
3.302014 0.684598 -0.513962
3.301097 0.684837 -0.478142
3.244933 0.669602 -0.477057
3.245320 0.669819 -0.512881
3.290578 0.700981 -0.514175
3.289662 0.701219 -0.478355
3.224897 0.633569 -0.231230
3.198866 0.612849 -0.231356
3.207706 0.616874 -0.256759
3.226397 0.630912 -0.259269
3.212631 0.649217 -0.233203
3.186600 0.628497 -0.233329
3.195440 0.632521 -0.258732
3.214131 0.646559 -0.261242
3.198748 0.612716 -0.231787
3.172733 0.591978 -0.231902
3.172017 0.590713 -0.255474
3.207588 0.616740 -0.257190
3.186665 0.628589 -0.232897
3.160650 0.607852 -0.233012
3.159935 0.606587 -0.256584
3.195505 0.632614 -0.258299
3.241420 0.648937 -0.262097
3.242497 0.690574 -0.255591
3.238391 0.689613 -0.229967
3.235840 0.667730 -0.234724
3.221969 0.650789 -0.266275
3.223047 0.692426 -0.259769
3.218941 0.691464 -0.234144
3.216390 0.669582 -0.238902
3.241042 0.647810 -0.261315
3.235462 0.666603 -0.233942
3.231068 0.664961 -0.216514
3.228133 0.639383 -0.229348
3.222337 0.651880 -0.267038
3.216757 0.670673 -0.239665
3.212363 0.669032 -0.222236
3.209428 0.643454 -0.235070
3.235747 0.666844 -0.234881
3.238297 0.688726 -0.230123
3.234273 0.690791 -0.204629
3.231353 0.665203 -0.217453
3.216474 0.670478 -0.238697
3.219025 0.692360 -0.233939
3.215000 0.694425 -0.208444
3.212080 0.668837 -0.221269
3.310124 0.914926 -0.345418
3.311423 0.912634 -0.387202
3.311704 0.944035 -0.386379
3.310641 0.945884 -0.344222
3.290154 0.915201 -0.345994
3.291453 0.912908 -0.387778
3.291735 0.944309 -0.386955
3.290671 0.946158 -0.344797
3.311425 0.912725 -0.387266
3.312695 0.910439 -0.429054
3.312655 0.942282 -0.428603
3.311707 0.944127 -0.386443
3.291453 0.912812 -0.387798
3.292722 0.910526 -0.429586
3.292682 0.942369 -0.429134
3.291734 0.944214 -0.386975
3.312696 0.910541 -0.429111
3.313922 0.908258 -0.470897
3.313561 0.940541 -0.470823
3.312656 0.942384 -0.428660
3.292723 0.910420 -0.429613
3.293949 0.908137 -0.471399
3.293588 0.940421 -0.471324
3.292683 0.942263 -0.429161
3.313922 0.908324 -0.470920
3.315139 0.906038 -0.512705
3.314671 0.938767 -0.513001
3.313561 0.940607 -0.470845
3.293951 0.908067 -0.471460
3.295168 0.905782 -0.513245
3.294700 0.938511 -0.513542
3.293590 0.940351 -0.471386
3.310643 0.945945 -0.344301
3.311707 0.944096 -0.386459
3.311817 0.975497 -0.385637
3.311160 0.976903 -0.343103
3.290669 0.946159 -0.344715
3.291733 0.944311 -0.386873
3.291843 0.975712 -0.386052
3.291186 0.977117 -0.343517
3.311709 0.944201 -0.386513
3.312657 0.942356 -0.428672
3.312529 0.974198 -0.428225
3.311819 0.975602 -0.385691
3.291733 0.944203 -0.386904
3.292680 0.942359 -0.429063
3.292553 0.974201 -0.428616
3.291843 0.975604 -0.386082
3.312657 0.942401 -0.428704
3.313562 0.940558 -0.470867
3.313388 0.972844 -0.470787
3.312529 0.974243 -0.428257
3.292682 0.942310 -0.429117
3.293587 0.940468 -0.471279
3.293412 0.972753 -0.471200
3.292554 0.974153 -0.428669
3.313562 0.940624 -0.470903
3.314672 0.938785 -0.513059
3.314116 0.971511 -0.513359
3.313388 0.972910 -0.470824
3.293588 0.940398 -0.471328
3.294698 0.938559 -0.513484
3.294142 0.971285 -0.513784
3.293414 0.972684 -0.471249
3.311160 0.977234 -0.343178
3.311817 0.975828 -0.385712
3.311153 1.007289 -0.386169
3.310574 1.011587 -0.343666
3.291186 0.976850 -0.343442
3.291843 0.975445 -0.385976
3.291178 1.006906 -0.386434
3.290599 1.011204 -0.343930
3.311817 0.975829 -0.385713
3.312527 0.974426 -0.428247
3.311976 1.006118 -0.428738
3.311153 1.007290 -0.386170
3.291844 0.975440 -0.386061
3.292554 0.974036 -0.428595
3.292003 1.005728 -0.429086
3.291180 1.006901 -0.386518
3.312527 0.974444 -0.428297
3.313386 0.973044 -0.470827
3.312587 1.005182 -0.471374
3.311976 1.006136 -0.428788
3.292555 0.974016 -0.428630
3.293413 0.972617 -0.471160
3.292615 1.004755 -0.471707
3.292004 1.005708 -0.429121
3.313385 0.973095 -0.470886
3.314114 0.971697 -0.513421
3.313196 1.004553 -0.513924
3.312587 1.005234 -0.471433
3.293415 0.972563 -0.471187
3.294143 0.971164 -0.513722
3.293225 1.004021 -0.514225
3.292617 1.004701 -0.471734
3.310575 1.011429 -0.343651
3.311154 1.007131 -0.386154
3.311253 1.038402 -0.389307
3.310573 1.038848 -0.347837
3.290597 1.011425 -0.343950
3.291176 1.007126 -0.386453
3.291275 1.038398 -0.389606
3.290595 1.038843 -0.348136
3.311154 1.007108 -0.386146
3.311977 1.005936 -0.428715
3.312100 1.037930 -0.430767
3.311253 1.038380 -0.389300
3.291178 1.007146 -0.386544
3.292001 1.005974 -0.429113
3.292124 1.037968 -0.431164
3.291277 1.038417 -0.389697
3.311979 1.005931 -0.428817
3.312590 1.004978 -0.471403
3.312656 1.037479 -0.472340
3.312102 1.037925 -0.430869
3.292001 1.005977 -0.429095
3.292612 1.005023 -0.471680
3.292678 1.037525 -0.472618
3.292124 1.037971 -0.431146
3.312591 1.005032 -0.471479
3.313199 1.004351 -0.513970
3.312933 1.037084 -0.513892
3.312657 1.037533 -0.472417
3.292612 1.004968 -0.471688
3.293221 1.004287 -0.514180
3.292954 1.037020 -0.514101
3.292678 1.037469 -0.472626
3.298769 0.832606 -0.360668
3.299384 0.867846 -0.360425
3.295591 0.853523 -0.322636
3.278879 0.832966 -0.362528
3.279494 0.868206 -0.362285
3.275701 0.853883 -0.324496
3.304792 0.739931 -0.335864
3.304174 0.733049 -0.329957
3.301695 0.693379 -0.334524
3.284862 0.741241 -0.336420
3.284245 0.734359 -0.330513
3.281766 0.694689 -0.335080
3.309849 0.903505 -0.428728
3.308580 0.905792 -0.386941
3.300996 0.897007 -0.398509
3.304783 0.897649 -0.436435
3.295561 0.917421 -0.429922
3.294292 0.919707 -0.388134
3.286708 0.910922 -0.399702
3.290495 0.911564 -0.437629
3.308578 0.905794 -0.386895
3.307279 0.908087 -0.345111
3.297177 0.896367 -0.360538
3.300994 0.897009 -0.398463
3.294288 0.919706 -0.388100
3.292990 0.921999 -0.346316
3.282887 0.910280 -0.361743
3.286704 0.910921 -0.399669
3.302397 0.788746 -0.438256
3.299259 0.796172 -0.400358
3.306952 0.785547 -0.408492
3.307526 0.781663 -0.443679
3.286645 0.776502 -0.437162
3.283508 0.783928 -0.399263
3.291201 0.773303 -0.407397
3.291775 0.769420 -0.442584
3.299256 0.796179 -0.400322
3.296120 0.803605 -0.362424
3.306380 0.789440 -0.373269
3.306949 0.785553 -0.408456
3.283507 0.783933 -0.399226
3.280370 0.791359 -0.361327
3.290630 0.777195 -0.372173
3.291200 0.773308 -0.407359
3.296118 0.803610 -0.362387
3.292982 0.811037 -0.324488
3.305805 0.793330 -0.338045
3.306378 0.789446 -0.373232
3.280368 0.791365 -0.361291
3.277232 0.798792 -0.323392
3.290055 0.781085 -0.336949
3.290628 0.777200 -0.372136
3.307277 0.908087 -0.345081
3.293355 0.895725 -0.322582
3.297175 0.896368 -0.360508
3.292983 0.921995 -0.346285
3.279060 0.909632 -0.323786
3.282880 0.910276 -0.361712
3.307121 0.717719 -0.544869
3.308599 0.749928 -0.538506
3.308512 0.729768 -0.514110
3.306294 0.692330 -0.514354
3.287173 0.718729 -0.544363
3.288651 0.750938 -0.538000
3.288564 0.730778 -0.513603
3.286346 0.693340 -0.513848
3.308590 0.749943 -0.538758
3.309993 0.781247 -0.538278
3.310753 0.767222 -0.514116
3.308503 0.729784 -0.514362
3.288663 0.750991 -0.537744
3.290066 0.782295 -0.537264
3.290826 0.768270 -0.513102
3.288576 0.730832 -0.513348
3.310005 0.781437 -0.538198
3.311543 0.815602 -0.537673
3.312237 0.813411 -0.513835
3.310765 0.767413 -0.514036
3.290057 0.782179 -0.537343
3.291595 0.816343 -0.536818
3.292289 0.814152 -0.512981
3.290817 0.768154 -0.513181
3.311551 0.815639 -0.537462
3.313099 0.849803 -0.536938
3.313712 0.859447 -0.513424
3.312245 0.813448 -0.513624
3.291590 0.816386 -0.537029
3.293138 0.850550 -0.536505
3.293750 0.860194 -0.512990
3.292284 0.814195 -0.513191
3.313093 0.850092 -0.537273
3.313009 0.902056 -0.536245
3.315127 0.905737 -0.513560
3.313706 0.859736 -0.513759
3.293146 0.850350 -0.536168
3.293061 0.902315 -0.535140
3.295179 0.905996 -0.512455
3.293758 0.859995 -0.512654
3.313006 0.902149 -0.536305
3.313882 0.927664 -0.536527
3.314656 0.938559 -0.513916
3.315124 0.905830 -0.513620
3.293065 0.902300 -0.535080
3.293940 0.927814 -0.535302
3.294715 0.938710 -0.512691
3.295182 0.905981 -0.512395
3.313896 0.927863 -0.536196
3.313868 0.958192 -0.535600
3.314115 0.971485 -0.513885
3.314671 0.938759 -0.513585
3.293925 0.927675 -0.535633
3.293897 0.958004 -0.535037
3.294144 0.971297 -0.513322
3.294700 0.938571 -0.513023
3.313869 0.958335 -0.535444
3.313319 0.998248 -0.533954
3.313198 1.004484 -0.514232
3.314116 0.971628 -0.513729
3.293895 0.957929 -0.535192
3.293345 0.997842 -0.533702
3.293224 1.004078 -0.513980
3.294142 0.971222 -0.513477
3.313321 0.998194 -0.533853
3.312774 1.038106 -0.532363
3.312933 1.037163 -0.514053
3.313200 1.004430 -0.514131
3.293342 0.997969 -0.533802
3.292795 1.037881 -0.532312
3.292954 1.036938 -0.514002
3.293221 1.004205 -0.514080
3.166677 0.590353 -0.511711
3.168493 0.594219 -0.559907
3.202995 0.617556 -0.559130
3.211379 0.622244 -0.511841
3.155252 0.606731 -0.511066
3.157067 0.610598 -0.559262
3.191570 0.633934 -0.558485
3.199953 0.638622 -0.511196
3.168460 0.594193 -0.559812
3.166706 0.593520 -0.608220
3.196863 0.614828 -0.604803
3.202962 0.617530 -0.559034
3.157093 0.610621 -0.559453
3.155340 0.609948 -0.607861
3.185497 0.631256 -0.604444
3.191596 0.633958 -0.558675
3.211345 0.622215 -0.511680
3.202961 0.617527 -0.558968
3.230031 0.635904 -0.557936
3.256624 0.653347 -0.512976
3.200064 0.638703 -0.511358
3.191680 0.634015 -0.558646
3.218750 0.652391 -0.557614
3.245343 0.669835 -0.512654
3.202937 0.617515 -0.559123
3.196838 0.614813 -0.604893
3.222992 0.632180 -0.588579
3.230007 0.635892 -0.558091
3.191679 0.634013 -0.558575
3.185580 0.631310 -0.604344
3.211735 0.648677 -0.588031
3.218750 0.652389 -0.557543
3.256669 0.653378 -0.512943
3.230076 0.635934 -0.557903
3.253862 0.652139 -0.557214
3.301928 0.684539 -0.514237
3.245369 0.669853 -0.512687
3.218776 0.652409 -0.557647
3.242561 0.668615 -0.556958
3.290628 0.701015 -0.513981
3.168328 0.596394 -0.657723
3.169918 0.598753 -0.675217
3.189541 0.624235 -0.659347
3.190738 0.620036 -0.645221
3.152608 0.608506 -0.655406
3.154198 0.610866 -0.672900
3.173821 0.636347 -0.657030
3.175019 0.632149 -0.642904
3.170500 0.599555 -0.675018
3.171662 0.601396 -0.692601
3.189294 0.630119 -0.677180
3.190124 0.625037 -0.659148
3.153616 0.610071 -0.673132
3.154778 0.611911 -0.690714
3.172409 0.640635 -0.675293
3.173239 0.635552 -0.657262
3.172035 0.602009 -0.692388
3.172165 0.602613 -0.710109
3.189357 0.635467 -0.696300
3.189666 0.630733 -0.676967
3.154406 0.611303 -0.690964
3.154535 0.611907 -0.708685
3.171728 0.644761 -0.694876
3.172037 0.640027 -0.675543
3.172409 0.603100 -0.710051
3.172719 0.604026 -0.727778
3.189324 0.640790 -0.715803
3.189602 0.635954 -0.696242
3.154291 0.611426 -0.708781
3.154601 0.612352 -0.726507
3.171206 0.649115 -0.714533
3.171484 0.644279 -0.694971
3.172928 0.604517 -0.727794
3.173633 0.606276 -0.745425
3.189021 0.646339 -0.734947
3.189533 0.641281 -0.715819
3.154392 0.611867 -0.726528
3.155097 0.613626 -0.744159
3.170485 0.653688 -0.733681
3.170997 0.648630 -0.714554
3.191027 0.621167 -0.647088
3.189829 0.625366 -0.661214
3.210209 0.648907 -0.640973
3.214473 0.640571 -0.620149
3.174773 0.631064 -0.640999
3.173576 0.635263 -0.655124
3.193956 0.658804 -0.634884
3.198219 0.650467 -0.614060
3.190201 0.625694 -0.660667
3.189371 0.630777 -0.678698
3.207912 0.658537 -0.661229
3.210580 0.649236 -0.640426
3.173200 0.634947 -0.655708
3.172371 0.640030 -0.673740
3.190912 0.667790 -0.656271
3.193580 0.658489 -0.635468
3.189676 0.631043 -0.678017
3.189367 0.635776 -0.697351
3.206998 0.667735 -0.682352
3.208218 0.658803 -0.660548
3.172062 0.639778 -0.674461
3.171754 0.644512 -0.693794
3.189385 0.676471 -0.678796
3.190604 0.667538 -0.656992
3.189584 0.636152 -0.697131
3.189307 0.640988 -0.716693
3.206444 0.677003 -0.704425
3.207215 0.668111 -0.682133
3.171535 0.644150 -0.694055
3.171258 0.648986 -0.713617
3.188395 0.685001 -0.701349
3.189166 0.676109 -0.679057
3.189420 0.641212 -0.716584
3.188908 0.646269 -0.735711
3.206254 0.685461 -0.726175
3.206558 0.677227 -0.704316
3.171143 0.648775 -0.713767
3.170631 0.653833 -0.732894
3.187977 0.693025 -0.723358
3.188280 0.684791 -0.701500
3.224968 0.635209 -0.592164
3.213965 0.640294 -0.620901
3.233015 0.654650 -0.602762
3.209776 0.645678 -0.584495
3.198773 0.650763 -0.613232
3.217824 0.665119 -0.595093
3.214068 0.640450 -0.620905
3.209805 0.648787 -0.641729
3.232004 0.668641 -0.622297
3.233118 0.654806 -0.602766
3.198666 0.650627 -0.613262
3.194403 0.658963 -0.634086
3.216602 0.678817 -0.614654
3.217717 0.664983 -0.595122
3.210036 0.649022 -0.641557
3.207368 0.658322 -0.662359
3.229344 0.682574 -0.644317
3.232236 0.668876 -0.622125
3.194166 0.658751 -0.634300
3.191498 0.668052 -0.655103
3.213474 0.692303 -0.637060
3.216365 0.678605 -0.614868
3.207583 0.658152 -0.661559
3.206364 0.667085 -0.683364
3.228388 0.695393 -0.668087
3.229560 0.682404 -0.643516
3.191278 0.668245 -0.655948
3.190059 0.677177 -0.677752
3.212083 0.705486 -0.662475
3.213255 0.692496 -0.637905
3.206474 0.667060 -0.682969
3.205702 0.675953 -0.705261
3.228575 0.708165 -0.693974
3.228498 0.695368 -0.667692
3.189948 0.677224 -0.678194
3.189176 0.686117 -0.700487
3.212050 0.718329 -0.689199
3.211972 0.705532 -0.662918
3.205665 0.675697 -0.704781
3.205361 0.683931 -0.726639
3.230602 0.719711 -0.720867
3.228538 0.707909 -0.693493
3.189214 0.686393 -0.701016
3.188911 0.694627 -0.722875
3.214152 0.730407 -0.717102
3.212087 0.718606 -0.689729
3.224941 0.635318 -0.592360
3.232988 0.654759 -0.602958
3.260876 0.674814 -0.575491
3.255741 0.655235 -0.561182
3.209843 0.645593 -0.584254
3.217890 0.665034 -0.594852
3.245779 0.685089 -0.567385
3.240644 0.665510 -0.553076
3.233111 0.654982 -0.603003
3.231997 0.668817 -0.622534
3.256192 0.688295 -0.599872
3.260999 0.675037 -0.575536
3.217771 0.664844 -0.594842
3.216656 0.678679 -0.614373
3.240852 0.698157 -0.591711
3.245659 0.684899 -0.567375
3.232063 0.668912 -0.622525
3.229171 0.682610 -0.644717
3.253258 0.704571 -0.624722
3.256258 0.688390 -0.599862
3.216585 0.678611 -0.614428
3.213693 0.692309 -0.636620
3.237780 0.714270 -0.616625
3.240780 0.698089 -0.591765
3.229209 0.682171 -0.644034
3.228037 0.695161 -0.668605
3.252332 0.720907 -0.651690
3.253296 0.704132 -0.624040
3.213652 0.692779 -0.637352
3.212480 0.705768 -0.661923
3.236774 0.731514 -0.645008
3.237739 0.714739 -0.617358
3.228165 0.695056 -0.668097
3.228242 0.707853 -0.694379
3.252849 0.738136 -0.681810
3.252459 0.720802 -0.651182
3.212352 0.705903 -0.662484
3.212430 0.718700 -0.688766
3.237036 0.748983 -0.676197
3.236646 0.731649 -0.645569
3.228417 0.707769 -0.693608
3.230482 0.719571 -0.720981
3.255662 0.755471 -0.715171
3.253024 0.738053 -0.681038
3.212257 0.718813 -0.689597
3.214321 0.730614 -0.716971
3.239502 0.766514 -0.711161
3.236864 0.749096 -0.677027
3.255624 0.655339 -0.561514
3.260759 0.674918 -0.575822
3.281182 0.688890 -0.557090
3.303691 0.687739 -0.518537
3.240824 0.665449 -0.552685
3.245959 0.685028 -0.566993
3.266382 0.698999 -0.548261
3.288891 0.697849 -0.509708
3.260797 0.674875 -0.575708
3.255990 0.688133 -0.600044
3.279680 0.703569 -0.577125
3.281219 0.688847 -0.556976
3.245910 0.685095 -0.567156
3.241103 0.698353 -0.591492
3.264793 0.713789 -0.568574
3.266332 0.699067 -0.548424
3.256036 0.688212 -0.600056
3.253036 0.704392 -0.624916
3.278032 0.723418 -0.603080
3.279726 0.703647 -0.577137
3.241051 0.698306 -0.591528
3.238051 0.714487 -0.616388
3.263046 0.733512 -0.594552
3.264741 0.713742 -0.568609
3.253027 0.703956 -0.624355
3.252062 0.720731 -0.652005
3.277922 0.743381 -0.632671
3.278022 0.722982 -0.602520
3.238058 0.714960 -0.617003
3.237093 0.731735 -0.644653
3.262953 0.754385 -0.625319
3.263053 0.733985 -0.595167
3.252172 0.720649 -0.651635
3.252562 0.737982 -0.682262
3.278480 0.765059 -0.666616
3.278032 0.743299 -0.632301
3.236983 0.731856 -0.645085
3.237374 0.749189 -0.675712
3.263291 0.776266 -0.660066
3.262843 0.754506 -0.625751
3.252868 0.738080 -0.681644
3.255506 0.755498 -0.715778
3.280701 0.791310 -0.709998
3.278785 0.765157 -0.665999
3.237071 0.749133 -0.676401
3.239709 0.766551 -0.710535
3.264904 0.802363 -0.704755
3.262988 0.776210 -0.660756
3.280946 0.688543 -0.557067
3.279406 0.703265 -0.577217
3.304281 0.712781 -0.549029
3.303455 0.687392 -0.518514
3.266652 0.699389 -0.548278
3.265112 0.714111 -0.568428
3.289987 0.723628 -0.540240
3.289161 0.698239 -0.509725
3.279298 0.703226 -0.577343
3.277603 0.722997 -0.603286
3.305004 0.738130 -0.579665
3.304172 0.712743 -0.549155
3.265220 0.714193 -0.568356
3.263525 0.733963 -0.594299
3.290927 0.749096 -0.570678
3.290095 0.723709 -0.540168
3.277597 0.722755 -0.602981
3.277497 0.743154 -0.633132
3.305463 0.759712 -0.606924
3.304999 0.737888 -0.579360
3.263531 0.734249 -0.594661
3.263431 0.754648 -0.624812
3.291397 0.771206 -0.598604
3.290932 0.749382 -0.571040
3.277744 0.743234 -0.632803
3.278192 0.764995 -0.667118
3.305648 0.783806 -0.640093
3.305710 0.759792 -0.606595
3.263184 0.754613 -0.625205
3.263632 0.776374 -0.659520
3.291089 0.795185 -0.632494
3.291150 0.771171 -0.598997
3.278254 0.764765 -0.666611
3.280169 0.790918 -0.710610
3.306113 0.804714 -0.676720
3.305710 0.783576 -0.639585
3.263572 0.776650 -0.660102
3.265487 0.802803 -0.704102
3.291431 0.816600 -0.670212
3.291028 0.795462 -0.633077
3.311459 0.851226 -0.635128
3.311712 0.850307 -0.602398
3.310855 0.826031 -0.593559
3.310712 0.829671 -0.614201
3.291498 0.852068 -0.634907
3.291751 0.851149 -0.602178
3.290894 0.826873 -0.593339
3.290751 0.830513 -0.613980
3.311712 0.850313 -0.602446
3.312286 0.849864 -0.569698
3.311176 0.821109 -0.566473
3.310855 0.826037 -0.593607
3.291752 0.851138 -0.602073
3.292327 0.850689 -0.569325
3.291216 0.821934 -0.566100
3.290895 0.826862 -0.593235
3.312285 0.849842 -0.569712
3.313096 0.849745 -0.536979
3.311548 0.815581 -0.537503
3.311175 0.821088 -0.566487
3.292329 0.850705 -0.569251
3.293140 0.850608 -0.536518
3.291592 0.816444 -0.537042
3.291219 0.821951 -0.566026
3.311455 0.851162 -0.635206
3.310708 0.829607 -0.614280
3.309950 0.811738 -0.614203
3.309878 0.820123 -0.635832
3.291501 0.852110 -0.634855
3.290753 0.830556 -0.613929
3.289996 0.812687 -0.613852
3.289923 0.821072 -0.635481
3.310711 0.829673 -0.614245
3.310855 0.826033 -0.593604
3.310019 0.803096 -0.591832
3.309953 0.811805 -0.614169
3.290750 0.830468 -0.613920
3.290893 0.826828 -0.593279
3.290057 0.803890 -0.591507
3.289992 0.812600 -0.613843
3.310855 0.826028 -0.593592
3.311176 0.821100 -0.566458
3.310022 0.792707 -0.565743
3.310019 0.803091 -0.591820
3.290894 0.826819 -0.593243
3.291214 0.821891 -0.566108
3.290061 0.793498 -0.565394
3.290057 0.803882 -0.591471
3.311174 0.821058 -0.566447
3.311547 0.815551 -0.537463
3.310009 0.781386 -0.537988
3.310020 0.792665 -0.565732
3.291216 0.821918 -0.566065
3.291590 0.816411 -0.537081
3.290052 0.782246 -0.537606
3.290063 0.793525 -0.565350
3.309876 0.820116 -0.635904
3.309948 0.811731 -0.614274
3.309205 0.794227 -0.615041
3.308360 0.789074 -0.636532
3.289923 0.821030 -0.635411
3.289995 0.812646 -0.613781
3.289252 0.795141 -0.614548
3.288407 0.789988 -0.636039
3.309953 0.811804 -0.614211
3.310018 0.803095 -0.591875
3.309231 0.781952 -0.594249
3.309210 0.794300 -0.614978
3.289991 0.812561 -0.613801
3.290056 0.803852 -0.591465
3.289270 0.782708 -0.593839
3.289248 0.795056 -0.614568
3.310019 0.803076 -0.591777
3.310022 0.792693 -0.565701
3.308886 0.765312 -0.567204
3.309232 0.781933 -0.594152
3.290055 0.803846 -0.591514
3.290059 0.793463 -0.565438
3.288923 0.766082 -0.566941
3.289269 0.782703 -0.593889
3.310020 0.792638 -0.565691
3.310009 0.781359 -0.537946
3.308606 0.750056 -0.538427
3.308884 0.765257 -0.567194
3.290060 0.793491 -0.565393
3.290049 0.782213 -0.537648
3.288647 0.750909 -0.538129
3.288924 0.766111 -0.566896
3.309208 0.794284 -0.615051
3.309229 0.781936 -0.594322
3.308424 0.765117 -0.603044
3.308362 0.789131 -0.636542
3.289249 0.795042 -0.614511
3.289271 0.782694 -0.593783
3.288466 0.765875 -0.602505
3.288404 0.789889 -0.636003
3.309231 0.781907 -0.594151
3.308885 0.765286 -0.567204
3.307961 0.743263 -0.575309
3.308426 0.765087 -0.602874
3.289268 0.782686 -0.593899
3.288922 0.766065 -0.566952
3.287998 0.744042 -0.575057
3.288463 0.765866 -0.602621
3.308884 0.765240 -0.567147
3.308606 0.750038 -0.538380
3.307128 0.717830 -0.544743
3.307960 0.743217 -0.575253
3.288922 0.766072 -0.566952
3.288644 0.750870 -0.538184
3.287166 0.718661 -0.544547
3.287999 0.744049 -0.575057
3.253815 0.652112 -0.557409
3.230029 0.635907 -0.558098
3.223014 0.632195 -0.588586
3.242558 0.668609 -0.556827
3.218773 0.652404 -0.557517
3.211758 0.648692 -0.588005
3.194886 0.614924 -0.623439
3.168127 0.596653 -0.659304
3.190538 0.620295 -0.646802
3.179577 0.626519 -0.617924
3.152819 0.608248 -0.653790
3.175229 0.631890 -0.641288
3.192857 0.612465 -0.620827
3.222958 0.632155 -0.588514
3.196804 0.614788 -0.604827
3.181650 0.629002 -0.620464
3.211751 0.648692 -0.588151
3.185597 0.631325 -0.604464
3.214032 0.640077 -0.620437
3.225035 0.634992 -0.591699
3.194934 0.615302 -0.624013
3.190586 0.620673 -0.647376
3.198671 0.650950 -0.613729
3.209674 0.645865 -0.584991
3.179572 0.626175 -0.617304
3.175225 0.631546 -0.640668
3.193025 0.612583 -0.620864
3.196972 0.614906 -0.604865
3.166815 0.593598 -0.608281
3.166266 0.594311 -0.656730
3.181434 0.628852 -0.620462
3.185381 0.631175 -0.604462
3.155224 0.609868 -0.607879
