3.962767 0.642911 0.115294
3.962781 0.623826 0.077498
3.963143 0.668123 0.063286
3.963172 0.680644 0.088091
3.942788 0.643062 0.115222
3.942802 0.623977 0.077427
3.943164 0.668273 0.063215
3.943193 0.680795 0.088020
3.962282 0.605126 0.142536
3.962362 0.579484 0.091746
3.962781 0.623777 0.077536
3.962767 0.642862 0.115332
3.942303 0.605293 0.142430
3.942383 0.579651 0.091641
3.942802 0.623944 0.077431
3.942788 0.643029 0.115226
3.961838 0.567359 0.169762
3.961944 0.535154 0.105982
3.962362 0.579450 0.091769
3.962281 0.605092 0.142559
3.941859 0.567513 0.169652
3.941965 0.535308 0.105871
3.942382 0.579604 0.091659
3.942302 0.605246 0.142449
3.962781 0.623823 0.077458
3.962877 0.617355 0.035613
3.963172 0.663872 0.035787
3.963143 0.668119 0.063246
3.942802 0.623959 0.077401
3.942897 0.617491 0.035556
3.943193 0.664008 0.035730
3.943164 0.668255 0.063189
3.962362 0.579479 0.091688
3.962564 0.570783 0.035463
3.962876 0.617303 0.035634
3.962781 0.623772 0.077478
3.942383 0.579627 0.091605
3.942585 0.570931 0.035379
3.942897 0.617451 0.035550
3.942802 0.623919 0.077395
3.961944 0.535136 0.105916
3.962229 0.524220 0.035304
3.962564 0.570737 0.035478
3.962362 0.579432 0.091704
3.941965 0.535287 0.105816
3.942250 0.524370 0.035205
3.942585 0.570887 0.035378
3.942383 0.579582 0.091604
3.962877 0.617366 0.035583
3.963083 0.624141 -0.006210
3.963258 0.668332 0.008328
3.963173 0.663883 0.035757
3.942897 0.617480 0.035517
3.943103 0.624255 -0.006276
3.943279 0.668446 0.008262
3.943193 0.663997 0.035691
3.962565 0.570800 0.035423
3.962954 0.579908 -0.020739
3.963082 0.624096 -0.006199
3.962876 0.617321 0.035594
3.942585 0.570914 0.035320
3.942974 0.580021 -0.020842
3.943103 0.624210 -0.006302
3.942897 0.617434 0.035491
3.962229 0.524229 0.035254
3.962779 0.535662 -0.035272
3.962953 0.579853 -0.020734
3.962564 0.570745 0.035428
3.942250 0.524361 0.035128
3.942800 0.535795 -0.035398
3.942974 0.579985 -0.020861
3.942585 0.570878 0.035301
3.963083 0.624162 -0.006235
3.963352 0.643523 -0.043891
3.963392 0.681057 -0.016407
3.963258 0.668353 0.008302
3.943103 0.624256 -0.006316
3.943373 0.643618 -0.043972
3.943412 0.681151 -0.016488
3.943279 0.668447 0.008221
3.962954 0.579942 -0.020768
3.963464 0.605956 -0.071363
3.963352 0.643492 -0.043884
3.963083 0.624131 -0.006228
3.942975 0.580017 -0.020906
3.943485 0.606031 -0.071501
3.943373 0.643567 -0.044021
3.943103 0.624206 -0.006366
3.962780 0.535694 -0.035310
3.963557 0.568365 -0.098851
3.963464 0.605899 -0.071368
3.962954 0.579885 -0.020773
3.942801 0.535802 -0.035480
3.943578 0.568472 -0.099021
3.943485 0.606006 -0.071538
3.942975 0.579993 -0.020943
3.963352 0.643548 -0.043913
3.963628 0.673596 -0.073740
3.963560 0.700802 -0.036006
3.963392 0.681082 -0.016429
3.943373 0.643634 -0.044006
3.943648 0.673681 -0.073833
3.943581 0.700887 -0.036099
3.943413 0.681167 -0.016522
3.963464 0.606001 -0.071389
3.963921 0.646380 -0.111472
3.963628 0.673585 -0.073736
3.963352 0.643537 -0.043909
3.943485 0.606044 -0.071555
3.943942 0.646422 -0.111638
3.943649 0.673627 -0.073902
3.943373 0.643580 -0.044075
3.963558 0.568426 -0.098886
3.964294 0.619131 -0.149218
3.963921 0.646338 -0.111486
3.963464 0.605960 -0.071403
3.943579 0.568486 -0.099088
3.944315 0.619191 -0.149420
3.943942 0.646399 -0.111689
3.943486 0.606020 -0.071606
3.963628 0.673616 -0.073749
3.963942 0.711412 -0.092833
3.963747 0.725625 -0.048537
3.963560 0.700822 -0.036015
3.943649 0.673717 -0.073865
3.943962 0.711514 -0.092949
3.943768 0.725726 -0.048652
3.943581 0.700924 -0.036130
3.963921 0.646409 -0.111484
3.964333 0.697196 -0.137125
3.963942 0.711411 -0.092833
3.963628 0.673614 -0.073749
3.943942 0.646472 -0.111683
3.944354 0.697259 -0.137324
3.943963 0.711474 -0.093031
3.943649 0.673678 -0.073947
3.964294 0.619192 -0.149254
3.964711 0.682972 -0.181459
3.964333 0.697186 -0.137163
3.963921 0.646399 -0.111523
3.944315 0.619233 -0.149458
3.944733 0.683014 -0.181662
3.944354 0.697228 -0.137367
3.943943 0.646441 -0.111726
3.963942 0.711433 -0.092834
3.964264 0.753275 -0.099302
3.963934 0.753105 -0.052784
3.963747 0.725645 -0.048537
3.943963 0.711559 -0.092969
3.944285 0.753401 -0.099436
3.943955 0.753231 -0.052919
3.943768 0.725771 -0.048672
3.964333 0.697215 -0.137133
3.964754 0.753441 -0.145827
3.964264 0.753272 -0.099308
3.963942 0.711430 -0.092841
3.944355 0.697333 -0.137345
3.944775 0.753560 -0.146039
3.944286 0.753390 -0.099521
3.943964 0.711548 -0.093053
3.964712 0.683004 -0.181494
3.965089 0.753613 -0.192409
3.964754 0.753444 -0.145892
3.964334 0.697218 -0.137199
3.944733 0.683103 -0.181666
3.945110 0.753713 -0.192581
3.944775 0.753543 -0.146064
3.944355 0.697317 -0.137371
3.964264 0.753303 -0.099300
3.964501 0.795098 -0.092523
3.964103 0.780560 -0.048334
3.963935 0.753133 -0.052783
3.944285 0.753442 -0.099438
3.944522 0.795237 -0.092661
3.944124 0.780700 -0.048471
3.943956 0.753273 -0.052920
3.964754 0.753474 -0.145826
3.965086 0.809635 -0.136717
3.964501 0.795099 -0.092531
3.964264 0.753305 -0.099308
3.944776 0.753625 -0.146039
3.945108 0.809785 -0.136930
3.944522 0.795250 -0.092744
3.944286 0.753455 -0.099521
3.965089 0.753646 -0.192414
3.965611 0.824173 -0.180976
3.965087 0.809637 -0.136787
3.964755 0.753476 -0.145897
3.945111 0.753807 -0.192577
3.945632 0.824334 -0.181139
3.945108 0.809798 -0.136950
3.944776 0.753637 -0.146059
3.964501 0.795125 -0.092522
3.964643 0.832780 -0.073159
3.964238 0.805299 -0.035627
3.964104 0.780588 -0.048332
3.944522 0.795275 -0.092641
3.944664 0.832930 -0.073279
3.944259 0.805448 -0.035747
3.944125 0.780738 -0.048451
3.965087 0.809671 -0.136707
3.965244 0.860269 -0.110692
3.964643 0.832790 -0.073159
3.964501 0.795135 -0.092521
3.945108 0.809842 -0.136909
3.945266 0.860441 -0.110894
3.944665 0.832962 -0.073361
3.944523 0.795307 -0.092723
3.965611 0.824223 -0.180940
3.965909 0.887764 -0.148266
3.965245 0.860286 -0.110735
3.965087 0.809687 -0.136750
3.945633 0.824404 -0.181137
3.945931 0.887945 -0.148463
3.945267 0.860467 -0.110933
3.945109 0.809868 -0.136948
3.964643 0.832804 -0.073154
3.964726 0.862632 -0.043105
3.964324 0.824897 -0.015901
3.964238 0.805322 -0.035622
3.944664 0.832962 -0.073243
3.944747 0.862791 -0.043195
3.944345 0.825056 -0.015990
3.944259 0.805481 -0.035711
3.965245 0.860301 -0.110684
3.965256 0.900384 -0.070305
3.964726 0.862650 -0.043102
3.964643 0.832821 -0.073151
3.945266 0.860489 -0.110844
3.945277 0.900572 -0.070464
3.944748 0.862838 -0.043262
3.944665 0.833009 -0.073311
3.965909 0.887817 -0.148229
3.965810 0.938155 -0.097523
3.965256 0.900421 -0.070319
3.965245 0.860338 -0.110698
3.945931 0.887995 -0.148425
3.945832 0.938333 -0.097719
3.945278 0.900600 -0.070515
3.945267 0.860516 -0.110895
3.964726 0.862654 -0.043088
3.964732 0.881737 -0.005291
3.964355 0.837442 0.008919
3.964324 0.824919 -0.015884
3.944747 0.862810 -0.043155
3.944753 0.881893 -0.005358
3.944375 0.837598 0.008852
3.944345 0.825075 -0.015951
3.965256 0.900417 -0.070290
3.965164 0.926061 -0.019502
3.964733 0.881767 -0.005290
3.964726 0.862683 -0.043088
3.945277 0.900596 -0.070399
3.945185 0.926239 -0.019612
3.944754 0.881945 -0.005400
3.944747 0.862862 -0.043197
3.965810 0.938203 -0.097499
3.965544 0.970408 -0.033718
3.965165 0.926113 -0.019507
3.965256 0.900469 -0.070295
3.945831 0.938359 -0.097640
3.945565 0.970564 -0.033859
3.945186 0.926269 -0.019648
3.945277 0.900625 -0.070436
3.964732 0.881756 -0.005261
3.964626 0.888225 0.036582
3.964325 0.841707 0.036410
3.964355 0.837461 0.008949
3.944753 0.881895 -0.005322
3.944646 0.888365 0.036521
3.944346 0.841847 0.036349
3.944375 0.837601 0.008888
3.965164 0.926095 -0.019462
3.964901 0.934789 0.036766
3.964626 0.888271 0.036593
3.964733 0.881801 -0.005250
3.945185 0.926235 -0.019559
3.944921 0.934930 0.036668
3.944647 0.888411 0.036496
3.944753 0.881941 -0.005347
3.965543 0.970445 -0.033667
3.965155 0.981364 0.036942
3.964901 0.934845 0.036771
3.965164 0.926150 -0.019457
3.945564 0.970565 -0.033789
3.945176 0.981484 0.036821
3.944922 0.934965 0.036649
3.945185 0.926271 -0.019578
3.964626 0.888236 0.036618
3.964425 0.881460 0.078413
3.964239 0.837270 0.063873
3.964325 0.841718 0.036446
3.944646 0.888354 0.036554
3.944445 0.881577 0.078349
3.944259 0.837388 0.063810
3.944346 0.841835 0.036382
3.964901 0.934811 0.036818
3.964516 0.925705 0.092978
3.964425 0.881515 0.078440
3.964626 0.888292 0.036645
3.944921 0.934908 0.036714
3.944536 0.925802 0.092874
3.944446 0.881612 0.078336
3.944646 0.888389 0.036542
3.965155 0.981379 0.037014
3.964563 0.969944 0.107542
3.964516 0.925755 0.093003
3.964901 0.934860 0.036843
3.945175 0.981468 0.036875
3.944584 0.970034 0.107402
3.944537 0.925844 0.092864
3.944921 0.934949 0.036704
3.964425 0.881459 0.078454
3.964151 0.862099 0.116108
3.964105 0.824564 0.088626
3.964239 0.837269 0.063915
3.944445 0.881556 0.078374
3.944171 0.862196 0.116028
3.944125 0.824662 0.088545
3.944259 0.837367 0.063834
3.964516 0.925704 0.093036
3.964076 0.899689 0.143634
3.964151 0.862154 0.116152
3.964425 0.881514 0.078498
3.944536 0.925773 0.092910
3.944096 0.899757 0.143507
3.944171 0.862223 0.116026
3.944445 0.881583 0.078372
3.964563 0.969934 0.107599
3.964034 0.937264 0.171140
3.964076 0.899729 0.143658
3.964516 0.925744 0.093061
3.944584 0.970004 0.107465
3.944055 0.937334 0.171006
3.944096 0.899799 0.143525
3.944536 0.925814 0.092927
3.964151 0.862083 0.116146
3.963848 0.832034 0.145975
3.963935 0.804829 0.108239
3.964105 0.824548 0.088664
3.944171 0.862172 0.116045
3.943869 0.832123 0.145874
3.943956 0.804918 0.108138
3.944125 0.824637 0.088563
3.964075 0.899663 0.143685
3.963635 0.859286 0.183767
3.963848 0.832079 0.146032
3.964150 0.862128 0.116204
3.944096 0.899725 0.143535
3.943655 0.859348 0.183617
3.943869 0.832141 0.145882
3.944171 0.862190 0.116054
3.964034 0.937220 0.171185
3.963544 0.886513 0.221521
3.963635 0.859308 0.183786
3.964075 0.899685 0.143704
3.944054 0.937303 0.171063
3.943565 0.886596 0.221399
3.943655 0.859391 0.183663
3.944096 0.899768 0.143582
3.963848 0.832003 0.146003
3.963554 0.794208 0.165086
3.963748 0.779994 0.120790
3.963935 0.804798 0.108267
3.943868 0.832097 0.145886
3.943574 0.794302 0.164969
3.943769 0.780089 0.120674
3.943956 0.804893 0.108151
3.963634 0.859238 0.183813
3.963169 0.808450 0.209455
3.963553 0.794237 0.165161
3.963847 0.832032 0.146078
3.943655 0.859316 0.183628
3.943190 0.808528 0.209270
3.943575 0.794315 0.164976
3.943868 0.832110 0.145893
3.963544 0.886442 0.221580
3.962829 0.822664 0.253780
3.963169 0.808449 0.209486
3.963634 0.859237 0.183845
3.943565 0.886564 0.221414
3.942850 0.822786 0.253614
3.943190 0.808571 0.209320
3.943655 0.859359 0.183678
3.963554 0.794164 0.165100
3.963270 0.752320 0.171569
3.963561 0.752492 0.125051
3.963748 0.779950 0.120805
3.943574 0.794280 0.164976
3.943291 0.752436 0.171445
3.943581 0.752608 0.124926
3.943768 0.780067 0.120680
3.963168 0.808385 0.209488
3.962724 0.752161 0.218180
3.963269 0.752328 0.171664
3.963553 0.794172 0.165195
3.943190 0.808499 0.209266
3.942746 0.752275 0.217958
3.943291 0.752442 0.171442
3.943574 0.794286 0.164973
3.962828 0.822590 0.253834
3.962099 0.751981 0.264748
3.962724 0.752150 0.218232
3.963168 0.808375 0.209540
3.942850 0.822738 0.253599
3.942121 0.752130 0.264513
3.942746 0.752299 0.217997
3.943190 0.808524 0.209305
3.963270 0.752270 0.171570
3.963002 0.710478 0.164792
3.963392 0.725013 0.120603
3.963560 0.752442 0.125051
3.943291 0.752417 0.171444
3.943023 0.710624 0.164666
3.943412 0.725160 0.120477
3.943581 0.752589 0.124925
3.962724 0.752090 0.218183
3.962399 0.695928 0.209075
3.963001 0.710465 0.164888
3.963269 0.752257 0.171666
3.942746 0.752247 0.217955
3.942421 0.696085 0.208848
3.943023 0.710622 0.164661
3.943291 0.752415 0.171439
3.962099 0.751923 0.264754
3.961796 0.681396 0.253317
3.962399 0.695930 0.209130
3.962723 0.752092 0.218238
3.942121 0.752062 0.264506
3.941818 0.681535 0.253069
3.942421 0.696069 0.208883
3.942745 0.752231 0.217991
3.963002 0.710438 0.164777
3.962823 0.672781 0.145416
3.963258 0.700264 0.107883
3.963391 0.724973 0.120589
3.943023 0.710598 0.164659
3.942844 0.672942 0.145297
3.943279 0.700425 0.107764
3.943412 0.725134 0.120470
3.962399 0.695874 0.209044
3.962260 0.645277 0.183027
3.962823 0.672755 0.145496
3.963001 0.710411 0.164857
3.942421 0.696046 0.208848
3.942282 0.645449 0.182832
3.942844 0.672927 0.145300
3.943023 0.710583 0.164661
3.961796 0.681346 0.253270
3.961821 0.617800 0.220601
3.962259 0.645282 0.183067
3.962399 0.695879 0.209083
3.941817 0.681465 0.253077
3.941842 0.617919 0.220408
3.942281 0.645402 0.182874
3.942420 0.695999 0.208890
3.962823 0.672755 0.145386
3.962767 0.642928 0.115336
3.963172 0.680661 0.088133
3.963258 0.700238 0.107853
3.942844 0.672913 0.145286
3.942788 0.643086 0.115236
3.943193 0.680819 0.088033
3.943279 0.700396 0.107753
3.962260 0.645240 0.182978
3.962282 0.605155 0.142600
3.962766 0.642891 0.115396
3.962823 0.672718 0.145446
3.942281 0.645407 0.182823
3.942303 0.605322 0.142445
3.942788 0.643057 0.115241
3.942844 0.672885 0.145291
3.961821 0.617743 0.220536
3.961838 0.567407 0.169828
3.962281 0.605140 0.142625
3.962260 0.645225 0.183003
3.941842 0.617875 0.220397
3.941859 0.567539 0.169688
3.942302 0.605272 0.142485
3.942281 0.645357 0.182863
3.953866 0.743196 -0.052892
3.933809 0.743331 -0.053066
3.934296 0.743506 -0.099585
3.954196 0.743366 -0.099409
3.954003 0.763175 -0.052817
3.933946 0.763311 -0.052991
3.934433 0.763485 -0.099510
3.954333 0.763345 -0.099334
3.954194 0.743366 -0.099456
3.934294 0.743506 -0.099632
3.934626 0.743681 -0.146150
3.954683 0.743535 -0.145974
3.954336 0.763345 -0.099381
3.934437 0.763485 -0.099557
3.934768 0.763661 -0.146075
3.954826 0.763515 -0.145899
3.954682 0.743536 -0.146020
3.934624 0.743682 -0.146197
3.935117 0.743853 -0.192716
3.955017 0.743705 -0.192538
3.954828 0.763515 -0.145946
3.934771 0.763661 -0.146122
3.935263 0.763833 -0.192641
3.955163 0.763684 -0.192463
3.954361 0.834473 -0.000610
3.934356 0.834639 -0.000662
3.934787 0.878925 -0.014899
3.954739 0.878768 -0.014820
3.954348 0.840583 0.018413
3.934343 0.840749 0.018361
3.934774 0.885035 0.004124
3.954726 0.884878 0.004203
3.954754 0.878812 -0.014834
3.934801 0.878969 -0.014913
3.935180 0.923255 -0.029152
3.955185 0.923106 -0.029046
3.954713 0.884922 0.004188
3.934760 0.885079 0.004109
3.935139 0.929365 -0.010129
3.955144 0.929216 -0.010023
3.955195 0.923153 -0.029061
3.935190 0.923302 -0.029166
3.935622 0.967593 -0.043387
3.955574 0.967447 -0.043272
3.955135 0.929259 -0.010037
3.935130 0.929408 -0.010143
3.935561 0.973699 -0.024364
3.955514 0.973553 -0.024248
3.954004 0.812964 0.102358
3.934087 0.813034 0.102228
3.933875 0.840246 0.139959
3.953917 0.840169 0.140094
3.953867 0.796758 0.114044
3.933950 0.796828 0.113914
3.933738 0.824040 0.151644
3.953779 0.823963 0.151779
3.953922 0.840196 0.140131
3.933880 0.840273 0.139996
3.933792 0.867487 0.177724
3.953709 0.867402 0.177866
3.953774 0.823990 0.151817
3.933733 0.824068 0.151682
3.933645 0.851282 0.189410
3.953561 0.851197 0.189552
3.953709 0.867430 0.177906
3.933793 0.867516 0.177764
3.933577 0.894715 0.215503
3.953619 0.894636 0.215641
3.953560 0.851222 0.189588
3.933644 0.851308 0.189446
3.933428 0.878507 0.227185
3.953470 0.878428 0.227324
3.953290 0.708387 0.113720
3.933375 0.708577 0.113597
3.932813 0.681071 0.151107
3.952856 0.680904 0.151253
3.953227 0.692271 0.101910
3.933312 0.692461 0.101787
3.932750 0.664955 0.139297
3.952792 0.664788 0.139444
3.952836 0.680877 0.151291
3.932794 0.681043 0.151145
3.932358 0.653528 0.188654
3.952273 0.653399 0.188823
3.952811 0.664761 0.139481
3.932768 0.664927 0.139335
3.932332 0.637412 0.176843
3.952248 0.637283 0.177013
3.952256 0.653372 0.188859
3.932341 0.653501 0.188690
3.931775 0.626003 0.226206
3.951818 0.625890 0.226393
3.952264 0.637255 0.177052
3.932349 0.637384 0.176882
3.931783 0.609885 0.214398
3.951826 0.609772 0.214586
3.953206 0.665265 0.017765
3.933203 0.665352 0.017708
3.933074 0.621178 0.003126
3.953030 0.621075 0.003228
3.953311 0.671518 -0.001211
3.933309 0.671605 -0.001268
3.933180 0.627431 -0.015850
3.953136 0.627328 -0.015748
3.953007 0.621030 0.003213
3.933051 0.621133 0.003111
3.932876 0.576957 -0.011472
3.952878 0.576842 -0.011327
3.953159 0.627284 -0.015762
3.933202 0.627387 -0.015865
3.933028 0.583211 -0.030448
3.953030 0.583095 -0.030302
3.952860 0.576800 -0.011341
3.932858 0.576916 -0.011486
3.932730 0.532735 -0.026050
3.952686 0.532609 -0.025878
3.953048 0.583049 -0.030318
3.933046 0.583164 -0.030463
3.932918 0.538984 -0.045027
3.952874 0.538858 -0.044855
