4.136504 0.817533 0.754797
4.134895 0.817677 0.712237
4.077087 0.820564 0.714470
4.078568 0.820423 0.756999
4.139501 0.876724 0.754884
4.137882 0.876877 0.712334
4.080077 0.879758 0.714563
4.081556 0.879602 0.757096
4.133288 0.817833 0.669676
4.075601 0.820717 0.671946
4.136280 0.877019 0.669769
4.078591 0.879902 0.672040
4.131675 0.817976 0.627117
4.074122 0.820860 0.629419
4.134664 0.877173 0.627211
4.077111 0.880057 0.629513
4.130069 0.818131 0.584558
4.072635 0.821015 0.586892
4.133060 0.877316 0.584652
4.075627 0.880200 0.586986
4.128457 0.818272 0.541997
4.071156 0.821160 0.544368
4.131444 0.877472 0.542088
4.074147 0.880353 0.544463
4.126848 0.818426 0.499437
4.069672 0.821316 0.501841
4.129844 0.877617 0.499538
4.072659 0.880495 0.501929
4.019277 0.823446 0.716706
4.020629 0.823298 0.759200
4.022262 0.882642 0.716804
4.023623 0.882493 0.759286
4.017919 0.823599 0.674213
4.020911 0.882789 0.674306
4.016564 0.823746 0.631721
4.019551 0.882939 0.631815
4.015207 0.823897 0.589229
4.018200 0.883087 0.589324
4.013853 0.824042 0.546736
4.016838 0.883238 0.546826
4.012495 0.824192 0.504242
4.015490 0.883387 0.504345
3.961464 0.826338 0.718941
3.962692 0.826184 0.761400
3.964454 0.885520 0.719032
3.965685 0.885375 0.761500
3.960234 0.826479 0.676483
3.963227 0.885676 0.676577
3.959008 0.826634 0.634024
3.961995 0.885820 0.634117
3.957776 0.826777 0.591564
3.960769 0.885974 0.591657
3.956549 0.826934 0.549106
3.959539 0.886116 0.549203
3.955318 0.827079 0.506647
3.958310 0.886270 0.506734
4.142483 0.935916 0.754985
4.140875 0.936060 0.712424
4.083066 0.938945 0.714658
4.084548 0.938803 0.757185
4.139267 0.936215 0.669864
4.081581 0.939099 0.672134
4.137656 0.936359 0.627305
4.080102 0.939242 0.629607
4.136048 0.936513 0.584746
4.078616 0.939397 0.587080
4.134438 0.936655 0.542185
4.077135 0.939542 0.544556
4.132827 0.936808 0.499625
4.075652 0.939697 0.502029
4.025257 0.941830 0.716894
4.026609 0.941681 0.759388
4.023898 0.941981 0.674401
4.022544 0.942129 0.631909
4.021186 0.942279 0.589417
4.019833 0.942426 0.546924
4.018474 0.942575 0.504430
3.967443 0.944719 0.719129
3.968672 0.944565 0.761587
3.966214 0.944862 0.676670
3.964988 0.945016 0.634211
3.963756 0.945160 0.591752
3.962529 0.945316 0.549294
3.961299 0.945460 0.506836
4.145477 0.995104 0.755077
4.143866 0.995258 0.712518
4.086055 0.998141 0.714754
4.087538 0.997986 0.757279
4.142255 0.995401 0.669959
4.084574 0.998285 0.672226
4.140647 0.995555 0.627399
4.083089 0.998439 0.629701
4.139037 0.995699 0.584838
4.081609 0.998583 0.587175
4.137428 0.995854 0.542280
4.080124 0.998736 0.544648
4.135820 0.995998 0.499721
4.078642 0.998879 0.502122
4.028242 1.001023 0.716988
4.029602 1.000874 0.759479
4.026890 1.001171 0.674496
4.025532 1.001321 0.632003
4.024178 1.001470 0.589510
4.022820 1.001620 0.547018
4.021468 1.001769 0.504527
3.970435 1.003903 0.719223
3.971664 1.003759 0.761683
3.969206 1.004058 0.676763
3.967975 1.004202 0.634305
3.966749 1.004356 0.591847
3.965519 1.004499 0.549387
3.964290 1.004653 0.506927
