3.435118 0.404064 0.279941
3.445741 0.384804 0.316675
3.433107 0.340148 0.289379
3.428226 0.360561 0.260648
3.360287 0.409524 0.300972
3.370910 0.390264 0.337707
3.358276 0.345608 0.310411
3.353394 0.366021 0.281680
3.428711 0.361448 0.262332
3.433593 0.341035 0.291063
3.426875 0.301337 0.266712
3.422159 0.316451 0.246887
3.352893 0.365047 0.279953
3.357774 0.344634 0.308683
3.351057 0.304936 0.284333
3.346340 0.320051 0.264507
3.445535 0.383632 0.316318
3.452067 0.352712 0.349518
3.440501 0.312768 0.324343
3.432901 0.338976 0.289022
3.371131 0.391387 0.338130
3.377663 0.360467 0.371330
3.366097 0.320523 0.346155
3.358497 0.346731 0.310834
3.433532 0.343524 0.290659
3.441132 0.317316 0.325979
3.433499 0.289897 0.286414
3.426814 0.303826 0.266308
3.357847 0.342107 0.309140
3.365447 0.315900 0.344460
3.357814 0.288480 0.304895
3.351129 0.302409 0.284789
3.279277 0.385836 0.363371
3.276423 0.355747 0.339120
3.283692 0.329615 0.385588
3.286553 0.380797 0.393093
3.355837 0.386117 0.348870
3.352983 0.356028 0.324619
3.360252 0.329897 0.371087
3.363114 0.381078 0.378592
3.276257 0.358533 0.337596
3.271071 0.301405 0.315252
3.274638 0.295229 0.356390
3.283526 0.332401 0.384063
3.353139 0.353154 0.326103
3.347953 0.296026 0.303759
3.351520 0.289850 0.344897
3.360408 0.327023 0.372571
3.272793 0.405571 0.314324
3.267643 0.364929 0.294435
3.272048 0.360891 0.316405
3.275976 0.396256 0.338489
3.349570 0.403676 0.301148
3.344420 0.363034 0.281259
3.348824 0.358997 0.303229
3.352753 0.394362 0.325314
3.275890 0.394968 0.338030
3.271961 0.359603 0.315946
3.276219 0.355564 0.337945
3.279073 0.385653 0.362195
3.352846 0.395637 0.325819
3.348918 0.360272 0.303735
3.353176 0.356233 0.325734
3.356030 0.386322 0.349984
3.267886 0.364589 0.295755
3.264253 0.321284 0.282267
3.267808 0.310334 0.299824
3.272291 0.360551 0.317725
3.344168 0.363289 0.279902
3.340534 0.319985 0.266414
3.344089 0.309035 0.283971
3.348572 0.359252 0.301872
3.272256 0.360430 0.317563
3.267773 0.310213 0.299661
3.271328 0.299263 0.317218
3.276513 0.356391 0.339562
3.348615 0.359358 0.302075
3.344132 0.309142 0.284173
3.347687 0.298192 0.301730
3.352873 0.355320 0.324074
