4.159620 0.524665 0.543338
4.154236 0.528021 0.559541
4.136831 0.535454 0.559845
4.137456 0.534090 0.543213
4.172588 0.555125 0.541332
4.167204 0.558482 0.557535
4.149799 0.565914 0.557839
4.150424 0.564550 0.541207
4.137624 0.534034 0.543419
4.136999 0.535398 0.560051
4.119582 0.542799 0.560357
4.114949 0.543154 0.543333
4.150216 0.564622 0.541002
4.149591 0.565987 0.557633
4.132174 0.573388 0.557940
4.127541 0.573743 0.540916
4.114667 0.543288 0.543512
4.119300 0.542934 0.560537
4.101909 0.550390 0.560838
4.092239 0.553066 0.543411
4.127783 0.573625 0.540736
4.132416 0.573270 0.557760
4.115024 0.580726 0.558062
4.105355 0.583402 0.540635
4.154358 0.527965 0.559466
4.148978 0.531343 0.575667
4.136572 0.536371 0.576381
4.136953 0.535398 0.559769
4.167076 0.558542 0.557644
4.161696 0.561921 0.573845
4.149290 0.566948 0.574560
4.149671 0.565975 0.557948
4.136914 0.535400 0.559499
4.136533 0.536373 0.576111
4.124148 0.541454 0.576823
4.119497 0.542801 0.559805
4.149680 0.565985 0.558219
4.149299 0.566958 0.574831
4.136913 0.572039 0.575543
4.132263 0.573386 0.558525
4.119444 0.542816 0.559583
4.124095 0.541469 0.576601
4.111708 0.546550 0.577314
4.102053 0.550272 0.559885
4.132286 0.573384 0.558748
4.136937 0.572037 0.575766
4.124550 0.577119 0.576478
4.114895 0.580840 0.559050
4.164162 0.582825 0.524993
4.166719 0.568860 0.525358
4.151581 0.565269 0.525371
4.142398 0.577838 0.525106
4.164098 0.583584 0.558151
4.166655 0.569619 0.558516
4.151517 0.566028 0.558529
4.142334 0.578597 0.558264
4.166636 0.568936 0.525357
4.169196 0.554968 0.525490
4.160678 0.552778 0.525660
4.151497 0.565345 0.525369
4.166750 0.569517 0.558518
4.169311 0.555548 0.558651
4.160792 0.553359 0.558822
4.151612 0.565926 0.558531
4.169620 0.554894 0.525495
4.172175 0.540934 0.526156
4.166479 0.539546 0.525751
4.161102 0.552705 0.525665
4.168897 0.555595 0.558647
4.171452 0.541635 0.559307
4.165756 0.540247 0.558903
4.160379 0.553405 0.558817
4.142315 0.577832 0.525106
4.151497 0.565263 0.525371
4.136356 0.561674 0.525489
4.120554 0.572842 0.525257
4.142380 0.578594 0.558264
4.151563 0.566026 0.558529
4.136422 0.562437 0.558647
4.120620 0.573605 0.558415
4.151560 0.565367 0.525369
4.160741 0.552800 0.525660
4.143954 0.549066 0.525621
4.136419 0.561778 0.525487
4.151521 0.565897 0.558531
4.160702 0.553330 0.558822
4.143915 0.549597 0.558783
4.136380 0.562309 0.558649
4.120540 0.572904 0.525256
4.136342 0.561737 0.525488
4.121202 0.558145 0.525535
4.098775 0.567922 0.525434
4.120597 0.573534 0.558417
4.136399 0.562366 0.558648
4.121259 0.558774 0.558696
4.098831 0.568552 0.558595
4.164259 0.582590 0.525001
4.142495 0.577603 0.525113
4.138911 0.589900 0.524519
4.161703 0.595120 0.524606
4.163991 0.583844 0.558143
4.142228 0.578857 0.558255
4.138644 0.591154 0.557661
4.161435 0.596374 0.557748
4.142407 0.577439 0.525120
4.120647 0.572450 0.525271
4.116030 0.584528 0.524675
4.138823 0.589736 0.524526
4.142271 0.579011 0.558249
4.120511 0.574021 0.558401
4.115894 0.586099 0.557805
4.138687 0.591308 0.557655
4.120714 0.572321 0.525278
4.098948 0.567339 0.525456
4.093308 0.579181 0.524641
4.116097 0.584399 0.524682
4.120399 0.574140 0.558394
4.098633 0.569158 0.558572
4.092992 0.581000 0.557756
4.115782 0.586218 0.557798
4.161765 0.595167 0.524605
4.138973 0.589947 0.524518
4.135389 0.602249 0.524035
4.159207 0.607694 0.524126
4.161367 0.596352 0.557748
4.138576 0.591132 0.557662
4.134991 0.603434 0.557178
4.158809 0.608879 0.557270
4.138909 0.589763 0.524525
4.116115 0.584554 0.524675
4.111501 0.596627 0.523945
4.135324 0.602065 0.524042
4.138594 0.591305 0.557655
4.115800 0.586097 0.557804
4.111187 0.598169 0.557075
4.135009 0.603608 0.557171
4.116037 0.584554 0.524674
4.093247 0.579336 0.524632
4.087596 0.591193 0.524191
4.111423 0.596626 0.523945
4.115832 0.586087 0.557805
4.093043 0.580869 0.557763
4.087391 0.592726 0.557322
4.111218 0.598159 0.557075
4.159326 0.607562 0.524134
4.135508 0.602117 0.524042
4.131923 0.614416 0.523297
4.156778 0.620083 0.523656
4.158683 0.609036 0.557261
4.134865 0.603591 0.557170
4.131280 0.615890 0.556425
4.156136 0.621556 0.556783
4.135311 0.602073 0.524041
4.111489 0.596635 0.523945
4.106872 0.608708 0.523475
4.131726 0.614372 0.523296
4.135013 0.603624 0.557170
4.111191 0.598186 0.557074
4.106573 0.610259 0.556604
4.131428 0.615923 0.556426
4.111414 0.596618 0.523945
4.087587 0.591185 0.524192
4.081944 0.603041 0.523464
4.106797 0.608692 0.523475
4.111217 0.598191 0.557074
4.087389 0.592758 0.557320
4.081746 0.604614 0.556593
4.106599 0.610265 0.556604
4.156485 0.620551 0.523638
4.131630 0.614884 0.523280
4.119346 0.626078 0.523455
4.130054 0.638737 0.522870
4.156406 0.621116 0.556800
4.131550 0.615449 0.556442
4.119267 0.626643 0.556617
4.129974 0.639302 0.556032
4.131433 0.615262 0.523278
4.106578 0.609598 0.523456
4.119149 0.626455 0.523454
4.131717 0.615055 0.556443
4.106863 0.609391 0.556621
4.119434 0.626249 0.556619
4.105607 0.611325 0.523594
4.080754 0.605674 0.523583
4.101730 0.633054 0.526269
4.118178 0.628182 0.523591
4.107801 0.607666 0.556485
4.082948 0.602015 0.556475
4.103923 0.629396 0.559161
4.120372 0.624524 0.556482
4.024500 0.718436 0.524819
4.037266 0.703565 0.525811
4.020842 0.691776 0.525416
4.005190 0.706914 0.525483
4.024242 0.719214 0.557976
4.037008 0.704343 0.558968
4.020584 0.692554 0.558573
4.004932 0.707692 0.558640
4.036785 0.704236 0.525813
4.049594 0.689365 0.524716
4.036001 0.677348 0.525348
4.020361 0.692447 0.525417
4.037518 0.703642 0.558966
4.050327 0.688771 0.557870
4.036734 0.676754 0.558502
4.021094 0.691853 0.558571
4.050263 0.688772 0.524714
4.063067 0.673933 0.525853
4.052374 0.661668 0.525211
4.036670 0.676754 0.525347
4.049687 0.689335 0.557871
4.062491 0.674496 0.559010
4.051798 0.662231 0.558368
4.036094 0.677317 0.558504
4.063508 0.674311 0.525864
4.077182 0.661219 0.526269
4.064618 0.643059 0.525700
4.052815 0.662047 0.525223
4.062077 0.674087 0.558999
4.075751 0.660994 0.559404
4.063187 0.642834 0.558835
4.051384 0.661822 0.558358
4.076344 0.661764 0.526267
4.091575 0.645426 0.525548
4.070988 0.625715 0.524843
4.063781 0.643605 0.525699
4.076613 0.660415 0.559406
4.091844 0.644076 0.558686
4.071256 0.624366 0.557981
4.064049 0.642255 0.558837
4.092263 0.645448 0.525557
4.103353 0.631947 0.526157
4.082377 0.604567 0.523471
4.071675 0.625737 0.524852
4.091179 0.644020 0.558675
4.102269 0.630519 0.559275
4.081293 0.603139 0.556589
4.070591 0.624309 0.557971
4.130399 0.756346 0.525131
4.135702 0.728928 0.524054
4.115438 0.715094 0.524815
4.111249 0.733097 0.525961
4.132786 0.755226 0.558193
4.138090 0.727809 0.557116
4.117825 0.713974 0.557877
4.113636 0.731978 0.559023
4.136180 0.728446 0.524017
4.140127 0.701225 0.523643
4.120304 0.696137 0.524512
4.115915 0.714612 0.524778
4.137622 0.728245 0.557151
4.141569 0.701024 0.556777
4.121746 0.695935 0.557646
4.117357 0.714411 0.557912
4.140493 0.701516 0.523635
4.145226 0.675323 0.523443
4.124449 0.677001 0.523369
4.120670 0.696428 0.524504
4.141212 0.700686 0.556784
4.145945 0.674493 0.556592
4.125168 0.676171 0.556518
4.121389 0.695598 0.557653
4.145436 0.675067 0.523435
4.151204 0.648305 0.522804
4.127186 0.657795 0.523415
4.124659 0.676745 0.523362
4.145743 0.674703 0.556599
4.151512 0.647942 0.555967
4.127494 0.657432 0.556579
4.124966 0.676382 0.556525
4.151356 0.647995 0.522803
4.156447 0.620744 0.523636
4.130015 0.638930 0.522868
4.127338 0.657485 0.523414
4.151368 0.648205 0.555969
4.156459 0.620954 0.556802
4.130027 0.639140 0.556034
4.127350 0.657695 0.556580
4.131293 0.755372 0.525087
4.112144 0.732123 0.525917
4.096059 0.734325 0.526237
4.106375 0.756745 0.525383
4.131866 0.756224 0.558238
4.112716 0.732976 0.559068
4.096632 0.735178 0.559388
4.106948 0.757597 0.558534
4.106483 0.756668 0.525384
4.096168 0.734249 0.526238
4.080079 0.736445 0.526250
4.081564 0.758039 0.525652
4.106798 0.757677 0.558534
4.096482 0.735258 0.559388
4.080393 0.737454 0.559400
4.081879 0.759048 0.558802
4.081482 0.758049 0.525653
4.079997 0.736455 0.526251
4.063886 0.738087 0.526483
4.056571 0.759396 0.525873
4.081919 0.759042 0.558802
4.080434 0.737448 0.559400
4.064323 0.739080 0.559632
4.057008 0.760389 0.559022
4.056911 0.759778 0.525865
4.064226 0.738469 0.526475
4.047991 0.738140 0.525940
4.031991 0.761099 0.526040
4.056627 0.760010 0.559030
4.063942 0.738701 0.559640
4.047707 0.738372 0.559105
4.031707 0.761331 0.559205
4.031613 0.761078 0.526041
4.047613 0.738119 0.525941
4.031384 0.737801 0.526238
4.006670 0.762397 0.526271
4.032043 0.761353 0.559204
4.048044 0.738395 0.559104
4.031814 0.738076 0.559401
4.007100 0.762673 0.559433
4.031732 0.737783 0.526237
4.024764 0.728146 0.526729
4.006134 0.735449 0.526033
4.007018 0.762380 0.526270
4.031441 0.738076 0.559402
4.024473 0.728439 0.559893
4.005842 0.735742 0.559197
4.006727 0.762673 0.559434
4.024509 0.729360 0.526763
4.024257 0.719928 0.524850
4.004947 0.708406 0.525515
4.005878 0.736663 0.526067
4.024723 0.727188 0.559858
4.024471 0.717756 0.557945
4.005162 0.706235 0.558610
4.006093 0.734491 0.559162
4.060799 0.671106 0.531064
4.052208 0.664690 0.518606
4.036814 0.679866 0.519036
4.045095 0.686191 0.531199
4.043353 0.652776 0.552504
4.034762 0.646360 0.540045
4.019368 0.661536 0.540476
4.027648 0.667861 0.552639
4.045241 0.686160 0.531293
4.036960 0.679835 0.519130
4.021693 0.695204 0.519365
4.029600 0.701260 0.531362
4.027471 0.667923 0.552545
4.019191 0.661597 0.540382
4.003924 0.676966 0.540617
4.011831 0.683022 0.552614
4.029773 0.701378 0.531613
4.021866 0.695321 0.519616
4.006695 0.710741 0.519753
4.014122 0.716516 0.531680
4.011627 0.682935 0.552364
4.003720 0.676879 0.540367
3.988549 0.692298 0.540504
3.995975 0.698073 0.552431
4.052071 0.664465 0.518308
4.042832 0.658219 0.506133
4.027908 0.673483 0.506768
4.036677 0.679640 0.518738
4.034882 0.646573 0.540319
4.025643 0.640328 0.528144
4.010718 0.655592 0.528779
4.019487 0.661749 0.540749
4.037187 0.679522 0.519058
4.028418 0.673365 0.507088
4.014055 0.689071 0.507190
4.021920 0.694890 0.519293
4.018947 0.661898 0.540430
4.010178 0.655741 0.528460
3.995814 0.671447 0.528561
4.003680 0.677267 0.540665
4.022014 0.695219 0.519655
4.014149 0.689399 0.507552
3.999363 0.704841 0.507912
4.006843 0.710638 0.519793
4.003556 0.676970 0.540303
3.995691 0.671150 0.528199
3.980905 0.686592 0.528559
3.988385 0.692389 0.540440
4.014650 0.715902 0.531629
4.007223 0.710127 0.519702
3.994619 0.724217 0.520009
4.002209 0.730544 0.531902
3.995419 0.698717 0.552483
3.987992 0.692942 0.540555
3.975388 0.707032 0.540863
3.982978 0.713359 0.552756
4.001992 0.730389 0.531583
3.994402 0.724063 0.519690
3.981803 0.738151 0.519987
3.989545 0.745028 0.531870
3.983169 0.713542 0.553076
3.975580 0.707216 0.541183
3.962981 0.721304 0.541480
3.970723 0.728181 0.553363
3.989313 0.744875 0.531556
3.981572 0.737998 0.519673
3.968951 0.752061 0.519998
3.976869 0.759517 0.531826
3.970929 0.728363 0.553679
3.963188 0.721486 0.541795
3.950567 0.735549 0.542121
3.958485 0.743005 0.553949
3.976654 0.759339 0.531523
3.968736 0.751883 0.519695
3.956133 0.765968 0.519993
3.964211 0.773980 0.531794
3.958674 0.743211 0.554253
3.950756 0.735756 0.542424
3.938153 0.749840 0.542723
3.946231 0.757852 0.554524
4.007018 0.710343 0.519694
3.999538 0.704546 0.507813
3.986857 0.718135 0.508068
3.994413 0.724433 0.520002
3.988183 0.692714 0.540539
3.980703 0.686917 0.528658
3.968023 0.700506 0.528913
3.975579 0.706804 0.540847
3.994220 0.724326 0.519742
3.986664 0.718028 0.507809
3.973932 0.731578 0.508101
3.981622 0.738414 0.520040
3.975746 0.706939 0.541107
3.968190 0.700641 0.529173
3.955458 0.714191 0.529466
3.963148 0.721027 0.541404
3.981398 0.738298 0.519759
3.973709 0.731462 0.507820
3.960946 0.744988 0.508145
3.968777 0.752361 0.520084
3.963345 0.721171 0.541686
3.955656 0.714335 0.529747
3.942892 0.727862 0.530072
3.950724 0.735235 0.542011
3.968597 0.752191 0.519809
3.960766 0.744819 0.507871
3.948017 0.758354 0.508181
3.955994 0.766276 0.520108
3.950879 0.735432 0.542286
3.943047 0.728060 0.530348
3.930298 0.741595 0.530658
3.938275 0.749517 0.542585
4.124351 0.798199 0.526448
4.127890 0.777259 0.525789
4.103676 0.778564 0.526076
4.100846 0.799463 0.526683
4.124663 0.797243 0.559600
4.128202 0.776303 0.558940
4.103988 0.777608 0.559228
4.101158 0.798507 0.559835
4.100839 0.799452 0.526683
4.103669 0.778552 0.526076
4.079455 0.779858 0.526313
4.077334 0.800718 0.526919
4.101117 0.798522 0.559836
4.103947 0.777622 0.559229
4.079733 0.778928 0.559465
4.077612 0.799788 0.560072
4.077320 0.800737 0.526920
4.079441 0.779876 0.526313
4.055228 0.781183 0.526523
4.053815 0.802001 0.527156
4.077578 0.799772 0.560072
4.079699 0.778912 0.559465
4.055485 0.780219 0.559675
4.054072 0.801037 0.560308
4.053785 0.802018 0.527157
4.055198 0.781200 0.526524
4.030983 0.782505 0.526756
4.030279 0.803282 0.527389
4.054054 0.801022 0.560308
4.055467 0.780204 0.559674
4.031252 0.781509 0.559907
4.030549 0.802286 0.560540
4.030278 0.803316 0.527390
4.030982 0.782539 0.526757
4.006768 0.783844 0.526926
4.006772 0.804579 0.527626
4.030502 0.802255 0.560539
4.031206 0.781478 0.559906
4.006992 0.782783 0.560075
4.006996 0.803518 0.560776
4.127881 0.777287 0.525790
4.131417 0.756347 0.525088
4.106499 0.757720 0.525385
4.103667 0.778591 0.526077
4.128217 0.776233 0.558938
4.131754 0.755293 0.558237
4.106835 0.756666 0.558533
4.104003 0.777538 0.559226
4.103669 0.778587 0.526077
4.106501 0.757716 0.525385
4.081581 0.759087 0.525653
4.079454 0.779893 0.526314
4.103952 0.777544 0.559226
4.106784 0.756673 0.558534
4.081865 0.758044 0.558802
4.079738 0.778850 0.559463
4.079454 0.779886 0.526314
4.081581 0.759079 0.525652
4.056670 0.760427 0.525872
4.055241 0.781193 0.526523
4.079689 0.778860 0.559464
4.081816 0.758053 0.558803
4.056904 0.759401 0.559022
4.055475 0.780167 0.559673
4.055225 0.781218 0.526524
4.056654 0.760452 0.525873
4.031734 0.761773 0.526049
4.031010 0.782523 0.526757
4.055443 0.780145 0.559673
4.056872 0.759378 0.559022
4.031952 0.760699 0.559197
4.031228 0.781449 0.559905
4.030989 0.782527 0.526757
4.031713 0.761777 0.526049
4.006769 0.763097 0.526278
4.006775 0.783832 0.526926
4.031199 0.781448 0.559905
4.031923 0.760698 0.559198
4.006980 0.762018 0.559427
4.006986 0.782753 0.560074
4.008110 0.820450 0.542001
4.012859 0.823461 0.563065
4.034536 0.821253 0.562574
4.031615 0.819187 0.541765
4.005662 0.787671 0.546423
4.010411 0.790681 0.567488
4.032089 0.788473 0.566997
4.029168 0.786407 0.546187
4.031130 0.819254 0.542071
4.034051 0.821320 0.562881
4.055761 0.820549 0.562522
4.054636 0.817990 0.541838
4.029699 0.786337 0.545880
4.032620 0.788403 0.566690
4.054329 0.787633 0.566331
4.053204 0.785073 0.545647
4.054619 0.817943 0.541466
4.055744 0.820503 0.562149
4.077452 0.819817 0.561756
4.078124 0.816679 0.541230
4.053267 0.785118 0.546019
4.054392 0.787678 0.566703
4.076100 0.786992 0.566309
4.076772 0.783854 0.545783
4.078295 0.816636 0.540993
4.077623 0.819775 0.561519
4.099323 0.818663 0.561101
4.101801 0.815370 0.540757
4.076646 0.783894 0.546019
4.075974 0.787033 0.566545
4.097674 0.785921 0.566126
4.100152 0.782628 0.545783
4.101859 0.815363 0.540731
4.099382 0.818657 0.561075
4.121079 0.817443 0.560661
4.125365 0.814099 0.540496
4.100138 0.782632 0.545808
4.097661 0.785926 0.566151
4.119358 0.784713 0.565738
4.123644 0.781368 0.545572
3.976840 0.821806 0.543463
3.984026 0.823452 0.563930
3.998218 0.822496 0.563829
3.992275 0.821181 0.543107
3.975124 0.788813 0.546381
3.982310 0.790458 0.566849
3.996503 0.789503 0.566747
3.990559 0.788187 0.546025
3.991162 0.821184 0.542927
3.997105 0.822499 0.563649
4.011346 0.823572 0.563638
4.006597 0.820561 0.542573
3.991702 0.788184 0.546205
3.997646 0.789499 0.566927
4.011887 0.790572 0.566916
4.007138 0.787561 0.545851
4.006571 0.804656 0.527632
4.006567 0.783921 0.526931
3.985950 0.785076 0.527278
3.991136 0.805279 0.527985
4.007155 0.803443 0.560771
4.007151 0.782708 0.560070
3.986535 0.783862 0.560418
3.991720 0.804066 0.561125
4.006677 0.783878 0.526928
4.006671 0.763143 0.526281
3.980877 0.764828 0.526535
3.986061 0.785032 0.527275
4.007035 0.782710 0.560072
4.007030 0.761975 0.559425
3.981235 0.763660 0.559680
3.986419 0.783864 0.560419
3.991199 0.805415 0.527990
3.986014 0.785211 0.527283
3.965396 0.786370 0.527465
3.975764 0.806041 0.528346
3.991621 0.803932 0.561121
3.986435 0.783728 0.560414
3.965817 0.784887 0.560596
3.976185 0.804557 0.561477
3.986173 0.785133 0.527278
3.980989 0.764929 0.526538
3.955192 0.766620 0.526596
3.965555 0.786292 0.527461
3.986261 0.783766 0.560417
3.981076 0.763562 0.559677
3.955280 0.765252 0.559734
3.965643 0.784924 0.560599
4.006013 0.735878 0.526034
4.005082 0.707621 0.525482
3.992641 0.722263 0.525755
3.994897 0.738845 0.526016
4.005927 0.735282 0.559195
4.004996 0.707026 0.558643
3.992555 0.721668 0.558916
3.994811 0.738249 0.559177
3.994772 0.738788 0.526015
3.980979 0.764437 0.526525
4.006773 0.762752 0.526270
4.005889 0.735821 0.526033
3.994931 0.738356 0.559179
3.981137 0.764005 0.559689
4.006932 0.762319 0.559434
4.006047 0.735389 0.559197
3.955214 0.766213 0.526584
3.981011 0.764523 0.526526
3.967657 0.751573 0.526313
3.955250 0.765630 0.559746
3.981046 0.763940 0.559688
3.967693 0.750990 0.559475
3.980076 0.736881 0.526042
3.994778 0.738824 0.526016
3.992522 0.722242 0.525755
3.980206 0.736341 0.559204
3.994909 0.738284 0.559178
3.992652 0.721702 0.558917
3.980997 0.764510 0.526526
3.994791 0.738861 0.526016
3.980088 0.736918 0.526042
3.967643 0.751561 0.526313
3.981086 0.763926 0.559688
3.994880 0.738277 0.559178
3.980177 0.736334 0.559204
3.967732 0.750976 0.559474
4.144001 0.549237 0.525619
4.160787 0.552970 0.525658
4.166165 0.539812 0.525744
4.143886 0.549406 0.558785
4.160673 0.553140 0.558824
4.166050 0.539981 0.558910
4.121236 0.558271 0.525533
4.136376 0.561863 0.525486
4.143911 0.549151 0.525619
4.121254 0.558631 0.558698
4.136395 0.562222 0.558651
4.143930 0.549511 0.558784
