1.809822 1.368009 -0.313619
1.809657 1.348629 -0.306919
1.804865 1.360738 -0.319739
1.811874 1.382287 -0.322441
1.833314 1.375002 -0.312382
1.838259 1.357124 -0.305394
1.835183 1.369745 -0.318156
1.830020 1.387699 -0.321434
1.813135 1.328773 -0.302619
1.806362 1.339865 -0.318753
1.843747 1.337876 -0.300997
1.840944 1.350146 -0.316914
1.818222 1.309044 -0.299492
1.811554 1.316966 -0.318376
1.849397 1.318310 -0.297843
1.847596 1.327684 -0.316458
1.824222 1.289468 -0.297067
1.818761 1.293251 -0.317660
1.855111 1.298650 -0.295425
1.854630 1.303906 -0.315771
1.830826 1.270026 -0.295123
1.826211 1.270959 -0.316472
1.860864 1.278968 -0.293507
1.861262 1.281379 -0.314615
1.802138 1.368062 -0.336320
1.813131 1.392937 -0.335437
1.833773 1.377391 -0.334663
1.827832 1.397451 -0.334613
1.802863 1.345731 -0.338330
1.840022 1.356755 -0.336358
1.809162 1.320489 -0.339508
1.847423 1.331976 -0.337468
1.817389 1.293676 -0.339326
1.855514 1.304811 -0.337316
1.824994 1.270027 -0.338302
1.862385 1.281442 -0.336304
1.801697 1.370744 -0.355101
1.813554 1.399188 -0.351131
1.833913 1.380247 -0.353410
1.826939 1.403292 -0.350393
1.802701 1.347492 -0.358329
1.840505 1.358712 -0.356313
1.810247 1.321536 -0.360086
1.848225 1.332933 -0.358075
1.819349 1.292938 -0.360330
1.856904 1.303909 -0.358343
1.826436 1.269710 -0.360105
1.863643 1.281069 -0.358123
1.802974 1.375633 -0.372112
1.813431 1.402659 -0.367707
1.833513 1.384706 -0.370514
1.826801 1.406648 -0.366970
1.803491 1.353852 -0.374958
1.839625 1.364589 -0.373032
1.810659 1.329072 -0.376799
1.847064 1.339898 -0.374864
1.820371 1.300801 -0.378230
1.855647 1.311290 -0.376377
1.827301 1.279364 -0.379294
1.862120 1.289710 -0.377408
1.804825 1.385752 -0.385372
1.813219 1.405337 -0.384449
1.831552 1.393697 -0.383955
1.826875 1.409392 -0.383723
1.803547 1.367041 -0.386539
1.836600 1.376868 -0.384786
1.808275 1.345488 -0.387631
1.842919 1.355785 -0.385792
1.817386 1.320264 -0.388653
1.850604 1.330135 -0.386890
1.825652 1.298577 -0.389358
1.857232 1.307968 -0.387691
1.806464 1.391487 -0.399440
1.813493 1.406122 -0.401386
1.830814 1.398716 -0.398147
1.827502 1.410298 -0.400641
1.803867 1.375745 -0.398808
1.834850 1.384959 -0.397162
1.806150 1.358140 -0.399272
1.839862 1.368161 -0.397487
1.813445 1.338657 -0.399404
1.845784 1.348268 -0.397689
1.822761 1.318431 -0.398032
1.852004 1.327138 -0.396472
1.807825 1.391491 -0.416151
1.814255 1.405789 -0.418337
1.831733 1.398605 -0.414883
1.828486 1.410013 -0.417578
1.804883 1.377422 -0.414733
1.835255 1.386445 -0.413120
1.805976 1.361972 -0.413985
1.839516 1.371945 -0.412203
1.811870 1.345891 -0.413955
1.844390 1.355560 -0.412230
1.820138 1.332187 -0.414372
1.848836 1.340703 -0.412852
1.809431 1.392305 -0.434363
1.815394 1.406025 -0.435266
1.832534 1.399171 -0.433134
1.829337 1.410169 -0.434525
1.806308 1.378887 -0.433971
1.835907 1.387689 -0.432400
1.806554 1.364508 -0.434027
1.839851 1.374403 -0.432260
1.811227 1.350058 -0.434563
1.844201 1.359862 -0.432813
1.818818 1.338320 -0.435331
1.848071 1.347026 -0.433782
1.811458 1.393608 -0.452531
1.817350 1.406652 -0.452112
1.833230 1.400082 -0.451375
1.830149 1.410457 -0.451430
1.808135 1.380838 -0.453154
1.836463 1.389256 -0.451649
1.807662 1.366987 -0.454121
1.840241 1.376675 -0.452392
1.811360 1.352939 -0.455482
1.844446 1.362772 -0.453725
1.818284 1.341616 -0.456952
1.848181 1.350493 -0.455361
1.813029 1.393851 -0.470473
1.818997 1.407130 -0.469012
1.834167 1.400134 -0.469353
1.830978 1.410689 -0.468376
1.809448 1.380953 -0.472036
1.837457 1.389281 -0.470551
1.808743 1.366805 -0.474030
1.841353 1.376496 -0.472299
1.812290 1.352108 -0.476476
1.845770 1.362063 -0.474701
1.819239 1.339760 -0.478654
1.849820 1.348859 -0.477040
1.812749 1.392623 -0.488097
1.819511 1.407165 -0.485974
1.835336 1.399340 -0.486898
1.831836 1.410829 -0.485321
1.809617 1.378630 -0.490114
1.838985 1.387358 -0.488556
1.810081 1.362898 -0.492517
1.843421 1.372811 -0.490752
1.815273 1.345788 -0.495681
1.848670 1.355716 -0.493914
1.822061 1.332275 -0.499009
1.853085 1.341488 -0.497353
1.810773 1.389086 -0.505556
1.820353 1.407367 -0.502921
1.836987 1.396883 -0.504168
1.832675 1.411026 -0.502266
1.809763 1.373138 -0.507088
1.841317 1.382519 -0.505416
1.813153 1.354674 -0.508688
1.846704 1.364646 -0.506908
1.821247 1.333045 -0.511233
1.853390 1.342612 -0.509537
1.826313 1.319169 -0.515830
1.857830 1.328539 -0.514172
1.810675 1.381607 -0.522645
1.821904 1.408440 -0.519782
1.839810 1.390241 -0.521093
1.833330 1.411846 -0.519179
1.810900 1.362714 -0.522959
1.845022 1.372848 -0.521146
1.817227 1.340591 -0.522878
1.851621 1.350813 -0.521053
1.827243 1.314581 -0.522873
1.859574 1.324103 -0.521144
1.831621 1.300370 -0.525713
1.863870 1.309963 -0.524001
1.811595 1.376297 -0.537738
1.822455 1.406210 -0.536565
1.842171 1.385423 -0.536107
1.834796 1.409896 -0.535915
1.812476 1.355431 -0.537283
1.847836 1.365956 -0.535412
1.820221 1.329702 -0.537432
1.855492 1.340190 -0.535560
1.831044 1.299432 -0.536656
1.864662 1.309378 -0.534849
1.836890 1.281519 -0.535316
1.869916 1.291349 -0.533600
1.812346 1.374223 -0.553537
1.822373 1.402436 -0.553107
1.843498 1.383422 -0.551855
1.836609 1.406786 -0.552371
1.813851 1.352964 -0.552719
1.849400 1.363511 -0.550847
1.821384 1.327021 -0.552719
1.856934 1.337724 -0.550828
1.831796 1.296982 -0.553891
1.866126 1.307105 -0.552087
1.839921 1.274043 -0.554865
1.873061 1.284186 -0.553096
1.813130 1.372580 -0.570235
1.822593 1.399513 -0.569799
1.844066 1.381171 -0.568712
1.838237 1.404285 -0.569014
1.815064 1.349889 -0.570630
1.851179 1.360367 -0.568796
1.822176 1.324540 -0.572077
1.859305 1.335652 -0.569906
1.831368 1.298410 -0.574276
1.867479 1.308290 -0.572205
1.840564 1.274819 -0.576719
1.873969 1.285037 -0.574942
1.814968 1.367050 -0.586777
1.821299 1.390986 -0.584132
1.846293 1.375642 -0.585101
1.841165 1.396895 -0.583111
1.818265 1.344054 -0.589133
1.853882 1.354306 -0.587230
1.825398 1.320166 -0.591967
1.862249 1.331004 -0.589951
1.833918 1.297402 -0.595268
1.869545 1.306720 -0.593276
1.843583 1.274237 -0.598369
1.875526 1.283726 -0.596703
1.818279 1.356274 -0.600600
1.818019 1.376272 -0.591735
1.851171 1.366047 -0.598880
1.845263 1.384379 -0.590267
1.824767 1.335551 -0.606303
1.857631 1.345323 -0.604544
1.832778 1.315109 -0.610991
1.864101 1.324418 -0.609330
1.841529 1.294855 -0.615169
1.870552 1.303484 -0.613643
1.850767 1.274745 -0.619043
1.876987 1.282552 -0.617620
1.856807 1.381980 -0.311131
1.866859 1.365632 -0.303881
1.865492 1.378763 -0.316527
1.848183 1.393077 -0.320512
1.874357 1.346975 -0.299377
1.875529 1.360424 -0.315081
1.880571 1.327577 -0.296180
1.883639 1.338396 -0.314558
1.886001 1.307834 -0.293797
1.890493 1.314574 -0.313852
1.890905 1.287886 -0.291931
1.896318 1.291799 -0.312759
1.865415 1.386870 -0.332960
1.842566 1.401691 -0.333877
1.877121 1.367808 -0.334394
1.885794 1.343268 -0.335441
1.893483 1.316297 -0.335294
1.899983 1.292320 -0.334323
1.866149 1.389906 -0.351683
1.840332 1.407144 -0.349707
1.878236 1.369944 -0.354320
1.886325 1.344153 -0.356054
1.894289 1.315215 -0.356353
1.901085 1.291902 -0.356150
1.864050 1.393785 -0.368870
1.840180 1.410614 -0.366287
1.875758 1.375336 -0.371126
1.883472 1.350715 -0.372935
1.890921 1.321775 -0.374491
1.896934 1.300064 -0.375599
1.858278 1.401643 -0.382536
1.840531 1.413453 -0.382998
1.869656 1.386690 -0.383031
1.877563 1.366086 -0.383957
1.883821 1.340011 -0.385128
1.888819 1.317357 -0.386010
1.855161 1.405960 -0.396855
1.841515 1.414455 -0.399895
1.865833 1.394167 -0.395519
1.873574 1.378181 -0.395695
1.878123 1.357885 -0.395974
1.881250 1.335818 -0.394929
1.855643 1.405709 -0.413610
1.842716 1.414247 -0.416823
1.865626 1.395477 -0.411508
1.873056 1.381915 -0.410425
1.876911 1.365224 -0.410504
1.877531 1.349249 -0.411328
1.855638 1.406038 -0.431908
1.843278 1.414317 -0.433781
1.865507 1.396487 -0.430827
1.873147 1.384302 -0.430493
1.877176 1.369664 -0.431063
1.877325 1.355711 -0.432227
1.855001 1.406555 -0.450217
1.842951 1.414259 -0.450749
1.864791 1.397678 -0.450146
1.872820 1.386358 -0.450662
1.877531 1.372609 -0.451971
1.878076 1.359392 -0.453780
1.855307 1.406415 -0.468232
1.842956 1.414255 -0.467741
1.865466 1.397607 -0.469064
1.873964 1.386191 -0.470572
1.879252 1.372012 -0.472922
1.880401 1.357941 -0.475411
1.857921 1.406056 -0.485700
1.844162 1.414490 -0.484667
1.868353 1.396089 -0.487001
1.876761 1.382722 -0.488982
1.882067 1.365649 -0.492151
1.884108 1.350720 -0.495719
1.863203 1.404675 -0.502776
1.844994 1.414695 -0.501612
1.872870 1.391902 -0.503741
1.880255 1.374620 -0.505133
1.885536 1.352168 -0.507837
1.889344 1.337902 -0.512492
1.868942 1.398889 -0.519549
1.844762 1.415232 -0.518569
1.879144 1.382977 -0.519334
1.886017 1.361031 -0.519223
1.891901 1.333642 -0.519419
1.896127 1.319544 -0.522292
1.872744 1.394563 -0.534496
1.847140 1.413556 -0.535237
1.883195 1.376480 -0.533527
1.890764 1.350674 -0.533691
1.898279 1.319328 -0.533060
1.902944 1.301147 -0.531818
1.874669 1.392756 -0.550215
1.850853 1.410901 -0.551582
1.884875 1.374110 -0.548950
1.892602 1.348214 -0.548949
1.900295 1.317577 -0.550269
1.906417 1.293815 -0.551333
1.875037 1.389892 -0.567274
1.853873 1.408819 -0.568120
1.887215 1.370877 -0.566924
1.896558 1.346573 -0.567730
1.903421 1.318509 -0.570154
1.907588 1.294741 -0.573165
1.877621 1.384236 -0.583461
1.861032 1.402792 -0.582027
1.889496 1.364563 -0.585310
1.899100 1.341836 -0.587931
1.905174 1.316043 -0.591308
1.907463 1.293231 -0.594978
1.884058 1.375827 -0.597115
1.872515 1.392474 -0.588840
1.890496 1.355092 -0.602815
1.895423 1.333729 -0.607671
1.899571 1.312113 -0.612089
1.903215 1.290332 -0.616264
1.809941 1.364348 0.307208
1.812003 1.378520 0.316193
1.804983 1.357006 0.313246
1.809761 1.345047 0.300279
1.833436 1.371342 0.306042
1.830154 1.383929 0.315248
1.835304 1.366019 0.311751
1.838367 1.353544 0.298840
1.806468 1.336146 0.312011
1.813228 1.325242 0.295745
1.841055 1.346429 0.310276
1.843843 1.334350 0.294214
1.811648 1.313251 0.311362
1.818302 1.305548 0.292381
1.847695 1.323973 0.309552
1.849481 1.314815 0.290827
1.818842 1.289541 0.310362
1.824291 1.285999 0.289724
1.854716 1.300199 0.308580
1.855184 1.295186 0.288173
1.826280 1.267261 0.308908
1.830883 1.266580 0.287544
1.861335 1.277687 0.307155
1.860926 1.275520 0.286023
1.813275 1.389024 0.329315
1.802264 1.364131 0.329912
1.827979 1.393522 0.328541
1.833906 1.373470 0.328347
1.802987 1.341782 0.331658
1.840145 1.352813 0.329797
1.809263 1.316531 0.332533
1.847537 1.328007 0.330612
1.817488 1.289702 0.332033
1.855607 1.300862 0.330134
1.825066 1.266087 0.330724
1.862475 1.277475 0.328844
1.813710 1.395084 0.345082
1.801834 1.366592 0.348724
1.827093 1.399176 0.344387
1.834059 1.376108 0.347129
1.802837 1.343307 0.351676
1.840637 1.354530 0.349773
1.810358 1.317333 0.353124
1.848351 1.328726 0.351228
1.819458 1.288718 0.353025
1.857007 1.299706 0.351147
1.826518 1.265508 0.352523
1.863743 1.276852 0.350657
1.813595 1.398356 0.361697
1.803124 1.371283 0.365791
1.826967 1.402344 0.361004
1.833668 1.380359 0.364282
1.803633 1.349470 0.368379
1.839772 1.360213 0.366562
1.810789 1.324667 0.369923
1.847198 1.335494 0.368098
1.820487 1.296376 0.371017
1.855767 1.306869 0.369268
1.827406 1.274926 0.371822
1.862230 1.285271 0.370042
1.813392 1.400834 0.378470
1.804988 1.381244 0.379169
1.827050 1.404890 0.377787
1.831719 1.389194 0.377830
1.803701 1.362522 0.380114
1.836758 1.372350 0.378461
1.808418 1.340955 0.380950
1.843067 1.351257 0.379216
1.817517 1.315715 0.381670
1.850740 1.325588 0.380005
1.825773 1.294017 0.382113
1.857356 1.303415 0.380544
1.813675 1.401421 0.395416
1.806637 1.386811 0.393301
1.827686 1.405598 0.394713
1.830990 1.394043 0.392080
1.804032 1.371081 0.392484
1.835019 1.380298 0.390933
1.806305 1.353470 0.392741
1.840022 1.363493 0.391055
1.813591 1.333983 0.392639
1.845934 1.343599 0.391022
1.822895 1.313773 0.391022
1.852144 1.322475 0.389552
1.814445 1.400888 0.412361
1.808006 1.386618 0.410010
1.828678 1.405109 0.411644
1.831918 1.393737 0.408814
1.805057 1.372568 0.408428
1.835433 1.381594 0.406906
1.806141 1.357129 0.407497
1.839686 1.367105 0.405818
1.812027 1.341045 0.407275
1.844551 1.350716 0.405647
1.820288 1.327332 0.407527
1.848989 1.335855 0.406092
1.815592 1.400923 0.429290
1.809622 1.387217 0.428230
1.829537 1.405070 0.428592
1.832727 1.394084 0.427069
1.806491 1.373807 0.427681
1.836094 1.382613 0.426200
1.806730 1.359427 0.427568
1.840031 1.369324 0.425900
1.811396 1.344970 0.427931
1.844374 1.354779 0.426281
1.818981 1.333221 0.428557
1.848238 1.341926 0.427096
1.817556 1.401352 0.446142
1.811658 1.388305 0.446410
1.830357 1.405155 0.445497
1.833432 1.394785 0.445320
1.808329 1.375532 0.446885
1.836661 1.383950 0.445464
1.807849 1.361669 0.447688
1.840432 1.371362 0.446059
1.811541 1.347604 0.448882
1.844630 1.357440 0.447225
1.818459 1.336262 0.450217
1.848360 1.345143 0.448716
1.819211 1.401631 0.463044
1.813237 1.388336 0.464352
1.831195 1.405189 0.462445
1.834378 1.394622 0.463295
1.809650 1.375424 0.465765
1.837663 1.383755 0.464366
1.808938 1.361253 0.467594
1.841554 1.370946 0.465960
1.812480 1.346526 0.469865
1.845964 1.356487 0.468192
1.819423 1.334153 0.471895
1.850009 1.343249 0.470373
1.819733 1.401465 0.480005
1.812965 1.386903 0.481959
1.832060 1.405129 0.479388
1.835554 1.393623 0.480830
1.809827 1.372888 0.483815
1.839199 1.381618 0.482345
1.810284 1.357129 0.486033
1.843628 1.367048 0.484369
1.815468 1.339980 0.488993
1.848870 1.349910 0.487327
1.822251 1.326426 0.492161
1.853279 1.335644 0.490599
1.820582 1.401470 0.496953
1.810995 1.383161 0.499377
1.832907 1.405129 0.496334
1.837212 1.390962 0.498068
1.809978 1.367199 0.500723
1.841535 1.376584 0.499146
1.813359 1.348715 0.502105
1.846914 1.358688 0.500426
1.821443 1.327054 0.504393
1.853590 1.336626 0.502796
1.826504 1.313124 0.508827
1.858025 1.322492 0.507262
1.822142 1.402342 0.513824
1.810900 1.375485 0.516378
1.833569 1.405749 0.513255
1.840040 1.384122 0.514914
1.811116 1.356588 0.516470
1.845242 1.366725 0.514760
1.817432 1.334465 0.516127
1.851830 1.344693 0.514407
1.827435 1.308452 0.515816
1.859770 1.317975 0.514180
1.831806 1.294205 0.518486
1.864060 1.303805 0.516872
1.822699 1.399916 0.530579
1.811824 1.369998 0.531406
1.835041 1.403606 0.529967
1.842405 1.379124 0.529868
1.812695 1.349139 0.530707
1.848059 1.359668 0.528944
1.820427 1.323404 0.530551
1.855702 1.333896 0.528786
1.831233 1.293142 0.529416
1.864857 1.303091 0.527714
1.837072 1.275242 0.527866
1.870100 1.285074 0.526249
1.822624 1.395954 0.547076
1.812581 1.367737 0.547180
1.836862 1.400294 0.546383
1.843736 1.376945 0.545591
1.814078 1.346489 0.546112
1.849629 1.357040 0.544349
1.821594 1.320549 0.545807
1.857150 1.331249 0.544023
1.831995 1.290485 0.546621
1.866326 1.300618 0.544923
1.840103 1.267541 0.547326
1.873253 1.277681 0.545658
1.822850 1.392834 0.563732
1.813369 1.365899 0.563857
1.838493 1.397605 0.562996
1.844313 1.374492 0.562421
1.815298 1.343205 0.563985
1.851412 1.353688 0.562258
1.822392 1.317840 0.565135
1.859530 1.328951 0.563075
1.831576 1.291677 0.567022
1.867687 1.301569 0.565052
1.840758 1.268059 0.569187
1.874169 1.278274 0.567512
1.821556 1.384139 0.577966
1.815215 1.360176 0.580332
1.841426 1.390046 0.577003
1.846543 1.368773 0.578743
1.818501 1.337152 0.582418
1.854122 1.347408 0.580620
1.825623 1.313230 0.584970
1.862478 1.324073 0.583063
1.834133 1.290424 0.588000
1.869764 1.299746 0.586103
1.843786 1.267220 0.590826
1.875736 1.276713 0.589256
1.818273 1.369339 0.585398
1.818526 1.349237 0.594027
1.845520 1.377449 0.584010
1.851423 1.359013 0.592407
1.825007 1.328447 0.599484
1.857874 1.338224 0.597825
1.833009 1.307947 0.603930
1.864336 1.317258 0.602364
1.841752 1.287642 0.607868
1.870778 1.296274 0.606427
1.850982 1.267483 0.611501
1.877203 1.275291 0.610160
1.856931 1.378325 0.304860
1.848317 1.389311 0.314374
1.865619 1.375039 0.310215
1.866972 1.362052 0.297415
1.875643 1.356708 0.308548
1.874457 1.343452 0.292684
1.883742 1.334691 0.307758
1.880660 1.324083 0.289259
1.890584 1.310866 0.306771
1.886077 1.304375 0.286635
1.896396 1.288114 0.305403
1.890971 1.284439 0.284535
1.842707 1.397779 0.327844
1.865556 1.382944 0.326743
1.877247 1.363867 0.327945
1.885911 1.339314 0.328696
1.893586 1.312333 0.328229
1.900070 1.288381 0.326969
1.840487 1.403040 0.343738
1.866299 1.385764 0.345500
1.878376 1.365761 0.347894
1.886451 1.339962 0.349320
1.894403 1.310995 0.349273
1.901182 1.287713 0.348790
1.840346 1.406316 0.360359
1.864210 1.389438 0.362732
1.875908 1.370964 0.364765
1.883611 1.346313 0.366277
1.891046 1.317360 0.367490
1.897047 1.295626 0.368336
1.840708 1.408950 0.377099
1.858448 1.397143 0.376495
1.869818 1.382173 0.376803
1.877715 1.361563 0.377485
1.883960 1.335465 0.378343
1.888947 1.312807 0.378955
1.841700 1.409759 0.394012
1.855341 1.401286 0.390860
1.866006 1.389512 0.389384
1.873739 1.373513 0.389365
1.878277 1.353220 0.389405
1.881392 1.331161 0.388095
1.842908 1.409345 0.410931
1.855831 1.400844 0.407615
1.865807 1.390626 0.405384
1.873230 1.377081 0.404141
1.877076 1.360381 0.404018
1.877688 1.344403 0.404657
1.843480 1.409221 0.427891
1.855834 1.400951 0.425912
1.865698 1.391416 0.424717
1.873332 1.379224 0.424233
1.877353 1.364585 0.424632
1.877495 1.350614 0.425628
1.843160 1.408959 0.444854
1.855207 1.401260 0.444228
1.864992 1.392374 0.444046
1.873016 1.381050 0.444428
1.877719 1.367277 0.445569
1.878259 1.354047 0.447227
1.843172 1.408761 0.461847
1.855522 1.400901 0.462237
1.865675 1.392087 0.462964
1.874168 1.380642 0.464331
1.879450 1.366439 0.466516
1.880592 1.352337 0.468835
1.844388 1.408790 0.478771
1.858143 1.400343 0.479702
1.868570 1.390350 0.480878
1.876972 1.376963 0.482701
1.882270 1.359844 0.485664
1.884306 1.344880 0.489061
1.845227 1.408803 0.495720
1.863431 1.398753 0.496754
1.873092 1.385972 0.497569
1.880469 1.368665 0.498751
1.885741 1.346185 0.501193
1.889542 1.331861 0.505678
1.845003 1.409133 0.512678
1.869175 1.392776 0.513460
1.879369 1.376856 0.513050
1.886231 1.354914 0.512682
1.892101 1.327517 0.512554
1.896322 1.313387 0.515261
1.847388 1.407268 0.529327
1.872981 1.388267 0.528349
1.883424 1.370197 0.527167
1.890978 1.344381 0.527023
1.898478 1.313046 0.526024
1.903132 1.294875 0.524568
1.851103 1.404417 0.545636
1.874916 1.386280 0.544047
1.885106 1.367638 0.542558
1.892823 1.341752 0.542253
1.900501 1.311084 0.543209
1.906611 1.287319 0.543997
1.854132 1.402145 0.562148
1.875287 1.383211 0.561071
1.887455 1.364200 0.560492
1.896783 1.339882 0.561012
1.903638 1.311787 0.563102
1.907790 1.287988 0.565838
1.861294 1.395945 0.575981
1.877876 1.377371 0.577188
1.889740 1.357666 0.578804
1.899335 1.334911 0.581153
1.905397 1.309073 0.584228
1.907675 1.286221 0.587628
1.872775 1.385550 0.582667
1.884314 1.368794 0.590743
1.890744 1.347997 0.596193
1.895661 1.326571 0.600803
1.899800 1.304906 0.604961
1.903437 1.283075 0.608883
