2.440777 0.698907 -0.264928
2.441302 0.698984 -0.301192
2.425662 0.700512 -0.301688
2.421344 0.647875 -0.266006
2.436987 0.647103 -0.265632
2.437512 0.647179 -0.301896
2.421872 0.648707 -0.302391
2.426853 0.700399 -0.301788
2.442493 0.698871 -0.301292
2.442885 0.698881 -0.337613
2.427267 0.701104 -0.338121
2.420682 0.648822 -0.302364
2.436322 0.647294 -0.301868
2.436714 0.647304 -0.338189
2.421096 0.649527 -0.338697
2.467209 0.640566 -0.156114
2.467047 0.640610 -0.192048
2.463879 0.675415 -0.192660
2.463633 0.675473 -0.156413
2.415503 0.635563 -0.156173
2.415340 0.635607 -0.192107
2.412173 0.670411 -0.192719
2.411926 0.670470 -0.156472
2.467083 0.640199 -0.192100
2.466737 0.640292 -0.228048
2.464291 0.675012 -0.228945
2.463915 0.675004 -0.192712
2.415304 0.636017 -0.192127
2.414958 0.636110 -0.228075
2.412512 0.670830 -0.228972
2.412136 0.670822 -0.192739
2.466781 0.639657 -0.228101
2.466271 0.639805 -0.264033
2.464824 0.674443 -0.265246
2.464334 0.674377 -0.228998
2.414914 0.636745 -0.228094
2.414405 0.636894 -0.264027
2.412957 0.671531 -0.265240
2.412468 0.671465 -0.228991
2.466303 0.639005 -0.264099
2.465682 0.639197 -0.300015
2.465381 0.673719 -0.301575
2.464856 0.673642 -0.265311
2.414372 0.637695 -0.264034
2.413751 0.637886 -0.299951
2.413449 0.672409 -0.301511
2.412925 0.672332 -0.265247
2.465690 0.638429 -0.300060
2.465187 0.638594 -0.335921
2.465781 0.672962 -0.337940
2.465389 0.672952 -0.301619
2.413743 0.638654 -0.299979
2.413240 0.638819 -0.335840
2.413833 0.673186 -0.337859
2.413441 0.673176 -0.301539
2.435719 0.608988 -0.156064
2.435459 0.609150 -0.191810
2.448951 0.613302 -0.192194
2.449113 0.613258 -0.156260
2.420195 0.658561 -0.155830
2.419934 0.658723 -0.191576
2.433426 0.662875 -0.191960
2.433589 0.662832 -0.156026
2.435073 0.609033 -0.191969
2.434613 0.609394 -0.227697
2.448219 0.613278 -0.228301
2.448565 0.613185 -0.192353
2.420320 0.658840 -0.191489
2.419861 0.659201 -0.227216
2.433466 0.663085 -0.227820
2.433812 0.662992 -0.191872
2.434006 0.609224 -0.227834
2.433342 0.609733 -0.263570
2.447102 0.613257 -0.264370
2.447612 0.613108 -0.228438
2.420467 0.659372 -0.227152
2.419802 0.659881 -0.262888
2.433562 0.663404 -0.263688
2.434072 0.663256 -0.227756
2.432577 0.609540 -0.263673
2.431816 0.610177 -0.299420
2.445715 0.613255 -0.300390
2.446337 0.613064 -0.264473
2.420566 0.660074 -0.262857
2.419805 0.660711 -0.298604
2.433705 0.663789 -0.299574
2.434326 0.663598 -0.263657
2.431056 0.610007 -0.299380
2.430413 0.610542 -0.335188
2.444453 0.613251 -0.336211
2.444956 0.613086 -0.300350
2.420564 0.660880 -0.298716
2.419921 0.661415 -0.334524
2.433960 0.664124 -0.335547
2.434463 0.663959 -0.299686
2.427878 0.701024 -0.338154
2.443496 0.698801 -0.337646
2.443039 0.699236 -0.372848
2.427799 0.701455 -0.372859
2.420486 0.649608 -0.338735
2.436103 0.647385 -0.338227
2.435646 0.647820 -0.373429
2.420406 0.650040 -0.373439
2.427852 0.701449 -0.372962
2.443092 0.699229 -0.372952
2.442487 0.699617 -0.408076
2.427614 0.701788 -0.407742
2.420352 0.650047 -0.373406
2.435592 0.647827 -0.373396
2.434987 0.648215 -0.408521
2.420114 0.650387 -0.408186
2.427539 0.701800 -0.407814
2.442411 0.699628 -0.408149
2.441801 0.700016 -0.443287
2.427287 0.702037 -0.442581
2.420189 0.650376 -0.408183
2.435061 0.648204 -0.408518
2.434451 0.648592 -0.443656
2.419936 0.650613 -0.442950
2.465181 0.638242 -0.336255
2.464707 0.636062 -0.369953
2.465317 0.673044 -0.373477
2.465774 0.672609 -0.338274
2.413246 0.639171 -0.335577
2.412771 0.636992 -0.369274
2.413382 0.673973 -0.372798
2.413839 0.673538 -0.337596
2.464708 0.636172 -0.369987
2.464389 0.633926 -0.403759
2.464714 0.673541 -0.408635
2.465319 0.673153 -0.373511
2.412769 0.636880 -0.369309
2.412450 0.634635 -0.403082
2.412775 0.674250 -0.407958
2.413380 0.673862 -0.372833
2.464390 0.634118 -0.403802
2.464069 0.631876 -0.437561
2.464104 0.674121 -0.443816
2.464715 0.673733 -0.408678
2.412448 0.634441 -0.403108
2.412126 0.632199 -0.436868
2.412162 0.674444 -0.443122
2.412773 0.674056 -0.407984
2.429357 0.610374 -0.333645
2.428602 0.609062 -0.367549
2.442922 0.610905 -0.368366
2.443396 0.613084 -0.334668
2.420976 0.661581 -0.336137
2.420222 0.660269 -0.370040
2.434541 0.662112 -0.370858
2.435016 0.664291 -0.337160
2.427184 0.608878 -0.367405
2.426619 0.607298 -0.401221
2.441185 0.608474 -0.401995
2.441504 0.610720 -0.368222
2.421639 0.660450 -0.370252
2.421073 0.658870 -0.404068
2.435639 0.660047 -0.404841
2.435958 0.662292 -0.371069
2.425332 0.607189 -0.401266
2.424755 0.605694 -0.435100
2.439576 0.606124 -0.435800
2.439898 0.608365 -0.402040
2.422359 0.658975 -0.404090
2.421783 0.657480 -0.437924
2.436604 0.657910 -0.438623
2.436925 0.660151 -0.404864
2.462170 0.604505 -0.534063
2.461487 0.586644 -0.566130
2.461266 0.623521 -0.566264
2.461954 0.635336 -0.535910
2.410239 0.604207 -0.532780
2.409556 0.586347 -0.564847
2.409335 0.623223 -0.564981
2.410023 0.635038 -0.534627
2.461949 0.635459 -0.536053
2.460931 0.634546 -0.566677
2.460670 0.674415 -0.566981
2.461518 0.672187 -0.536198
2.410027 0.634999 -0.534485
2.409009 0.634086 -0.565109
2.408748 0.673954 -0.565413
2.409596 0.671727 -0.534630
2.425345 0.702193 -0.444363
2.439859 0.700172 -0.445069
2.438969 0.699386 -0.475677
2.424414 0.699455 -0.474035
2.421877 0.650456 -0.441233
2.436391 0.648434 -0.441939
2.435502 0.647648 -0.472546
2.420947 0.647717 -0.470905
2.423609 0.699541 -0.472784
2.438163 0.699472 -0.474426
2.437310 0.698698 -0.505023
2.422686 0.699717 -0.502638
2.421751 0.647629 -0.472216
2.436306 0.647560 -0.473858
2.435453 0.646786 -0.504455
2.420828 0.647806 -0.502070
2.424412 0.699597 -0.502672
2.439037 0.698578 -0.505057
2.438206 0.697813 -0.535669
2.423524 0.699867 -0.532513
2.419100 0.647925 -0.502097
2.433725 0.646905 -0.504482
2.432894 0.646140 -0.535095
2.418212 0.648195 -0.531938
2.422951 0.699903 -0.531275
2.437634 0.697848 -0.534431
2.436786 0.700076 -0.565214
2.422055 0.700116 -0.561116
2.418783 0.648160 -0.533237
2.433465 0.646105 -0.536393
2.432617 0.648332 -0.567176
2.417886 0.648372 -0.563078
2.423896 0.598189 -0.488532
2.422877 0.579807 -0.520884
2.438705 0.581796 -0.520763
2.439387 0.599657 -0.488696
2.418880 0.643308 -0.513784
2.417862 0.624927 -0.546136
2.433690 0.626916 -0.546015
2.434372 0.644777 -0.513948
2.423301 0.579817 -0.520958
2.422277 0.561467 -0.553327
2.438446 0.563946 -0.552904
2.439129 0.581806 -0.520837
2.417436 0.624881 -0.546127
2.416413 0.606531 -0.578496
2.432581 0.609010 -0.578073
2.433265 0.626870 -0.546005
2.461494 0.586728 -0.565473
2.461836 0.571195 -0.600136
2.461315 0.612439 -0.600669
2.461273 0.623605 -0.565607
2.409548 0.586235 -0.565570
2.409890 0.570701 -0.600233
2.409370 0.611945 -0.600766
2.409327 0.623111 -0.565704
2.461270 0.623821 -0.565651
2.461313 0.612655 -0.600713
2.460778 0.653900 -0.601246
2.460940 0.634723 -0.565920
2.409329 0.622960 -0.565661
2.409372 0.611794 -0.600723
2.408837 0.653039 -0.601256
2.408999 0.633862 -0.565930
2.460940 0.634716 -0.566085
2.460778 0.653893 -0.601411
2.460118 0.674150 -0.602365
2.460679 0.674584 -0.566390
2.408999 0.633926 -0.565766
2.408837 0.653103 -0.601092
2.408177 0.673360 -0.602046
2.408738 0.673795 -0.566071
2.421874 0.700146 -0.561764
2.436605 0.700106 -0.565862
2.436044 0.699672 -0.601837
2.421042 0.701747 -0.600922
2.418065 0.648343 -0.562498
2.432796 0.648303 -0.566596
2.432235 0.647869 -0.602571
2.417234 0.649944 -0.601656
2.418701 0.701767 -0.602916
2.433702 0.699691 -0.603832
2.432771 0.700179 -0.632552
2.394825 0.697198 -0.633896
2.419562 0.649924 -0.599729
2.434563 0.647848 -0.600645
2.433632 0.648336 -0.629365
2.395686 0.645355 -0.630709
2.461743 0.571052 -0.602407
2.459634 0.553771 -0.624757
2.459386 0.612899 -0.628017
2.461223 0.612296 -0.602940
2.409981 0.570822 -0.598020
2.407872 0.553541 -0.620370
2.407625 0.612668 -0.623630
2.409461 0.612066 -0.598553
2.461266 0.612365 -0.602352
2.459429 0.612967 -0.627429
2.459347 0.654153 -0.629784
2.460731 0.653610 -0.602885
2.409417 0.612089 -0.599145
2.407581 0.612691 -0.624222
2.407498 0.653878 -0.626577
2.408883 0.653334 -0.599678
2.460755 0.653960 -0.602355
2.459370 0.654504 -0.629254
2.459163 0.674705 -0.632029
2.460094 0.674217 -0.603309
2.408859 0.653046 -0.600211
2.407474 0.653589 -0.627110
2.407267 0.673790 -0.629885
2.408198 0.673303 -0.601165
2.459700 0.553614 -0.621412
2.460892 0.555433 -0.658028
2.461436 0.604325 -0.658025
2.459452 0.612742 -0.624672
2.407806 0.553686 -0.623774
2.408997 0.555504 -0.660389
2.409541 0.604396 -0.660386
2.407558 0.612813 -0.627034
2.459413 0.612750 -0.624004
2.461397 0.604332 -0.657357
2.461910 0.651228 -0.657354
2.459331 0.653936 -0.626359
2.407598 0.612904 -0.627705
2.409581 0.604487 -0.661057
2.410094 0.651382 -0.661054
2.407515 0.654090 -0.630060
2.459275 0.654096 -0.625700
2.461854 0.651388 -0.656694
2.462263 0.672308 -0.656825
2.459068 0.674297 -0.628475
2.407571 0.653995 -0.630722
2.410150 0.651287 -0.661716
2.410558 0.672206 -0.661847
2.407364 0.674196 -0.633497
2.431604 0.700138 -0.632462
2.434798 0.698149 -0.660813
2.392396 0.696065 -0.661619
2.393657 0.697157 -0.633807
2.434788 0.648372 -0.629512
2.437983 0.646383 -0.657862
2.395581 0.644298 -0.658669
2.396842 0.645391 -0.630857
2.395280 0.697076 -0.635305
2.394019 0.695984 -0.663117
2.351618 0.693899 -0.663924
2.357322 0.699100 -0.636933
2.395139 0.645470 -0.629361
2.393878 0.644377 -0.657173
2.351477 0.642292 -0.657980
2.357181 0.647493 -0.630988
2.357081 0.698476 -0.640335
2.351377 0.693275 -0.667327
2.308975 0.691190 -0.668133
2.319302 0.699517 -0.642009
2.357342 0.648117 -0.627588
2.351638 0.642916 -0.654579
2.309236 0.640831 -0.655386
2.319562 0.649158 -0.629262
2.318746 0.699202 -0.643117
2.308419 0.690875 -0.669241
2.278568 0.690522 -0.668471
2.285854 0.698315 -0.642552
2.320047 0.649473 -0.628154
2.309721 0.641146 -0.654278
2.279870 0.640792 -0.653507
2.287156 0.648586 -0.627588
2.285449 0.698546 -0.641686
2.278164 0.690752 -0.667604
2.248316 0.690400 -0.666837
2.252732 0.696684 -0.641169
2.287497 0.648353 -0.628453
2.280212 0.640560 -0.654372
2.250364 0.640207 -0.653605
2.254780 0.646491 -0.627937
2.252709 0.696979 -0.639923
2.248294 0.690695 -0.665591
2.218442 0.690342 -0.664825
2.219997 0.695102 -0.639406
2.254739 0.646194 -0.629182
2.250324 0.639910 -0.654851
2.220472 0.639557 -0.654085
2.222027 0.644317 -0.628666
2.220322 0.695197 -0.638991
2.218767 0.690437 -0.664410
2.180301 0.689296 -0.664047
2.182531 0.694581 -0.638307
2.221633 0.644220 -0.629079
2.220077 0.639461 -0.654498
2.181612 0.638319 -0.654135
2.183842 0.643605 -0.628395
2.181505 0.694725 -0.637206
2.179275 0.689439 -0.662946
2.140809 0.688299 -0.662583
2.143830 0.691124 -0.636632
2.184792 0.643458 -0.629495
2.182562 0.638172 -0.655235
2.144096 0.637032 -0.654872
2.147117 0.639857 -0.628921
2.144803 0.691285 -0.635749
2.141782 0.688459 -0.661700
2.103317 0.687319 -0.661337
2.107013 0.690677 -0.635067
2.146068 0.639694 -0.629803
2.143047 0.636868 -0.655754
2.104581 0.635728 -0.655391
2.108277 0.639086 -0.629121
2.104963 0.690530 -0.635207
2.101268 0.687172 -0.661477
2.062918 0.683039 -0.661223
2.067289 0.686929 -0.634634
2.110250 0.639228 -0.628980
2.106554 0.635870 -0.655250
2.068205 0.631737 -0.654995
2.072575 0.635627 -0.628406
2.306613 0.555476 -0.681596
2.279369 0.556115 -0.681848
2.279379 0.589705 -0.683091
2.307278 0.589313 -0.683101
2.306424 0.557593 -0.629691
2.279180 0.558233 -0.629944
2.279191 0.591823 -0.631187
2.307089 0.591431 -0.631196
2.307045 0.589347 -0.683102
2.279146 0.589738 -0.683092
2.279160 0.623329 -0.684340
2.307706 0.623184 -0.684610
2.307323 0.591465 -0.631198
2.279424 0.591857 -0.631188
2.279439 0.625447 -0.632436
2.307985 0.625302 -0.632706
2.307390 0.622499 -0.684569
2.278844 0.622644 -0.684299
2.278759 0.663850 -0.686909
2.308610 0.664204 -0.687680
2.308302 0.626062 -0.632752
2.279756 0.626207 -0.632481
2.279670 0.667414 -0.635092
2.309521 0.667767 -0.635862
2.279346 0.556312 -0.681855
2.252099 0.556952 -0.682108
2.251462 0.590294 -0.683091
2.279356 0.589902 -0.683098
2.279148 0.558037 -0.629936
2.251901 0.558676 -0.630189
2.251264 0.592019 -0.631172
2.279158 0.591627 -0.631179
2.279124 0.589928 -0.683099
2.251230 0.590321 -0.683091
2.250589 0.623662 -0.684084
2.279139 0.623518 -0.684347
2.279390 0.591668 -0.631181
2.251495 0.592060 -0.631173
2.250854 0.625401 -0.632165
2.279404 0.625258 -0.632428
2.278819 0.622924 -0.684316
2.250269 0.623068 -0.684053
2.248886 0.663779 -0.686160
2.278733 0.664131 -0.686927
2.279723 0.625927 -0.632463
2.251173 0.626070 -0.632200
2.249789 0.666781 -0.634307
2.279637 0.667133 -0.635073
2.252079 0.557148 -0.682113
2.224836 0.557788 -0.682366
2.223543 0.590881 -0.683097
2.251442 0.590491 -0.683097
2.251866 0.558481 -0.630183
2.224623 0.559122 -0.630435
2.223330 0.592215 -0.631166
2.251229 0.591824 -0.631166
2.251214 0.590509 -0.683097
2.223314 0.590900 -0.683097
2.222026 0.623994 -0.683840
2.250572 0.623850 -0.684089
2.251455 0.591872 -0.631168
2.223556 0.592263 -0.631168
2.222268 0.625357 -0.631911
2.250814 0.625214 -0.632160
2.250245 0.623361 -0.684068
2.221699 0.623505 -0.683819
2.219010 0.663719 -0.685409
2.248862 0.664072 -0.686175
2.251138 0.625776 -0.632184
2.222592 0.625920 -0.631935
2.219903 0.666135 -0.633525
2.249755 0.666487 -0.634291
2.304119 0.555723 -0.681492
2.304784 0.589561 -0.682997
2.328219 0.605548 -0.685338
2.326768 0.583394 -0.684864
2.308968 0.557367 -0.629797
2.309634 0.591205 -0.631302
2.333069 0.607193 -0.633643
2.331617 0.585038 -0.633169
2.305620 0.589590 -0.683063
2.306281 0.623427 -0.684572
2.330513 0.627734 -0.685800
2.329055 0.605577 -0.685404
2.308800 0.591232 -0.631239
2.309462 0.625069 -0.632747
2.333694 0.629377 -0.633975
2.332235 0.607220 -0.633579
2.307156 0.622532 -0.684566
2.308375 0.664236 -0.687677
2.334186 0.645172 -0.686840
2.331388 0.626839 -0.685794
2.308590 0.626023 -0.632756
2.309810 0.667727 -0.635866
2.335620 0.648663 -0.635029
2.332822 0.630330 -0.633983
2.435440 0.555243 -0.685194
2.417499 0.578754 -0.685324
2.417817 0.610467 -0.686029
2.435984 0.604135 -0.685191
2.434432 0.555706 -0.633258
2.416491 0.579217 -0.633388
2.416809 0.610930 -0.634093
2.434976 0.604598 -0.633255
2.437232 0.604137 -0.685137
2.419065 0.610469 -0.685975
2.419386 0.642182 -0.686739
2.437745 0.651032 -0.685134
2.433729 0.604676 -0.633310
2.415562 0.611008 -0.634148
2.415883 0.642722 -0.634912
2.434242 0.651571 -0.633307
2.439638 0.650303 -0.684918
2.421279 0.641454 -0.686523
2.421486 0.647197 -0.687368
2.440047 0.671223 -0.685049
2.432350 0.652353 -0.633524
2.413990 0.643503 -0.635130
2.414197 0.649247 -0.635975
2.432758 0.673273 -0.633655
2.417987 0.650191 -0.687571
2.390377 0.649764 -0.687396
2.394147 0.672132 -0.686058
2.436548 0.674217 -0.685252
2.417661 0.646265 -0.635773
2.390051 0.645839 -0.635597
2.393821 0.668206 -0.634260
2.436222 0.670291 -0.633453
2.390303 0.648714 -0.687454
2.362691 0.648277 -0.687069
2.351671 0.668997 -0.686923
2.394072 0.671082 -0.686117
2.390056 0.646886 -0.635539
2.362444 0.646449 -0.635154
2.351424 0.667169 -0.635008
2.393825 0.669254 -0.634202
2.362774 0.647134 -0.687084
2.335164 0.646705 -0.686907
2.309353 0.665770 -0.687744
2.351754 0.667855 -0.686938
2.362290 0.647589 -0.635140
2.334680 0.647160 -0.634964
2.308869 0.666225 -0.635801
2.351271 0.668309 -0.634994
2.434397 0.554475 -0.685176
2.391650 0.556165 -0.683983
2.387225 0.579732 -0.685183
2.416456 0.577986 -0.685306
2.435439 0.556436 -0.633275
2.392692 0.558126 -0.632083
2.388266 0.581693 -0.633283
2.417498 0.579946 -0.633405
2.391631 0.555359 -0.683940
2.348862 0.555052 -0.682747
2.357975 0.580669 -0.685032
2.387206 0.578926 -0.685140
2.392639 0.558935 -0.632125
2.349869 0.558627 -0.630932
2.358982 0.584244 -0.633217
2.388213 0.582501 -0.633325
2.348813 0.554404 -0.682693
2.306045 0.554094 -0.681499
2.328694 0.581765 -0.684870
2.357926 0.580021 -0.684978
2.349846 0.559277 -0.630985
2.307077 0.558967 -0.629790
2.329726 0.586638 -0.633162
2.358958 0.584894 -0.633270
2.432409 0.527704 -0.623609
2.390035 0.530341 -0.624433
2.390854 0.531213 -0.659032
2.433601 0.529522 -0.660224
2.435054 0.579544 -0.621575
2.392679 0.582182 -0.622399
2.393498 0.583054 -0.656998
2.436245 0.581363 -0.658191
2.391509 0.530298 -0.624099
2.349297 0.529958 -0.624873
2.349558 0.530863 -0.657505
2.392328 0.531170 -0.658698
2.391120 0.582227 -0.622733
2.348908 0.581887 -0.623507
2.349169 0.582791 -0.656139
2.391939 0.583099 -0.657332
2.349258 0.529960 -0.624948
2.307046 0.529610 -0.625721
2.306751 0.530555 -0.656386
2.349519 0.530864 -0.657580
2.348863 0.581884 -0.623431
2.306651 0.581535 -0.624204
2.306356 0.582479 -0.654869
2.349124 0.582789 -0.656063
2.306186 0.529618 -0.625733
2.278147 0.530331 -0.626041
2.278647 0.531202 -0.656651
2.305891 0.530562 -0.656398
2.307441 0.581528 -0.624191
2.279401 0.582241 -0.624499
2.279902 0.583112 -0.655109
2.307145 0.582472 -0.654856
2.278123 0.530330 -0.626001
2.250088 0.531033 -0.626309
2.251377 0.531841 -0.656863
2.278624 0.531201 -0.656610
2.279369 0.582243 -0.624540
2.251334 0.582946 -0.624848
2.252623 0.583753 -0.655402
2.279870 0.583114 -0.655150
2.250058 0.531033 -0.626271
2.222017 0.531740 -0.626580
2.224103 0.532481 -0.657077
2.251346 0.531840 -0.656825
2.251309 0.582947 -0.624886
2.223269 0.583655 -0.625194
2.225355 0.584395 -0.655692
2.252598 0.583755 -0.655440
2.220801 0.531789 -0.626140
2.179923 0.535234 -0.626605
2.180346 0.534911 -0.656927
2.222887 0.532530 -0.656637
2.224416 0.583609 -0.625635
2.183537 0.587054 -0.626101
2.183960 0.586731 -0.656422
2.226502 0.584350 -0.656133
2.179870 0.535248 -0.625599
2.138991 0.538693 -0.626065
2.137751 0.537314 -0.656209
2.180293 0.534924 -0.655921
2.183506 0.587046 -0.627107
2.142628 0.590491 -0.627572
2.141388 0.589112 -0.657717
2.183929 0.586723 -0.657429
2.138940 0.538745 -0.625059
2.098061 0.542190 -0.625524
2.095160 0.539770 -0.655494
2.137700 0.537366 -0.655204
2.142596 0.590445 -0.628579
2.101717 0.593890 -0.629044
2.098817 0.591469 -0.659013
2.141356 0.589066 -0.658724
2.224495 0.555148 -0.682164
2.181954 0.557529 -0.682454
2.169461 0.581620 -0.685154
2.197557 0.581145 -0.685597
2.224875 0.561757 -0.630640
2.182333 0.564137 -0.630929
2.169841 0.588228 -0.633629
2.197937 0.587753 -0.634073
2.181947 0.558186 -0.682529
2.139406 0.560575 -0.682818
2.141360 0.582762 -0.684796
2.169455 0.582277 -0.685229
2.182269 0.563484 -0.630853
2.139728 0.565873 -0.631142
2.141682 0.588060 -0.633120
2.169777 0.587574 -0.633553
2.139397 0.561317 -0.682883
2.096857 0.563721 -0.683173
2.113252 0.583986 -0.684417
2.141351 0.583505 -0.684862
2.139666 0.565134 -0.631076
2.097127 0.567537 -0.631366
2.113522 0.587802 -0.632610
2.141620 0.587321 -0.633055
2.227497 0.558197 -0.682224
2.200559 0.584194 -0.685657
2.200294 0.605223 -0.685656
2.226204 0.591291 -0.682955
2.221908 0.558733 -0.630580
2.194969 0.584729 -0.634013
2.194704 0.605759 -0.634012
2.220614 0.591826 -0.631311
2.225738 0.591236 -0.683000
2.199827 0.605169 -0.685702
2.199571 0.626196 -0.685828
2.224449 0.624331 -0.683744
2.221080 0.591935 -0.631266
2.195169 0.605868 -0.633968
2.194913 0.626895 -0.634094
2.219791 0.625029 -0.632010
2.223853 0.624038 -0.683785
2.198975 0.625904 -0.685869
2.198336 0.641991 -0.685957
2.221164 0.664253 -0.685374
2.220384 0.625377 -0.631970
2.195506 0.627242 -0.634055
2.194867 0.643329 -0.634142
2.217695 0.665591 -0.633560
2.196282 0.643611 -0.686005
2.175631 0.642101 -0.685774
2.180645 0.664731 -0.685059
2.219111 0.665873 -0.685423
2.196889 0.641736 -0.634094
2.176237 0.640226 -0.633863
2.181252 0.662856 -0.633149
2.219717 0.663998 -0.633512
2.175494 0.641825 -0.685780
2.154846 0.640307 -0.685278
2.142044 0.663315 -0.684703
2.180509 0.664456 -0.685066
2.176314 0.640498 -0.633856
2.155666 0.638980 -0.633353
2.142863 0.661988 -0.632778
2.181329 0.663129 -0.633141
2.154942 0.640090 -0.685284
2.134291 0.638578 -0.685046
2.103674 0.661958 -0.684346
2.142140 0.663099 -0.684709
2.155510 0.639194 -0.633347
2.134859 0.637682 -0.633109
2.104242 0.661062 -0.632409
2.142708 0.662202 -0.632772
2.134231 0.638289 -0.685049
2.113582 0.636773 -0.684623
2.065265 0.657536 -0.684094
2.103614 0.661669 -0.684349
2.134860 0.637968 -0.633106
2.114211 0.636452 -0.632680
2.065894 0.657215 -0.632151
2.104244 0.661348 -0.632405
2.072083 0.558929 -0.653995
2.074983 0.561350 -0.624026
2.067588 0.589648 -0.625105
2.064358 0.586085 -0.654255
2.121845 0.572340 -0.660513
2.124745 0.574761 -0.630544
2.117350 0.603059 -0.631623
2.114120 0.599496 -0.660773
2.064432 0.586159 -0.653602
2.067662 0.589723 -0.624452
2.060304 0.618015 -0.625549
2.056684 0.613324 -0.653870
2.114030 0.599477 -0.661427
2.117261 0.603041 -0.632277
2.109902 0.631333 -0.633374
2.106282 0.626642 -0.661695
2.056786 0.613370 -0.653201
2.060407 0.618061 -0.624880
2.052981 0.646325 -0.625949
2.049053 0.640548 -0.653461
2.106165 0.626651 -0.662366
2.109785 0.631342 -0.634045
2.102359 0.659606 -0.635114
2.098432 0.653829 -0.662626
2.054417 0.630871 -0.652162
2.058344 0.636647 -0.624650
2.050599 0.644935 -0.625637
2.046229 0.641045 -0.652227
2.093053 0.663543 -0.663926
2.096980 0.669320 -0.636414
2.089235 0.677608 -0.637401
2.084865 0.673718 -0.663990
2.095816 0.565300 -0.683215
2.088091 0.592456 -0.683475
2.112366 0.604732 -0.684471
2.112211 0.585566 -0.684459
2.098129 0.565982 -0.631323
2.090404 0.593138 -0.631583
2.114678 0.605413 -0.632579
2.114523 0.586247 -0.632567
2.088524 0.592542 -0.683492
2.080776 0.619707 -0.683760
2.112956 0.623971 -0.684505
2.112799 0.604818 -0.684487
2.089963 0.593098 -0.631567
2.082215 0.620263 -0.631835
2.114395 0.624527 -0.632580
2.114237 0.605374 -0.632562
2.080981 0.619667 -0.683764
2.073248 0.646845 -0.684024
2.113377 0.636257 -0.684618
2.113161 0.623931 -0.684510
2.082002 0.620346 -0.631831
2.074269 0.647524 -0.632091
2.114398 0.636935 -0.632685
2.114182 0.624610 -0.632576
2.422673 0.560490 -0.555377
2.439183 0.547435 -0.589616
2.438842 0.562968 -0.554954
2.416022 0.607480 -0.576501
2.432532 0.594425 -0.610741
2.432190 0.609959 -0.576078
2.419871 0.696451 0.058366
2.419909 0.696025 0.100385
2.435199 0.697286 0.100065
2.434994 0.697682 0.057580
2.424093 0.644678 0.057851
2.424131 0.644252 0.099870
2.439421 0.645513 0.099549
2.439217 0.645908 0.057064
2.419935 0.696027 0.100392
2.420021 0.695701 0.142402
2.435500 0.696919 0.142566
2.435225 0.697288 0.100071
2.424106 0.644249 0.099948
2.424192 0.643922 0.141958
2.439670 0.645141 0.142122
2.439395 0.645510 0.099627
2.467377 0.640277 0.055531
2.462881 0.675060 0.057269
2.463085 0.674665 0.099754
2.467448 0.639854 0.098521
2.415845 0.633713 0.055634
2.411350 0.668496 0.057373
2.411554 0.668101 0.099857
2.415917 0.633290 0.098624
2.467468 0.639696 0.098565
2.463105 0.674507 0.099798
2.463380 0.674138 0.142293
2.467454 0.639293 0.141546
2.415897 0.633447 0.098666
2.411535 0.668258 0.099899
2.411809 0.667889 0.142394
2.415883 0.633044 0.141647
2.436514 0.607984 0.055418
2.449748 0.612312 0.055301
2.449819 0.611889 0.098291
2.436535 0.607462 0.098224
2.420231 0.657311 0.055979
2.433465 0.661639 0.055862
2.433537 0.661216 0.098852
2.420253 0.656789 0.098785
2.436630 0.607493 0.098311
2.449914 0.611919 0.098378
2.449900 0.611516 0.141360
2.436572 0.607048 0.141127
2.420158 0.656758 0.098784
2.433442 0.661184 0.098851
2.433429 0.660782 0.141832
2.420100 0.656313 0.141600
2.420372 0.695726 0.142486
2.420495 0.695543 0.178886
2.436035 0.696398 0.178913
2.435851 0.696945 0.142651
2.423841 0.643896 0.141952
2.423964 0.643714 0.178351
2.439503 0.644569 0.178378
2.439319 0.645115 0.142116
2.421166 0.695579 0.178873
2.421358 0.695499 0.215297
2.436967 0.695921 0.215139
2.436706 0.696434 0.178900
2.423294 0.643677 0.178436
2.423485 0.643596 0.214860
2.439094 0.644019 0.214701
2.438833 0.644532 0.178463
2.422217 0.695520 0.215225
2.422536 0.695667 0.251643
2.438194 0.695493 0.251310
2.437826 0.695943 0.215067
2.422627 0.643574 0.215005
2.422946 0.643721 0.251423
2.438604 0.643547 0.251090
2.438236 0.643997 0.214846
2.423489 0.695657 0.251686
2.423847 0.695759 0.288072
2.439545 0.695033 0.287629
2.439148 0.695483 0.251353
2.421993 0.643731 0.251453
2.422351 0.643833 0.287839
2.438049 0.643107 0.287396
2.437651 0.643557 0.251120
2.424894 0.695708 0.288015
2.425330 0.696005 0.324442
2.441035 0.694557 0.323807
2.440592 0.694982 0.287573
2.421305 0.643884 0.287968
2.421741 0.644181 0.324395
2.437446 0.642734 0.323760
2.437003 0.643158 0.287525
2.467477 0.639102 0.141629
2.463403 0.673947 0.142376
2.463587 0.673401 0.178638
2.467422 0.638674 0.177542
2.415861 0.633234 0.141642
2.411787 0.668079 0.142390
2.411971 0.667532 0.178651
2.415807 0.632806 0.177555
2.467447 0.638441 0.177582
2.463612 0.673168 0.178678
2.463873 0.672654 0.214917
2.467289 0.638037 0.213518
2.415781 0.633038 0.177587
2.411946 0.667765 0.178684
2.412207 0.667252 0.214922
2.415623 0.632634 0.213524
2.467327 0.637643 0.213557
2.463912 0.672261 0.214955
2.464280 0.671811 0.251199
2.467033 0.637274 0.249489
2.415585 0.633027 0.213558
2.412169 0.667645 0.214956
2.412537 0.667195 0.251200
2.415291 0.632658 0.249490
2.467075 0.636751 0.249530
2.464321 0.671288 0.251240
2.464719 0.670838 0.287516
2.466718 0.636405 0.285431
2.415250 0.633180 0.249521
2.412496 0.667717 0.251231
2.412894 0.667267 0.287507
2.414893 0.632834 0.285421
2.466753 0.635802 0.285467
2.464753 0.670234 0.287552
2.465196 0.669810 0.323787
2.466331 0.635474 0.321409
2.414859 0.633437 0.285457
2.412859 0.667870 0.287543
2.413302 0.667446 0.323778
2.414437 0.633110 0.321400
2.436510 0.607027 0.141157
2.449838 0.611495 0.141389
2.449783 0.611067 0.177301
2.436368 0.606674 0.176919
2.420162 0.656333 0.141649
2.433490 0.660802 0.141882
2.433436 0.660373 0.177794
2.420020 0.655980 0.177411
2.436146 0.606601 0.177013
2.449562 0.610994 0.177396
2.449404 0.610590 0.213333
2.435910 0.606335 0.212752
2.420241 0.656053 0.177388
2.433657 0.660446 0.177771
2.433498 0.660042 0.213708
2.420004 0.655786 0.213127
2.435548 0.606220 0.212875
2.449042 0.610476 0.213456
2.448748 0.610107 0.249388
2.435125 0.606081 0.248615
2.420366 0.655900 0.213075
2.433860 0.660155 0.213656
2.433566 0.659786 0.249589
2.419943 0.655760 0.248816
2.434616 0.605930 0.248697
2.448238 0.609957 0.249470
2.447882 0.609611 0.285370
2.434139 0.605885 0.284470
2.420452 0.655910 0.248805
2.434075 0.659936 0.249578
2.433718 0.659590 0.285479
2.419975 0.655865 0.284578
2.433561 0.605729 0.284528
2.447304 0.609454 0.285428
2.446883 0.609127 0.321370
2.433003 0.605710 0.320256
2.420552 0.656021 0.284592
2.434295 0.659747 0.285493
2.433873 0.659420 0.321435
2.419994 0.656003 0.320321
2.426120 0.695938 0.324336
2.426311 0.696203 0.359055
2.441620 0.694546 0.358901
2.441825 0.694490 0.323701
2.420952 0.644248 0.324573
2.421142 0.644514 0.359292
2.436451 0.642856 0.359138
2.436656 0.642801 0.323938
2.426709 0.696161 0.359103
2.426867 0.696398 0.393928
2.441788 0.694560 0.394044
2.442019 0.694503 0.358949
2.420743 0.644557 0.359314
2.420901 0.644794 0.394138
2.435821 0.642956 0.394254
2.436052 0.642900 0.359159
2.427737 0.696282 0.394197
2.427944 0.696476 0.428951
2.442316 0.693929 0.427217
2.442657 0.694444 0.394313
2.420032 0.644909 0.393938
2.420240 0.645103 0.428692
2.434611 0.642556 0.426957
2.434952 0.643071 0.394054
2.466347 0.634977 0.321738
2.465212 0.669313 0.324116
2.465007 0.669369 0.359316
2.465827 0.632432 0.355416
2.414421 0.633606 0.321142
2.413286 0.667941 0.323520
2.413081 0.667997 0.358719
2.413901 0.631060 0.354820
2.465832 0.632180 0.355439
2.465012 0.669117 0.359339
2.464781 0.669173 0.394433
2.465345 0.629601 0.389221
2.413895 0.631309 0.354866
2.413075 0.668246 0.358765
2.412844 0.668302 0.393860
2.413408 0.628730 0.388648
2.431826 0.605473 0.318913
2.445705 0.608890 0.320027
2.445185 0.606344 0.353706
2.430944 0.603970 0.352799
2.421170 0.656238 0.321734
2.435049 0.659655 0.322848
2.434529 0.657109 0.356526
2.420288 0.654735 0.355620
2.429194 0.603673 0.352672
2.443435 0.606046 0.353578
2.442948 0.603467 0.387361
2.428422 0.601943 0.386440
2.422037 0.655029 0.355814
2.436278 0.657403 0.356721
2.435791 0.654823 0.390503
2.421265 0.653300 0.389583
2.464014 0.634413 0.455246
2.463871 0.667707 0.460728
2.463065 0.640136 0.492848
2.463428 0.616078 0.487043
2.412082 0.634206 0.453966
2.411939 0.667501 0.459448
2.411133 0.639929 0.491569
2.411496 0.615871 0.485763
2.463429 0.616154 0.486972
2.463066 0.640211 0.492777
2.462628 0.628616 0.521077
2.462851 0.597815 0.518769
2.411494 0.615758 0.485896
2.411130 0.639815 0.491702
2.410692 0.628220 0.520001
2.410916 0.597419 0.517693
2.462849 0.597774 0.518860
2.462626 0.628575 0.521168
2.461978 0.616307 0.551342
2.462272 0.579438 0.550659
2.410916 0.597430 0.517664
2.410693 0.628231 0.519972
2.410045 0.615963 0.550146
2.410339 0.579094 0.549463
2.463064 0.640249 0.492847
2.463021 0.666597 0.491323
2.462187 0.665375 0.521921
2.462626 0.628654 0.521147
2.411132 0.639837 0.491636
2.411088 0.666186 0.490112
2.410254 0.664963 0.520710
2.410694 0.628242 0.519936
2.462621 0.628679 0.521336
2.462181 0.665401 0.522110
2.461342 0.667168 0.552923
2.461645 0.627308 0.552024
2.410697 0.628210 0.519807
2.410258 0.664931 0.520581
2.409419 0.666698 0.551394
2.409722 0.626838 0.550495
2.426473 0.696606 0.430411
2.425717 0.693565 0.459992
2.440279 0.693451 0.461615
2.440844 0.694059 0.428677
2.421711 0.644971 0.427297
2.420955 0.641930 0.456877
2.435517 0.641815 0.458501
2.436082 0.642424 0.425562
2.424330 0.693693 0.459119
2.423427 0.693460 0.488965
2.438042 0.692356 0.491340
2.438892 0.693579 0.460743
2.422341 0.641800 0.457811
2.421438 0.641567 0.487658
2.436053 0.640462 0.490032
2.436903 0.641685 0.459435
2.425129 0.693337 0.489037
2.424227 0.693113 0.518884
2.438910 0.691010 0.522009
2.439744 0.692232 0.491412
2.419735 0.641688 0.487646
2.418832 0.641465 0.517494
2.433516 0.639361 0.520618
2.434350 0.640584 0.490021
2.423597 0.693174 0.517632
2.422709 0.692921 0.547480
2.437442 0.692838 0.551570
2.438281 0.691070 0.520757
2.419460 0.641404 0.518806
2.418572 0.641151 0.548655
2.433305 0.641068 0.552744
2.434144 0.639301 0.521931
2.424834 0.610952 0.441200
2.439990 0.611885 0.441615
2.439405 0.593551 0.473412
2.423908 0.592123 0.473298
2.420934 0.655770 0.467176
2.436090 0.656703 0.467591
2.435504 0.638369 0.499388
2.420008 0.636941 0.499274
2.424428 0.592162 0.473318
2.439924 0.593590 0.473433
2.439346 0.575252 0.505230
2.423524 0.573216 0.505347
2.419487 0.636864 0.499317
2.434983 0.638292 0.499431
2.434405 0.619953 0.531229
2.418583 0.617917 0.531346
2.423996 0.573204 0.505466
2.439818 0.575240 0.505349
2.439241 0.556904 0.537148
2.423075 0.554407 0.537581
2.418109 0.617892 0.531291
2.433931 0.619928 0.531174
2.433354 0.601592 0.562973
2.417188 0.599095 0.563406
2.462277 0.579549 0.549985
2.461984 0.616418 0.550668
2.462137 0.604732 0.585560
2.462731 0.563501 0.584410
2.410333 0.578953 0.550202
2.410039 0.615822 0.550885
2.410193 0.604137 0.585777
2.410787 0.562906 0.584627
2.461981 0.616632 0.550728
2.461653 0.627528 0.551242
2.461505 0.646177 0.586768
2.462134 0.604946 0.585620
2.410041 0.615674 0.550827
2.409714 0.626571 0.551341
2.409565 0.645219 0.586867
2.410195 0.603988 0.585719
2.461653 0.627499 0.551435
2.461350 0.667359 0.552334
2.460819 0.666386 0.588298
2.461505 0.646148 0.586961
2.409712 0.626656 0.551150
2.409410 0.666516 0.552049
2.408879 0.665543 0.588013
2.409564 0.645305 0.586676
2.422505 0.692943 0.548123
2.421700 0.693949 0.587308
2.436707 0.691887 0.588177
2.437238 0.692860 0.552213
2.418774 0.641130 0.548080
2.417970 0.642135 0.587265
2.432976 0.640073 0.588133
2.433507 0.641046 0.552169
2.418376 0.693859 0.589760
2.394910 0.686799 0.620609
2.432487 0.691856 0.619353
2.433383 0.691797 0.590629
2.421281 0.642222 0.584880
2.397815 0.635163 0.615728
2.435392 0.640219 0.614472
2.436287 0.640160 0.585748
2.462639 0.563298 0.586753
2.462044 0.604529 0.587903
2.460235 0.604754 0.612989
2.460478 0.548657 0.608943
2.410879 0.563088 0.582343
2.410284 0.604319 0.583492
2.408475 0.604544 0.608578
2.408718 0.548448 0.604532
2.462090 0.604641 0.587272
2.461460 0.645872 0.588419
2.460115 0.646012 0.615325
2.460281 0.604865 0.612357
2.410238 0.604297 0.584128
2.409608 0.645528 0.585276
2.408264 0.645668 0.612182
2.408429 0.604522 0.609214
2.461482 0.646206 0.587893
2.460797 0.666445 0.589230
2.459902 0.666504 0.617954
2.460138 0.646346 0.614799
2.409585 0.645255 0.585807
2.408900 0.665494 0.587144
2.408005 0.665553 0.615868
2.408240 0.645395 0.612713
2.460539 0.548566 0.605465
2.460296 0.604663 0.609511
2.462373 0.595755 0.642730
2.461971 0.548868 0.642037
2.408656 0.548527 0.608068
2.408414 0.604623 0.612114
2.410490 0.595715 0.645334
2.410088 0.548828 0.644640
2.460259 0.604701 0.608912
2.460094 0.645847 0.611880
2.462736 0.642684 0.642825
2.462336 0.595793 0.642131
2.408451 0.604681 0.612718
2.408286 0.645827 0.615686
2.410927 0.642664 0.646631
2.410527 0.595773 0.645937
2.460038 0.646021 0.611236
2.459802 0.666178 0.614391
2.463037 0.663773 0.642705
2.462680 0.642858 0.642181
2.408342 0.645718 0.616334
2.408106 0.665875 0.619489
2.411341 0.663470 0.647803
2.410983 0.642555 0.647279
2.431612 0.691887 0.617911
2.394035 0.686830 0.619167
2.392452 0.687276 0.647054
2.434847 0.689482 0.646226
2.436257 0.640184 0.615972
2.398680 0.635127 0.617228
2.397097 0.635572 0.645114
2.439492 0.637778 0.644286
2.396266 0.686907 0.619711
2.358306 0.688808 0.621417
2.352289 0.685146 0.648425
2.394684 0.687352 0.647597
2.396368 0.635047 0.616686
2.358408 0.636948 0.618392
2.352391 0.633286 0.645401
2.394785 0.635492 0.644573
2.358985 0.688563 0.623709
2.321205 0.689482 0.625369
2.310450 0.685688 0.651655
2.352968 0.684902 0.650718
2.357648 0.637193 0.616102
2.319868 0.638112 0.617762
2.309112 0.634318 0.644048
2.351631 0.633531 0.643110
2.319077 0.689655 0.623562
2.286548 0.686734 0.623010
2.278471 0.685447 0.649111
2.308321 0.685861 0.649848
2.321924 0.637939 0.619570
2.289395 0.635018 0.619017
2.281319 0.633731 0.645119
2.311169 0.634145 0.645855
2.288164 0.686765 0.623087
2.255332 0.687816 0.622689
2.250237 0.685062 0.648450
2.280088 0.685478 0.649188
2.287716 0.634985 0.618939
2.254884 0.636035 0.618541
2.249788 0.633281 0.644302
2.279640 0.633698 0.645040
2.255701 0.687809 0.622697
2.222910 0.687832 0.622257
2.220672 0.686635 0.647790
2.250606 0.685055 0.648458
2.254452 0.636043 0.618531
2.221661 0.636066 0.618091
2.219422 0.634869 0.643623
2.249356 0.633289 0.644292
2.221571 0.687876 0.621577
2.183781 0.687155 0.621096
2.180872 0.685435 0.646942
2.219332 0.686679 0.647110
2.222931 0.636022 0.618770
2.185142 0.635301 0.618288
2.182232 0.633581 0.644134
2.220693 0.634825 0.644302
2.183076 0.687102 0.621502
2.145327 0.685413 0.620990
2.141744 0.683155 0.647149
2.180167 0.685382 0.647349
2.185771 0.635350 0.617881
2.148022 0.633661 0.617369
2.144439 0.631404 0.643527
2.182861 0.633631 0.643727
2.145965 0.685391 0.621562
2.108175 0.684700 0.621085
2.103919 0.681904 0.647555
2.142382 0.683134 0.647720
2.147308 0.633680 0.616796
2.109518 0.632988 0.616319
2.105263 0.630192 0.642790
2.143725 0.631422 0.642955
2.108134 0.684651 0.621556
2.070344 0.683959 0.621079
2.065416 0.680625 0.647862
2.103878 0.681855 0.648027
2.109482 0.633035 0.615847
2.071693 0.632344 0.615369
2.066764 0.629009 0.642153
2.105227 0.630239 0.642318
2.307720 0.546209 0.665900
2.308301 0.580023 0.667877
2.280404 0.580347 0.667919
2.280473 0.546775 0.666206
2.307439 0.549052 0.614031
2.308020 0.582866 0.616008
2.280123 0.583190 0.616050
2.280192 0.549619 0.614336
2.308077 0.580048 0.667879
2.308659 0.613864 0.669861
2.280110 0.613938 0.669657
2.280180 0.580371 0.667921
2.308245 0.582909 0.616010
2.308827 0.616725 0.617992
2.280278 0.616799 0.617788
2.280348 0.583232 0.616052
2.308339 0.613199 0.669812
2.309336 0.657845 0.673746
2.279486 0.657431 0.673009
2.279790 0.613273 0.669608
2.309148 0.617468 0.618046
2.310145 0.662114 0.621980
2.280295 0.661700 0.621243
2.280599 0.617542 0.617842
2.280449 0.546972 0.666216
2.280380 0.580543 0.667930
2.252482 0.580863 0.667972
2.253203 0.547541 0.666521
2.280161 0.549423 0.614326
2.280092 0.582994 0.616040
2.252194 0.583315 0.616083
2.252915 0.549993 0.614632
2.280145 0.580556 0.667930
2.280075 0.614123 0.669667
2.251527 0.614201 0.669446
2.252248 0.580876 0.667973
2.280326 0.583048 0.616043
2.280256 0.616615 0.617779
2.251708 0.616693 0.617558
2.252428 0.583368 0.616085
2.279751 0.613545 0.669629
2.279447 0.657703 0.673029
2.249595 0.657286 0.672291
2.251203 0.613623 0.669409
2.280579 0.617270 0.617821
2.280275 0.661427 0.621222
2.250424 0.661011 0.620483
2.252031 0.617348 0.617601
2.253185 0.547734 0.666530
2.252465 0.581056 0.667981
2.224568 0.581380 0.668039
2.225938 0.548300 0.666834
2.252877 0.549801 0.614624
2.252156 0.583122 0.616075
2.224260 0.583446 0.616133
2.225630 0.550367 0.614929
2.252236 0.581071 0.667982
2.251516 0.614396 0.669455
2.222967 0.614469 0.669251
2.224339 0.581394 0.668040
2.252384 0.583174 0.616076
2.251664 0.616499 0.617550
2.223115 0.616572 0.617346
2.224487 0.583498 0.616135
2.251157 0.613917 0.669427
2.249549 0.657580 0.672310
2.219615 0.659160 0.671641
2.222609 0.613990 0.669224
2.252019 0.617055 0.617581
2.250411 0.660718 0.620464
2.220477 0.662298 0.619795
2.223471 0.617128 0.617378
2.305225 0.546459 0.665804
2.327807 0.574137 0.669527
2.329208 0.596287 0.670294
2.305806 0.580273 0.667781
2.309985 0.548824 0.614129
2.332567 0.576502 0.617852
2.333968 0.598652 0.618619
2.310566 0.582638 0.616106
2.306657 0.580294 0.667847
2.330059 0.596308 0.670359
2.331461 0.618459 0.671064
2.307239 0.614110 0.669829
2.309716 0.582673 0.616043
2.333119 0.598687 0.618556
2.334520 0.620837 0.619261
2.310299 0.616488 0.618026
2.308051 0.613182 0.669804
2.332273 0.617530 0.671039
2.335031 0.635852 0.672436
2.309048 0.657827 0.673738
2.309489 0.617476 0.618054
2.333711 0.621825 0.619289
2.336469 0.640147 0.620685
2.310487 0.662122 0.621988
2.436586 0.548230 0.669317
2.436988 0.595117 0.670010
2.418809 0.601392 0.670979
2.418568 0.569690 0.669801
2.435456 0.549476 0.617396
2.435858 0.596363 0.618089
2.417678 0.602638 0.619059
2.417437 0.570936 0.617880
2.438238 0.595125 0.669953
2.438638 0.642016 0.670647
2.420303 0.633097 0.672169
2.420058 0.601400 0.670922
2.434609 0.596434 0.618148
2.435009 0.643325 0.618843
2.416674 0.634407 0.620364
2.416429 0.602709 0.619118
2.440689 0.641132 0.670383
2.441047 0.662047 0.670907
2.422552 0.637943 0.672923
2.422354 0.632214 0.671905
2.432958 0.644261 0.619109
2.433316 0.665177 0.619633
2.414821 0.641072 0.621649
2.414624 0.635343 0.620631
2.418824 0.641090 0.673212
2.437320 0.665194 0.671196
2.394925 0.662988 0.672024
2.391214 0.640590 0.672968
2.418513 0.637938 0.621361
2.437009 0.662042 0.619345
2.394614 0.659836 0.620173
2.390903 0.637438 0.621117
2.391221 0.639542 0.673011
2.394933 0.661940 0.672067
2.352538 0.659734 0.672895
2.363612 0.639044 0.672772
2.390825 0.638484 0.621075
2.394536 0.660881 0.620131
2.352142 0.658675 0.620959
2.363215 0.637985 0.620837
2.363633 0.637868 0.672769
2.352559 0.658558 0.672892
2.310040 0.659344 0.673829
2.336023 0.637369 0.672526
2.363124 0.639160 0.620840
2.352050 0.659850 0.620962
2.309532 0.660637 0.621900
2.335514 0.638661 0.620597
2.435542 0.547441 0.669288
2.417523 0.568901 0.669773
2.388287 0.570574 0.669691
2.392772 0.547038 0.668158
2.436464 0.550227 0.617423
2.418445 0.571687 0.617908
2.389209 0.573360 0.617826
2.393693 0.549824 0.616293
2.392755 0.546259 0.668104
2.388270 0.569795 0.669637
2.359035 0.571460 0.669644
2.349984 0.545857 0.666974
2.393638 0.550605 0.616346
2.389154 0.574140 0.617879
2.359919 0.575805 0.617886
2.350868 0.550202 0.615216
2.349909 0.545218 0.666911
2.358960 0.570821 0.669581
2.329724 0.572493 0.669506
2.307141 0.544815 0.665783
2.350871 0.550842 0.615277
2.359921 0.576446 0.617948
2.330686 0.578117 0.617873
2.308103 0.550439 0.614149
2.434840 0.522549 0.607000
2.436272 0.522851 0.643572
2.393501 0.522448 0.642441
2.392630 0.522085 0.607835
2.434312 0.574492 0.606532
2.435744 0.574794 0.643103
2.392974 0.574392 0.641973
2.392102 0.574028 0.607367
2.392587 0.522085 0.607900
2.393459 0.522449 0.642507
2.350689 0.522046 0.641376
2.350376 0.521622 0.608735
2.392059 0.574027 0.607301
2.392931 0.574390 0.641908
2.350161 0.573988 0.640778
2.349849 0.573564 0.608136
2.350337 0.521622 0.608812
2.350649 0.522047 0.641454
2.307881 0.521644 0.640326
2.308125 0.521149 0.609649
2.349803 0.573562 0.608059
2.350116 0.573986 0.640700
2.307348 0.573583 0.639572
2.307592 0.573088 0.608896
2.307270 0.521154 0.609671
2.307026 0.521649 0.640347
2.279779 0.522215 0.640653
2.279232 0.521776 0.610035
2.308377 0.573084 0.608874
2.308133 0.573579 0.639551
2.280886 0.574145 0.639856
2.280339 0.573706 0.609238
2.279203 0.521776 0.610005
2.279750 0.522215 0.640623
2.252503 0.522785 0.640928
2.251164 0.522398 0.610368
2.280313 0.573707 0.609269
2.280860 0.574146 0.639887
2.253613 0.574716 0.640193
2.252274 0.574329 0.609633
2.251132 0.522398 0.610333
2.252472 0.522785 0.640893
2.225225 0.523351 0.641198
2.223094 0.523031 0.610696
2.252251 0.574330 0.609668
2.253590 0.574717 0.640228
2.226343 0.575283 0.640533
2.224212 0.574963 0.610031
2.221875 0.523083 0.610261
2.224006 0.523403 0.640763
2.181460 0.525680 0.641149
2.180989 0.526415 0.610836
2.225362 0.574914 0.610467
2.227492 0.575234 0.640969
2.184946 0.577510 0.641355
2.184476 0.578246 0.611041
2.180938 0.526442 0.609835
2.181408 0.525706 0.640149
2.138862 0.527982 0.640535
2.140051 0.529774 0.610409
2.184443 0.578225 0.612042
2.184914 0.577489 0.642356
2.142368 0.579765 0.642742
2.143557 0.581556 0.612616
2.140002 0.529840 0.609400
2.138813 0.528048 0.639526
2.096266 0.530325 0.639911
2.099115 0.533172 0.609975
2.143522 0.581496 0.613626
2.142333 0.579704 0.643752
2.099787 0.581981 0.644137
2.102636 0.584828 0.614201
2.225585 0.545670 0.666597
2.198591 0.571551 0.670438
2.170490 0.571970 0.670009
2.183038 0.547946 0.666983
2.225895 0.552992 0.615169
2.198901 0.578873 0.619009
2.170800 0.579292 0.618581
2.183349 0.555268 0.615555
2.183056 0.548617 0.667070
2.170507 0.572641 0.670096
2.142406 0.573051 0.669741
2.140509 0.550893 0.667456
2.183261 0.554600 0.615468
2.170712 0.578624 0.618494
2.142611 0.579033 0.618139
2.140714 0.556876 0.615854
2.140479 0.551630 0.667530
2.142376 0.573788 0.669816
2.114275 0.574206 0.669400
2.097933 0.553907 0.667916
2.140674 0.556141 0.615779
2.142571 0.578299 0.618065
2.114470 0.578716 0.617648
2.098128 0.558418 0.616165
2.228597 0.548683 0.666693
2.227227 0.581762 0.667898
2.201290 0.595587 0.670899
2.201603 0.574565 0.670534
2.222917 0.550004 0.615074
2.221546 0.583084 0.616278
2.195610 0.596908 0.619279
2.195923 0.575886 0.618914
2.226771 0.581810 0.667945
2.225399 0.614884 0.669156
2.200516 0.616663 0.671229
2.200834 0.595634 0.670946
2.222001 0.583090 0.616233
2.220629 0.616164 0.617444
2.195746 0.617943 0.619517
2.196064 0.596914 0.619233
2.224864 0.614414 0.669184
2.221871 0.659584 0.671601
2.199310 0.632266 0.671797
2.199980 0.616193 0.671257
2.221162 0.616692 0.617418
2.218169 0.661862 0.619835
2.195608 0.634544 0.620032
2.196278 0.618471 0.619491
2.197181 0.633622 0.671887
2.219742 0.660940 0.671691
2.181282 0.659696 0.671523
2.176531 0.632061 0.671480
2.197705 0.633217 0.619943
2.220267 0.660535 0.619747
2.181806 0.659291 0.619579
2.177056 0.631656 0.619536
2.176551 0.631735 0.671480
2.181302 0.659370 0.671524
2.142880 0.657143 0.671324
2.155903 0.630171 0.671179
2.176977 0.631979 0.619535
2.181727 0.659614 0.619578
2.143305 0.657387 0.619378
2.156328 0.630415 0.619233
2.155854 0.629848 0.671175
2.142831 0.656820 0.671320
2.104368 0.655590 0.671155
2.135207 0.628290 0.670765
2.156318 0.630735 0.619236
2.143294 0.657706 0.619381
2.104832 0.656476 0.619216
2.135670 0.629177 0.618826
2.135218 0.627999 0.670758
2.104379 0.655299 0.671148
2.065916 0.654069 0.670984
2.114572 0.626439 0.670409
2.135601 0.629465 0.618832
2.104762 0.656765 0.619222
2.066299 0.655535 0.619058
2.114954 0.627905 0.618483
2.073133 0.549446 0.638708
2.065337 0.576587 0.639349
2.068524 0.580546 0.610246
2.075982 0.552293 0.608771
2.122871 0.562890 0.645343
2.115074 0.590030 0.645983
2.118262 0.593990 0.616881
2.125719 0.565737 0.615406
2.065411 0.576660 0.638706
2.057602 0.603798 0.639347
2.061149 0.608873 0.611083
2.068599 0.580620 0.609603
2.114985 0.590012 0.646629
2.107175 0.617151 0.647270
2.110723 0.622225 0.619006
2.118172 0.593972 0.617526
2.057697 0.603875 0.638683
2.049899 0.631027 0.639319
2.053776 0.637186 0.611884
2.061244 0.608949 0.610419
2.107065 0.617130 0.647937
2.099267 0.644283 0.648574
2.103145 0.650441 0.621138
2.110613 0.622204 0.619673
2.051768 0.626603 0.638304
2.043267 0.643735 0.639364
2.048196 0.647070 0.612580
2.055645 0.632762 0.610869
2.097383 0.648750 0.649591
2.088882 0.665882 0.650650
2.093811 0.669217 0.623866
2.101260 0.654909 0.622156
2.096906 0.555472 0.667982
2.113248 0.575770 0.669465
2.113357 0.594925 0.669751
2.089109 0.582612 0.668622
2.099116 0.556877 0.616100
2.115458 0.577176 0.617583
2.115566 0.596331 0.617869
2.091319 0.584018 0.616740
2.089527 0.582712 0.668639
2.113774 0.595026 0.669768
2.113888 0.614181 0.670039
2.081718 0.609851 0.669281
2.090894 0.583964 0.616724
2.115141 0.596277 0.617853
2.115255 0.615433 0.618124
2.083085 0.611102 0.617366
2.081887 0.609743 0.669282
2.114057 0.614073 0.670040
2.114244 0.626397 0.670403
2.074089 0.636896 0.669919
2.082908 0.611253 0.617366
2.115078 0.615584 0.618124
2.115265 0.627908 0.618487
2.075109 0.638406 0.618003
2.423445 0.553404 0.539600
2.439610 0.555900 0.539167
2.440064 0.539853 0.573592
2.416824 0.600070 0.561441
2.432990 0.602566 0.561008
2.433444 0.586519 0.595433
2.462877 0.675091 0.057283
2.467373 0.640308 0.055545
2.467338 0.640699 -0.007208
2.462885 0.675501 -0.006977
2.411353 0.668466 0.057252
2.415849 0.633683 0.055513
2.415814 0.634074 -0.007239
2.411362 0.668875 -0.007009
2.462899 0.675396 -0.007041
2.467351 0.640595 -0.007272
2.467216 0.641009 -0.070022
2.463003 0.675848 -0.071304
2.411348 0.668980 -0.007072
2.415801 0.634179 -0.007303
2.415666 0.634593 -0.070053
2.411452 0.669432 -0.071335
2.420105 0.697457 -0.071945
2.420013 0.696893 -0.006880
2.435133 0.698103 -0.006857
2.435237 0.698554 -0.071120
2.424067 0.645662 -0.072346
2.423975 0.645098 -0.007280
2.439095 0.646308 -0.007257
2.439199 0.646759 -0.071521
2.419909 0.696884 -0.006848
2.419897 0.696455 0.058223
2.435021 0.697685 0.057436
2.435029 0.698094 -0.006825
2.424078 0.645105 -0.007183
2.424067 0.644675 0.057887
2.439190 0.645906 0.057101
2.439198 0.646315 -0.007160
2.449662 0.612283 0.055367
2.436427 0.607955 0.055484
2.436376 0.608361 -0.007395
2.449627 0.612674 -0.007386
2.433552 0.661669 0.055691
2.420317 0.657341 0.055808
2.420266 0.657746 -0.007071
2.433517 0.662059 -0.007062
2.449524 0.612641 -0.007488
2.436273 0.608328 -0.007496
2.436119 0.608840 -0.070377
2.449389 0.613056 -0.070238
2.433620 0.662093 -0.007087
2.420369 0.657780 -0.007095
2.420214 0.658292 -0.069976
2.433485 0.662507 -0.069836
2.462608 0.629162 0.521434
2.461633 0.627791 0.552122
2.461961 0.616894 0.551608
2.410710 0.627681 0.519717
2.409734 0.626309 0.550406
2.410062 0.615413 0.549892
2.463869 0.667707 0.460820
2.463019 0.666484 0.491417
2.463062 0.640135 0.492941
2.411941 0.667538 0.459371
2.411091 0.666315 0.489968
2.411135 0.639966 0.491492
2.465346 0.629342 0.389404
2.464782 0.668915 0.394616
2.464441 0.668400 0.427519
2.464572 0.631962 0.422205
2.413406 0.628988 0.388533
2.412842 0.668560 0.393745
2.412501 0.668045 0.426649
2.412632 0.631608 0.421334
2.464571 0.631820 0.422243
2.464441 0.668257 0.427558
2.463876 0.667649 0.460496
2.464019 0.634354 0.455014
2.412631 0.631752 0.421362
2.412500 0.668190 0.426676
2.411935 0.667581 0.459615
2.412078 0.634287 0.454133
2.427077 0.601843 0.390301
2.441603 0.603366 0.391222
2.440828 0.605986 0.424023
2.425978 0.604821 0.423307
2.422609 0.653401 0.385788
2.437135 0.654925 0.386709
2.436361 0.657544 0.419510
2.421510 0.656379 0.418794
2.425469 0.604773 0.423200
2.440320 0.605938 0.423916
2.439767 0.608472 0.456687
2.424611 0.607539 0.456272
2.422017 0.656433 0.418967
2.436868 0.657598 0.419683
2.436315 0.660132 0.452454
2.421158 0.659199 0.452039
2.460918 0.635056 -0.566783
2.461936 0.635969 -0.536160
2.461248 0.624154 -0.566514
2.409022 0.633529 -0.565012
