2.235470 0.468666 0.849739
2.278713 0.468313 0.848832
2.235468 0.492284 0.837916
2.192164 0.492911 0.838803
2.192405 0.489195 0.854999
2.235729 0.488843 0.854075
2.235147 0.472133 0.833464
2.191843 0.472761 0.834350
2.192084 0.469044 0.850546
2.235408 0.468692 0.849623
2.192126 0.492886 0.838917
2.148577 0.493373 0.840162
2.148837 0.489582 0.856176
2.192367 0.489169 0.855113
2.191794 0.472787 0.834238
2.148245 0.473274 0.835482
2.148505 0.469483 0.851497
2.192036 0.469070 0.850434
2.148519 0.493365 0.840201
2.104923 0.493673 0.841700
2.105246 0.489957 0.857354
2.148779 0.489574 0.856215
2.148216 0.473283 0.835446
2.104620 0.473591 0.836945
2.104942 0.469875 0.852600
2.148476 0.469492 0.851460
2.105365 0.493572 0.842027
2.061555 0.497293 0.840753
2.061983 0.492261 0.857071
2.105688 0.489857 0.857681
2.104091 0.473695 0.836618
2.060280 0.477416 0.835344
2.060708 0.472384 0.851663
2.104413 0.469979 0.852273
2.062104 0.496952 0.841648
2.020621 0.503557 0.841263
2.020205 0.495868 0.858837
2.062532 0.491919 0.857967
2.059646 0.477766 0.834448
2.018163 0.484371 0.834063
2.017747 0.476682 0.851638
2.060074 0.472733 0.850767
2.842373 0.485414 0.843759
2.799733 0.482966 0.850703
2.800561 0.477787 0.867830
2.844015 0.476736 0.868395
2.842209 0.465823 0.837268
2.799570 0.463375 0.844212
2.800398 0.458196 0.861339
2.843851 0.457144 0.861904
2.799740 0.483103 0.850258
2.756563 0.483453 0.849845
2.757121 0.478993 0.866856
2.800569 0.477923 0.867385
2.799476 0.463239 0.844660
2.756299 0.463589 0.844247
2.756856 0.459129 0.861258
2.800304 0.458060 0.861787
2.756508 0.483526 0.849577
2.713134 0.483913 0.849516
2.713563 0.479744 0.866566
2.757066 0.479066 0.866587
2.756267 0.463518 0.844515
2.712893 0.463905 0.844454
2.713322 0.459736 0.861505
2.756825 0.459058 0.861526
2.713078 0.483936 0.849424
2.669522 0.484338 0.849632
2.670046 0.480146 0.866907
2.713507 0.479767 0.866475
2.712862 0.463882 0.844546
2.669306 0.464285 0.844754
2.669831 0.460093 0.862029
2.713291 0.459714 0.861597
2.669478 0.484341 0.849621
2.625958 0.484751 0.849839
2.626520 0.480523 0.867308
2.670003 0.480149 0.866895
2.669262 0.464282 0.844766
2.625743 0.464691 0.844985
2.626304 0.460464 0.862454
2.669787 0.460090 0.862041
2.625927 0.484754 0.849825
2.582609 0.485206 0.850020
2.582866 0.480993 0.867614
2.626489 0.480527 0.867293
2.625687 0.464688 0.845000
2.582368 0.465140 0.845196
2.582626 0.460927 0.862789
2.626249 0.460461 0.862469
2.582593 0.485211 0.850002
2.539743 0.485781 0.850205
2.539241 0.481617 0.867754
2.582851 0.480998 0.867595
2.582297 0.465137 0.845215
2.539447 0.465707 0.845418
2.538945 0.461543 0.862967
2.582555 0.460924 0.862808
2.539726 0.485796 0.850142
2.496086 0.486398 0.850359
2.495781 0.482494 0.867662
2.539224 0.481632 0.867691
2.539377 0.465693 0.845480
2.495738 0.466295 0.845697
2.495433 0.462391 0.863000
2.538875 0.461529 0.863030
2.496031 0.486423 0.850256
2.452323 0.486981 0.850553
2.452068 0.483313 0.867524
2.495726 0.482519 0.867560
2.495705 0.466273 0.845800
2.451998 0.466831 0.846096
2.451743 0.463163 0.863067
2.495400 0.462369 0.863103
2.452263 0.486996 0.850487
2.409030 0.487506 0.850876
2.408564 0.484000 0.867419
2.452009 0.483328 0.867458
2.451970 0.466817 0.846162
2.408737 0.467327 0.846551
2.408271 0.463822 0.863093
2.451716 0.463149 0.863133
2.408973 0.487518 0.850825
2.365773 0.487936 0.851286
2.364998 0.484617 0.867473
2.408507 0.484012 0.867367
2.408707 0.467317 0.846602
2.365507 0.467735 0.847064
2.364732 0.464415 0.863250
2.408241 0.463811 0.863145
2.365703 0.487939 0.851274
2.322360 0.488243 0.852165
2.321471 0.484899 0.868153
2.364928 0.484620 0.867460
2.365491 0.467732 0.847077
2.322148 0.468036 0.847969
2.321259 0.464692 0.863957
2.364716 0.464413 0.863264
2.322314 0.488238 0.852195
2.279001 0.488508 0.853083
2.277947 0.485179 0.868875
2.321425 0.484893 0.868182
2.322107 0.468042 0.847941
2.278794 0.468312 0.848829
2.277741 0.464984 0.864622
2.321218 0.464698 0.863929
2.278953 0.488490 0.853170
2.235710 0.488843 0.854077
2.234130 0.485291 0.869746
2.277899 0.485161 0.868962
2.278755 0.468331 0.848744
2.235512 0.468684 0.849651
2.233932 0.465132 0.865320
2.277702 0.465002 0.864537
2.235656 0.488799 0.854271
2.192333 0.489151 0.855194
2.190598 0.485235 0.870798
2.234077 0.485247 0.869940
2.235479 0.468729 0.849459
2.192156 0.469081 0.850383
2.190421 0.465165 0.865986
2.233899 0.465177 0.865128
2.192339 0.489108 0.855366
2.148809 0.489521 0.856428
2.147185 0.485567 0.871530
2.190605 0.485192 0.870969
2.192062 0.469124 0.850213
2.148531 0.469537 0.851276
2.146908 0.465583 0.866378
2.190328 0.465208 0.865817
2.148787 0.489510 0.856471
2.105254 0.489893 0.857611
2.103688 0.486174 0.871950
2.147163 0.485556 0.871573
2.148466 0.469549 0.851234
2.104933 0.469932 0.852374
2.103367 0.466213 0.866713
2.146842 0.465595 0.866336
2.105408 0.489772 0.858021
2.061703 0.492177 0.857411
2.060375 0.486762 0.873150
2.103843 0.486054 0.872360
2.104691 0.470055 0.851964
2.060987 0.472459 0.851354
2.059659 0.467044 0.867094
2.103126 0.466336 0.866304
2.062023 0.491810 0.858372
2.019696 0.495759 0.859243
2.019105 0.487418 0.876582
2.060695 0.486396 0.874112
2.060581 0.472829 0.850395
2.018254 0.476778 0.851266
2.017663 0.468437 0.868605
2.059253 0.467415 0.866135
2.841404 0.482657 0.822444
2.839536 0.501314 0.819139
2.796515 0.501457 0.819617
2.798098 0.482965 0.822397
2.841285 0.479310 0.802078
2.839417 0.497967 0.798773
2.796395 0.498111 0.799251
2.797979 0.479618 0.802031
2.798034 0.482718 0.822435
2.796450 0.501210 0.819655
2.753438 0.501343 0.820005
2.754728 0.482825 0.822377
2.797956 0.479866 0.801994
2.796373 0.498358 0.799214
2.753361 0.498491 0.799564
2.754650 0.479974 0.801936
2.754725 0.482653 0.822400
2.753435 0.501170 0.820028
2.710568 0.501554 0.820427
2.711494 0.482872 0.822589
2.754567 0.480147 0.801914
2.753278 0.498664 0.799542
2.710411 0.499048 0.799941
2.711337 0.480366 0.802103
2.711491 0.482753 0.822603
2.710565 0.501435 0.820441
2.667559 0.502013 0.820982
2.668182 0.482962 0.822973
2.711254 0.480485 0.802090
2.710328 0.499168 0.799928
2.667322 0.499745 0.800469
2.667944 0.480694 0.802460
2.668125 0.482873 0.822983
2.667503 0.501924 0.820992
2.624485 0.502457 0.821440
2.624835 0.483085 0.823347
2.667914 0.480784 0.802451
2.667292 0.499835 0.800459
2.624274 0.500368 0.800908
2.624623 0.480997 0.802815
2.624770 0.483125 0.823344
2.624421 0.502497 0.821437
2.581504 0.503118 0.821588
2.581506 0.483416 0.823805
2.624601 0.480957 0.802819
2.624251 0.500329 0.800912
2.581335 0.500950 0.801064
2.581337 0.481248 0.803281
2.581431 0.483652 0.823778
2.581429 0.503355 0.821561
2.538399 0.503955 0.821384
2.538158 0.484138 0.824264
2.581325 0.481012 0.803309
2.581323 0.500715 0.801092
2.538292 0.501315 0.800914
2.538052 0.481498 0.803795
2.538157 0.484157 0.824262
2.538398 0.503974 0.821381
2.495399 0.504075 0.822056
2.494838 0.484918 0.824281
2.537966 0.481481 0.803798
2.538207 0.501297 0.800917
2.495208 0.501399 0.801592
2.494646 0.482242 0.803817
2.494782 0.484718 0.824305
2.495344 0.503875 0.822081
2.452304 0.504057 0.822507
2.451429 0.485270 0.824503
2.494615 0.482443 0.803792
2.495177 0.501600 0.801568
2.452137 0.501781 0.801994
2.451262 0.482995 0.803990
2.451372 0.485307 0.824500
2.452247 0.504094 0.822503
2.409242 0.504458 0.822590
2.408054 0.485527 0.824928
2.451233 0.482959 0.803995
2.452108 0.501745 0.801998
2.409104 0.502109 0.802085
2.407915 0.483178 0.804423
2.408004 0.485724 0.824904
2.409192 0.504655 0.822566
2.366133 0.505001 0.822575
2.364621 0.485983 0.825341
2.407879 0.482982 0.804448
2.409067 0.501913 0.802110
2.366008 0.502258 0.802119
2.364496 0.483240 0.804885
2.364640 0.486046 0.825332
2.366152 0.505064 0.822566
2.323156 0.505489 0.823111
2.321326 0.486396 0.825734
2.364390 0.483178 0.804895
2.365902 0.502196 0.802128
2.322906 0.502621 0.802674
2.321076 0.483527 0.805297
2.321279 0.486331 0.825744
2.323109 0.505424 0.823121
2.280093 0.505838 0.823620
2.277982 0.486703 0.826161
2.321036 0.483593 0.805288
2.322867 0.502686 0.802665
2.279851 0.503100 0.803165
2.277740 0.483965 0.805705
2.277914 0.486742 0.826156
2.280025 0.505877 0.823616
2.236964 0.506356 0.823839
2.234735 0.487214 0.826612
2.277722 0.483926 0.805711
2.279833 0.503061 0.803170
2.236772 0.503539 0.803394
2.234543 0.484398 0.806166
2.234677 0.487422 0.826582
2.236906 0.506563 0.823809
2.193889 0.507125 0.823783
2.191394 0.488028 0.827109
2.234515 0.484191 0.806197
2.236744 0.503333 0.803425
2.193727 0.503895 0.803399
2.191231 0.484797 0.806724
2.191421 0.488166 0.827086
2.193916 0.507264 0.823760
2.150866 0.507639 0.824333
2.147947 0.488767 0.827634
2.191118 0.484660 0.806748
2.193613 0.503757 0.803423
2.150562 0.504133 0.803996
2.147644 0.485261 0.807297
2.148022 0.488507 0.827674
2.150940 0.507380 0.824373
2.107941 0.507573 0.825942
2.104732 0.489123 0.828263
2.147483 0.485521 0.807259
2.150401 0.504393 0.803958
2.107402 0.504586 0.805527
2.104193 0.486136 0.807848
2.104650 0.488689 0.828319
2.107859 0.507139 0.825998
2.064976 0.510239 0.826990
2.061484 0.492388 0.828560
2.104188 0.486574 0.807794
2.107398 0.505024 0.805473
2.064514 0.508124 0.806465
2.061023 0.490273 0.808035
2.061548 0.492154 0.828580
2.065039 0.510005 0.827010
2.023327 0.517236 0.827836
2.019445 0.499741 0.829320
2.060874 0.490518 0.808016
2.064366 0.508369 0.806446
2.022653 0.515599 0.807272
2.018771 0.498104 0.808757
2.416747 1.691063 0.687106
2.460598 1.685004 0.688826
2.465730 1.716445 0.689212
2.416045 1.725306 0.687058
2.417608 1.691111 0.666484
2.461460 1.685052 0.668205
2.466592 1.716493 0.668591
2.416907 1.725354 0.666436
2.460019 1.684947 0.688784
2.502734 1.674060 0.692742
2.513378 1.702718 0.694397
2.465151 1.716388 0.689170
2.462131 1.685090 0.668253
2.504846 1.674203 0.672212
2.515490 1.702861 0.673867
2.467264 1.716530 0.668639
2.501630 1.674067 0.692565
2.541463 1.656473 0.700376
2.556299 1.680334 0.704546
2.512274 1.702724 0.694220
2.506037 1.674164 0.672402
2.545870 1.656571 0.680213
2.560706 1.680432 0.684383
2.516681 1.702822 0.674057
2.542043 1.657328 0.700454
2.577631 1.633685 0.711908
2.594459 1.648465 0.709768
2.556878 1.681189 0.704624
2.545369 1.655668 0.680153
2.580958 1.632026 0.691606
2.597786 1.646805 0.689467
2.560205 1.679529 0.684322
2.569210 1.614230 0.688649
2.573329 1.626507 0.707308
2.537741 1.650149 0.695855
2.534013 1.639078 0.679520
2.581121 1.626897 0.677527
2.585240 1.639173 0.696187
2.549651 1.662816 0.684734
2.545924 1.651744 0.668398
2.535744 1.638316 0.680142
2.539471 1.649388 0.696477
2.499638 1.666981 0.688666
2.495866 1.655914 0.674486
2.544118 1.652547 0.667759
2.547846 1.663619 0.684094
2.508012 1.681212 0.676283
2.504241 1.670145 0.662103
2.497565 1.655585 0.674989
2.501337 1.666652 0.689169
2.458623 1.677539 0.685210
2.455054 1.667030 0.672685
2.502459 1.670502 0.661591
2.506230 1.681570 0.675771
2.463516 1.692457 0.671812
2.459948 1.681947 0.659287
2.456029 1.666709 0.672602
2.459598 1.677218 0.685126
2.415746 1.683277 0.683406
2.412560 1.674067 0.671262
2.458887 1.682286 0.659367
2.462455 1.692796 0.671892
2.418603 1.698855 0.670171
2.415417 1.689644 0.658028
2.412317 1.670803 0.679556
2.453871 1.665367 0.681199
2.457681 1.678231 0.675594
2.414211 1.685589 0.674255
2.411865 1.663313 0.660329
2.453418 1.657877 0.661973
2.457229 1.670741 0.656367
2.413759 1.678098 0.655028
2.454230 1.665790 0.681009
2.494873 1.655695 0.683456
2.500551 1.667209 0.677707
2.458041 1.678654 0.675404
2.453143 1.657437 0.662167
2.493785 1.647342 0.664614
2.499464 1.658856 0.658865
2.456953 1.670301 0.656561
2.494972 1.655880 0.683366
2.532551 1.638504 0.689105
2.540529 1.649796 0.683272
2.500651 1.667393 0.677617
2.493766 1.647129 0.664712
2.531344 1.629753 0.670452
2.539322 1.641045 0.664619
2.499445 1.658643 0.658963
2.532677 1.638569 0.689065
2.566398 1.615298 0.697931
2.575852 1.625014 0.692362
2.540655 1.649862 0.683232
2.531292 1.629646 0.670507
2.565014 1.606375 0.679372
2.574467 1.616091 0.673803
2.539270 1.640938 0.664674
2.417064 1.691071 0.687113
2.416362 1.725314 0.687065
2.371648 1.728550 0.686895
2.372333 1.695883 0.686716
2.417199 1.691115 0.666474
2.416497 1.725357 0.666426
2.371783 1.728593 0.666256
2.372468 1.695926 0.666077
2.372259 1.695806 0.686715
2.371574 1.728472 0.686894
2.326753 1.731613 0.686644
2.327395 1.698973 0.686187
2.372452 1.696011 0.666077
2.371767 1.728677 0.666256
2.326946 1.731818 0.666006
2.327588 1.699178 0.665550
2.327343 1.698877 0.686185
2.326701 1.731516 0.686642
2.281962 1.734529 0.686427
2.282322 1.701147 0.685601
2.327550 1.699280 0.665551
2.326908 1.731920 0.666008
2.282170 1.734933 0.665793
2.282530 1.701551 0.664967
2.282310 1.701138 0.685601
2.281950 1.734521 0.686427
2.237165 1.736648 0.686024
2.237396 1.703619 0.685484
2.282452 1.701564 0.664967
2.282092 1.734946 0.665792
2.237307 1.737073 0.665390
2.237537 1.704044 0.664850
2.237360 1.703712 0.685485
2.237130 1.736741 0.686026
2.192344 1.738784 0.685632
2.192439 1.706157 0.685401
2.237483 1.703955 0.664848
2.237252 1.736985 0.665388
2.192466 1.739027 0.664995
2.192561 1.706400 0.664763
2.192414 1.706234 0.685402
2.192319 1.738861 0.685633
2.147499 1.739990 0.685373
2.147453 1.707736 0.685314
2.192496 1.706326 0.664763
2.192401 1.738953 0.664994
2.147581 1.740082 0.664734
2.147536 1.707829 0.664675
2.147397 1.707803 0.685313
2.147442 1.740057 0.685373
2.102492 1.741241 0.685021
2.102440 1.709116 0.685201
2.147502 1.707764 0.664674
2.147548 1.740018 0.664733
2.102598 1.741202 0.664382
2.102546 1.709077 0.664562
2.102321 1.709190 0.685199
2.102373 1.741315 0.685020
2.057586 1.743111 0.684345
2.057328 1.709263 0.684753
2.102575 1.709005 0.664563
2.102627 1.741130 0.664383
2.057839 1.742926 0.663708
2.057582 1.709078 0.664116
2.057619 1.709086 0.684752
2.057877 1.742934 0.684344
2.013392 1.742913 0.685928
2.012473 1.707690 0.684975
2.057200 1.709256 0.664117
2.057458 1.743104 0.663709
2.012973 1.743083 0.665293
2.012055 1.707860 0.664341
2.012859 1.692487 0.671544
2.057613 1.691995 0.671772
2.057488 1.701375 0.681215
2.012342 1.699979 0.681438
2.012703 1.708036 0.657973
2.057457 1.707544 0.658201
2.057332 1.716924 0.667644
2.012186 1.715528 0.667867
2.057480 1.692486 0.672296
2.102119 1.691283 0.671808
2.102348 1.701793 0.682186
2.057354 1.701866 0.681739
2.057681 1.707054 0.657677
2.102320 1.705850 0.657189
2.102548 1.716360 0.667566
2.057555 1.716433 0.667120
2.102065 1.691248 0.671772
2.146488 1.690104 0.671635
2.147250 1.700445 0.682262
2.102294 1.701757 0.682150
2.102463 1.705884 0.657225
2.146886 1.704740 0.657088
2.147648 1.715081 0.667715
2.102692 1.716393 0.667603
2.146511 1.689943 0.671470
2.191155 1.688788 0.671365
2.192234 1.698781 0.682185
2.147273 1.700284 0.682097
2.146952 1.704899 0.657253
2.191596 1.703743 0.657148
2.192675 1.713737 0.667968
2.147714 1.715239 0.667880
2.191022 1.688649 0.671210
2.235626 1.686356 0.671070
2.237022 1.696198 0.682115
2.192101 1.698642 0.682030
2.191819 1.703878 0.657303
2.236424 1.701585 0.657163
2.237820 1.711427 0.668208
2.192898 1.713872 0.668123
2.235657 1.686230 0.670932
2.280267 1.683928 0.670803
2.281968 1.693592 0.682093
2.237053 1.696072 0.681976
2.236482 1.701706 0.657302
2.281092 1.699404 0.657173
2.282793 1.709068 0.668463
2.237878 1.711548 0.668346
2.280289 1.683767 0.670618
2.324732 1.681312 0.670282
2.327010 1.691161 0.682492
2.281990 1.693431 0.681908
2.281160 1.699559 0.657358
2.325603 1.697104 0.657022
2.327881 1.706953 0.669232
2.282861 1.709223 0.668648
2.324611 1.681167 0.670097
2.369170 1.678096 0.670140
2.371753 1.687849 0.682834
2.326889 1.691017 0.682306
2.325814 1.697242 0.657208
2.370374 1.694171 0.657251
2.372956 1.703925 0.669945
2.328093 1.707092 0.669418
2.368896 1.678064 0.670068
2.413024 1.673796 0.671016
2.416210 1.683006 0.683159
2.371479 1.687818 0.682762
2.370737 1.694194 0.657324
2.414865 1.689926 0.658272
2.418051 1.699137 0.670416
2.373320 1.703948 0.670018
2.012761 1.704736 0.674050
2.012541 1.689581 0.681264
2.056970 1.689952 0.681279
2.057516 1.704245 0.674279
2.012800 1.695764 0.655464
2.012580 1.680608 0.662678
2.057009 1.680979 0.662692
2.057555 1.695272 0.655692
2.057785 1.704339 0.674230
2.057239 1.690047 0.681230
2.101652 1.689650 0.680538
2.102424 1.703136 0.673742
2.057375 1.695176 0.655740
2.056829 1.680884 0.662741
2.101242 1.680486 0.662048
2.102014 1.693973 0.655253
2.102429 1.703140 0.673740
2.101657 1.689653 0.680536
2.145959 1.688332 0.680307
2.146852 1.701996 0.673603
2.102098 1.693968 0.655254
2.101326 1.680481 0.662050
2.145628 1.679160 0.661821
2.146521 1.692824 0.655116
2.146889 1.701891 0.673653
2.145997 1.688227 0.680358
2.190384 1.686793 0.680194
2.191533 1.700736 0.673549
2.146572 1.692926 0.655065
2.145680 1.679262 0.661770
2.190067 1.677828 0.661606
2.191216 1.691771 0.654961
2.191694 1.700617 0.673601
2.190544 1.686674 0.680246
2.234932 1.684556 0.679834
2.236298 1.698324 0.673461
2.191145 1.691886 0.654908
2.189995 1.677943 0.661553
2.234383 1.675825 0.661140
2.235749 1.689593 0.654768
2.236340 1.698199 0.673518
2.234974 1.684431 0.679890
2.279326 1.682278 0.679458
2.280950 1.695896 0.673389
2.235796 1.689714 0.654711
2.234430 1.675946 0.661083
2.278783 1.673793 0.660652
2.280406 1.687412 0.654582
2.281081 1.695631 0.673500
2.279458 1.682012 0.679570
2.323843 1.678879 0.678893
2.325525 1.693175 0.673164
2.280364 1.687672 0.654470
2.278740 1.674054 0.660540
2.323125 1.670920 0.659863
2.324807 1.685216 0.654134
2.325517 1.692820 0.673305
2.323835 1.678524 0.679034
2.368119 1.675011 0.678641
2.370076 1.689748 0.673348
2.324904 1.685565 0.653993
2.323222 1.671269 0.659722
2.367506 1.667756 0.659329
2.369463 1.682494 0.654036
2.369942 1.689588 0.673410
2.367985 1.674850 0.678703
2.412175 1.670534 0.679659
2.414070 1.685319 0.674358
2.369686 1.682647 0.653975
2.367729 1.667909 0.659268
2.411920 1.663593 0.660223
2.413814 1.678378 0.654922
1.865768 0.442237 0.911152
1.866272 0.432548 0.899462
1.869266 0.435513 0.885682
1.871752 0.448181 0.883593
1.845728 0.445575 0.907519
1.846231 0.435886 0.895829
1.849225 0.438851 0.882048
1.851712 0.451519 0.879960
1.866271 0.432542 0.899461
1.866781 0.422845 0.887774
1.869266 0.435507 0.885680
1.846230 0.435873 0.895823
1.846740 0.426176 0.884136
1.849224 0.438839 0.882042
1.866865 0.514458 0.944745
1.866360 0.477924 0.929867
1.871869 0.487430 0.902221
1.871442 0.526775 0.918426
1.846528 0.515812 0.941491
1.846024 0.479277 0.926614
1.851532 0.488783 0.898967
1.851106 0.528128 0.915173
1.866300 0.477563 0.930048
1.865856 0.442930 0.911171
1.871840 0.448873 0.883612
1.871808 0.487069 0.902401
1.846084 0.479564 0.926399
1.845641 0.444931 0.907523
1.851625 0.450874 0.879964
1.851593 0.489070 0.898753
1.871573 0.561955 0.927413
1.866244 0.564071 0.957936
1.866867 0.514789 0.944835
1.871444 0.527106 0.918516
1.851232 0.562727 0.924006
1.845902 0.564842 0.954529
1.846525 0.515561 0.941428
1.851103 0.527877 0.915109
1.872301 0.651050 0.934669
1.869247 0.650107 0.968544
1.867795 0.607154 0.962960
1.871980 0.606580 0.930758
1.851794 0.651709 0.932427
1.848740 0.650766 0.966302
1.847289 0.607813 0.960717
1.851474 0.607239 0.928515
1.871920 0.606487 0.931195
1.867735 0.607061 0.963396
1.866267 0.564121 0.957802
1.871597 0.562005 0.927280
1.851532 0.607244 0.928070
1.847347 0.607819 0.960271
1.845880 0.564878 0.954677
1.851209 0.562763 0.924155
1.867891 0.744573 0.969839
1.869540 0.712425 0.966213
1.872566 0.712758 0.938811
1.872240 0.743439 0.941467
1.847432 0.744200 0.967140
1.849082 0.712052 0.963514
1.852107 0.712385 0.936111
1.851781 0.743065 0.938767
1.869552 0.711822 0.966078
1.868785 0.679931 0.960346
1.872051 0.681618 0.935522
1.872577 0.712155 0.938676
1.849071 0.712593 0.963641
1.848305 0.680701 0.957909
1.851570 0.682389 0.933085
1.852096 0.712926 0.936239
1.868801 0.680541 0.960242
1.869250 0.650730 0.968539
1.872304 0.651673 0.934664
1.872066 0.682228 0.935419
1.848289 0.680029 0.958011
1.848738 0.650218 0.966308
1.851792 0.651161 0.932433
1.851554 0.681717 0.933187
1.873096 1.015313 0.931470
1.870854 1.014407 0.960555
1.872640 0.969585 0.964795
1.873982 0.970425 0.936901
1.852513 1.014558 0.930152
1.850271 1.013652 0.959238
1.852057 0.968830 0.963477
1.853399 0.969670 0.935584
1.873979 0.969775 0.937016
1.872637 0.968935 0.964909
1.870548 0.924249 0.969452
1.873498 0.924531 0.940249
1.853402 0.970230 0.935478
1.852060 0.969390 0.963371
1.849972 0.924704 0.967915
1.852921 0.924986 0.938711
1.873461 0.924686 0.940665
1.870511 0.924404 0.969869
1.869695 0.879459 0.972280
1.873479 0.879358 0.943078
1.852957 0.924741 0.938301
1.850007 0.924459 0.967505
1.849191 0.879514 0.969916
1.852976 0.879412 0.940714
1.873480 0.879081 0.943041
1.869695 0.879183 0.972243
1.869007 0.834185 0.972999
1.871626 0.833778 0.944656
1.852974 0.879598 0.940755
1.849189 0.879700 0.969957
1.848501 0.834702 0.970713
1.851120 0.834295 0.942370
1.871641 0.833871 0.944525
1.869023 0.834278 0.972867
1.868462 0.789234 0.971473
1.871318 0.788432 0.944088
1.851103 0.834112 0.942502
1.848484 0.834519 0.970845
1.847924 0.789476 0.969451
1.850779 0.788674 0.942065
1.871283 0.788484 0.944398
1.868427 0.789286 0.971783
1.867895 0.744401 0.969815
1.872244 0.743267 0.941443
1.850814 0.788531 0.941752
1.847959 0.789333 0.969137
1.847426 0.744448 0.967169
1.851775 0.743314 0.938797
1.874719 1.163655 0.888979
1.873345 1.170422 0.914499
1.872157 1.132276 0.928962
1.875317 1.126666 0.900558
1.854149 1.163249 0.887343
1.852775 1.170016 0.912863
1.851587 1.131870 0.927325
1.854747 1.126260 0.898922
1.875286 1.126620 0.900899
1.872125 1.132230 0.929302
1.871189 1.093851 0.943129
1.874744 1.089929 0.913037
1.854777 1.126231 0.898608
1.851617 1.131841 0.927011
1.850681 1.093463 0.940838
1.854236 1.089541 0.910746
1.874739 1.089960 0.913072
1.871185 1.093883 0.943164
1.871184 1.054190 0.952311
1.874454 1.052737 0.923779
1.854240 1.089433 0.910733
1.850685 1.093355 0.940826
1.850684 1.053663 0.949973
1.853954 1.052209 0.921441
1.874476 1.052414 0.923602
1.871206 1.053868 0.952134
1.870835 1.014051 0.960873
1.873077 1.014957 0.931787
1.853931 1.052455 0.921636
1.850661 1.053908 0.950168
1.850290 1.014092 0.958907
1.852532 1.014998 0.929821
1.910476 1.657271 0.718044
1.907589 1.672747 0.744158
1.903813 1.633070 0.763896
1.905706 1.618833 0.738539
1.890008 1.658243 0.715582
1.887120 1.673719 0.741696
1.883344 1.634041 0.761434
1.885237 1.619804 0.736077
1.905702 1.618776 0.738549
1.903809 1.633014 0.763907
1.899247 1.592530 0.781804
1.901949 1.579472 0.757472
1.885232 1.619781 0.736105
1.883340 1.634019 0.761462
1.878778 1.593535 0.779359
1.881480 1.580477 0.755027
1.901899 1.579609 0.757873
1.899197 1.592667 0.782205
1.894301 1.552449 0.800594
1.898574 1.539591 0.775381
1.881522 1.580261 0.754663
1.878819 1.593319 0.778995
1.873923 1.553101 0.797384
1.878196 1.540243 0.772171
1.898563 1.539704 0.775470
1.894289 1.552562 0.800683
1.891245 1.511277 0.816995
1.894783 1.499393 0.792225
1.878200 1.540048 0.772117
1.873927 1.552907 0.797330
1.870882 1.511621 0.813642
1.874421 1.499737 0.788872
1.894802 1.499255 0.792086
1.891263 1.511139 0.816857
1.888006 1.469672 0.832416
1.891260 1.458404 0.807563
1.874395 1.499793 0.789043
1.870857 1.511677 0.813813
1.867600 1.470210 0.829372
1.870853 1.458942 0.804519
1.891273 1.458368 0.807464
1.888020 1.469636 0.832317
1.884986 1.427923 0.847411
1.888063 1.417230 0.822191
1.870833 1.458895 0.804648
1.867580 1.470163 0.829502
1.864546 1.428450 0.844596
1.867623 1.417757 0.819376
1.888081 1.417203 0.822043
1.885004 1.427896 0.847263
1.882565 1.385702 0.861124
1.885246 1.375376 0.834782
1.867599 1.417700 0.819553
1.864522 1.428393 0.844773
1.862083 1.386199 0.858634
1.864764 1.375874 0.832292
1.885262 1.375295 0.834621
1.882581 1.385621 0.860963
1.880218 1.343229 0.874326
1.882569 1.333404 0.847065
1.864742 1.375871 0.832479
1.862062 1.386196 0.858821
1.859698 1.343804 0.872183
1.862049 1.333979 0.844923
1.882574 1.333405 0.847012
1.880223 1.343230 0.874272
1.877990 1.300305 0.885772
1.880525 1.291181 0.858556
1.862039 1.333893 0.845000
1.859688 1.343718 0.872261
1.857455 1.300793 0.883761
1.859989 1.291670 0.856545
1.880517 1.291177 0.858637
1.877982 1.300300 0.885853
1.875823 1.257220 0.896932
1.878695 1.248662 0.869147
1.859994 1.291589 0.856487
1.857459 1.300712 0.883703
1.855300 1.257632 0.894782
1.858172 1.249075 0.866997
1.878682 1.248735 0.869270
1.875810 1.257292 0.897055
1.874010 1.214001 0.906930
1.877434 1.206002 0.879151
1.858181 1.248916 0.866894
1.855309 1.257473 0.894679
1.853508 1.214182 0.904553
1.856933 1.206183 0.876774
1.877453 1.205845 0.878953
1.874028 1.213844 0.906732
1.873332 1.170055 0.914651
1.874706 1.163288 0.889131
1.856911 1.206253 0.876991
1.853487 1.214252 0.904770
1.852790 1.170463 0.912689
1.854164 1.163696 0.887169
1.971187 1.705178 0.686828
2.012439 1.707773 0.684976
2.013357 1.742996 0.685929
1.961976 1.742327 0.686058
1.970745 1.705180 0.666193
2.011998 1.707774 0.664341
2.012916 1.742997 0.665294
1.961535 1.742328 0.665424
1.971520 1.711396 0.684713
1.939594 1.715290 0.684066
1.936477 1.695525 0.699340
1.970330 1.698915 0.668319
1.938404 1.702809 0.667672
1.935287 1.683043 0.682945
1.940165 1.715202 0.684071
1.910286 1.718187 0.686152
1.937047 1.695437 0.699344
1.937793 1.702901 0.667668
1.907914 1.705886 0.669750
1.934676 1.683136 0.682941
1.943621 1.671623 0.687523
1.977540 1.690875 0.675988
1.976282 1.699953 0.683648
1.941239 1.684081 0.698274
1.932918 1.682011 0.673257
1.966837 1.701262 0.661721
1.965579 1.710340 0.669381
1.930537 1.694468 0.684007
1.973355 1.688677 0.675948
2.013867 1.692858 0.671861
2.013350 1.700349 0.681756
1.972098 1.697755 0.683607
1.971097 1.703481 0.661746
2.011609 1.707662 0.657658
2.011092 1.715153 0.667553
1.969839 1.712559 0.669405
2.013190 1.704568 0.674120
1.972678 1.700387 0.678207
1.979261 1.686451 0.684110
2.012970 1.689413 0.681334
2.012290 1.695929 0.655397
1.971778 1.691748 0.659484
1.978361 1.677812 0.665387
2.012070 1.680774 0.662611
1.972951 1.700251 0.678251
1.939032 1.681000 0.689786
1.952358 1.669145 0.693793
1.979534 1.686315 0.684154
1.971438 1.691862 0.659455
1.937519 1.672610 0.670990
1.950845 1.660755 0.674996
1.978021 1.677926 0.665357
1.910444 1.657339 0.718306
1.914777 1.684808 0.699407
1.913022 1.712952 0.717653
1.907557 1.672815 0.744420
1.890049 1.658248 0.715277
1.894382 1.685718 0.696378
1.892626 1.713862 0.714623
1.887161 1.673725 0.741391
1.914754 1.684786 0.699551
1.919247 1.711539 0.679646
1.920750 1.744965 0.681511
1.912998 1.712930 0.717797
1.894417 1.685803 0.696183
1.898910 1.712556 0.676278
1.900413 1.745982 0.678142
1.892661 1.713947 0.714428
1.915776 1.659122 0.723919
1.923031 1.679031 0.711833
1.906214 1.690544 0.706589
1.901881 1.663075 0.725488
1.912526 1.648529 0.706507
1.919781 1.668438 0.694420
1.902963 1.679951 0.689176
1.898630 1.652482 0.708075
1.922470 1.679630 0.711530
1.936908 1.695146 0.699573
1.910146 1.717897 0.686381
1.905652 1.691144 0.706286
1.920357 1.667883 0.694692
1.934795 1.683400 0.682734
1.908034 1.706150 0.669543
1.903540 1.679397 0.689448
1.946322 1.673558 0.685947
1.943941 1.686016 0.696697
1.929503 1.670500 0.708655
1.934592 1.658082 0.693980
1.930170 1.680043 0.674856
1.927788 1.692500 0.685606
1.913350 1.676984 0.697564
1.918439 1.664567 0.682889
1.935926 1.659713 0.692344
1.930837 1.672131 0.707018
1.923582 1.652222 0.719105
1.928493 1.641617 0.700207
1.917085 1.662901 0.684545
1.911995 1.675319 0.699220
1.904741 1.655410 0.711306
1.909651 1.644805 0.692409
1.937343 1.641888 0.705755
1.943332 1.656234 0.699966
1.927501 1.664933 0.698044
1.920068 1.646837 0.705908
1.935373 1.634617 0.686540
1.941361 1.648963 0.680751
1.925531 1.657662 0.678829
1.918098 1.639566 0.686692
1.943288 1.656662 0.699798
1.952514 1.668982 0.693850
1.939188 1.680837 0.689843
1.927458 1.665361 0.697876
1.941422 1.648566 0.680905
1.950648 1.660886 0.674957
1.937322 1.672741 0.670950
1.925592 1.657265 0.678983
1.881815 1.169110 0.892176
1.882939 1.211457 0.883942
1.870017 1.208027 0.887681
1.867270 1.165471 0.897860
1.876162 1.165149 0.872725
1.877285 1.207497 0.864491
1.864363 1.204067 0.868231
1.861616 1.161510 0.878409
1.882163 1.211672 0.884089
1.883648 1.253784 0.874920
1.870489 1.250976 0.877949
1.869241 1.208242 0.887829
1.878064 1.207367 0.864325
1.879549 1.249479 0.855155
1.866390 1.246670 0.858184
1.865142 1.203937 0.868064
1.883451 1.254061 0.874895
1.885554 1.295806 0.864280
1.872114 1.293767 0.867414
1.870292 1.251253 0.877924
1.879749 1.249286 0.855160
1.881852 1.291030 0.844545
1.868412 1.288992 0.847679
1.866590 1.246478 0.858189
1.885690 1.296071 0.864186
1.888199 1.337531 0.852480
1.874299 1.336256 0.855776
1.872250 1.294032 0.867320
1.881720 1.290850 0.844617
1.884229 1.332310 0.832910
1.870330 1.331035 0.836206
1.868280 1.288811 0.847751
1.888369 1.337742 0.852385
1.890867 1.378894 0.839889
1.877164 1.378358 0.843237
1.874470 1.336466 0.855681
1.884063 1.332183 0.832981
1.886561 1.373335 0.820484
1.872857 1.372799 0.823833
1.870164 1.330907 0.836277
1.891036 1.378963 0.839830
1.893535 1.420138 0.827162
1.880168 1.420253 0.830439
1.877333 1.378426 0.843178
1.886397 1.373350 0.820518
1.888896 1.414525 0.807850
1.875529 1.414640 0.811127
1.872693 1.372813 0.823866
1.893677 1.420610 0.826977
1.896915 1.461017 0.812197
1.883520 1.461864 0.815527
1.880309 1.420725 0.830254
1.888761 1.414135 0.808007
1.891999 1.454541 0.793226
1.878603 1.455388 0.796557
1.875393 1.414250 0.811284
1.897046 1.461172 0.812108
1.900368 1.501349 0.796835
1.887193 1.502870 0.799962
1.883650 1.462019 0.815438
1.891875 1.454467 0.793285
1.895196 1.494645 0.778012
1.882021 1.496165 0.781139
1.878479 1.455314 0.796616
1.900026 1.501609 0.796827
1.902254 1.541920 0.781581
1.890630 1.543441 0.783199
1.886851 1.503130 0.799954
1.895545 1.494466 0.777989
1.897773 1.534776 0.762743
1.886149 1.536298 0.764361
1.882370 1.495986 0.781116
1.901959 1.542345 0.781476
1.905891 1.581528 0.763884
1.893660 1.583885 0.765586
1.890335 1.543867 0.783094
1.898075 1.534430 0.762814
1.902008 1.573613 0.745223
1.889777 1.575970 0.746924
1.886451 1.535952 0.764432
1.906144 1.581840 0.763690
1.910903 1.620257 0.744663
1.897665 1.623501 0.746468
1.893913 1.584197 0.765391
1.901763 1.573380 0.745381
1.906522 1.611797 0.726354
1.893284 1.615041 0.728159
1.889532 1.575737 0.747082
1.911029 1.620568 0.744482
1.916458 1.658297 0.724224
1.902562 1.662250 0.725793
1.897791 1.623811 0.746287
1.906405 1.611563 0.726496
1.911834 1.649293 0.706238
1.897938 1.653246 0.707806
1.893167 1.614807 0.728301
1.896788 1.204722 0.832527
1.898049 1.245926 0.825179
1.891813 1.251598 0.866551
1.890328 1.209486 0.875720
1.876378 1.204786 0.829455
1.877639 1.245989 0.822107
1.871404 1.251662 0.863479
1.869919 1.209550 0.872648
1.898039 1.245848 0.825236
1.900243 1.286611 0.816202
1.893906 1.293266 0.855993
1.891803 1.251521 0.866608
1.877652 1.246149 0.822032
1.879856 1.286912 0.812999
1.873519 1.293567 0.852789
1.871417 1.251822 0.863404
1.900229 1.286622 0.816286
1.902773 1.327224 0.806371
1.896402 1.334738 0.844369
1.893893 1.293277 0.856076
1.879874 1.286982 0.812895
1.882417 1.327584 0.802980
1.876046 1.335098 0.840978
1.873537 1.293637 0.852685
1.902759 1.327314 0.806458
1.905432 1.367683 0.795621
1.898886 1.375980 0.831960
1.896388 1.334828 0.844456
1.882435 1.327576 0.802870
1.885108 1.367945 0.792034
1.878562 1.376242 0.828372
1.876065 1.335090 0.840869
1.905412 1.367766 0.795734
1.908085 1.408103 0.784819
1.901365 1.417239 0.819404
1.898866 1.376063 0.832073
1.885133 1.367943 0.791898
1.887807 1.408280 0.780982
1.881086 1.417416 0.815568
1.878587 1.376240 0.828236
1.908083 1.408167 0.784833
1.910597 1.448079 0.772352
1.904601 1.457708 0.804639
1.901363 1.417302 0.819419
1.887814 1.408298 0.780943
1.890328 1.448210 0.768461
1.884333 1.457839 0.800748
1.881094 1.417433 0.815528
1.910613 1.448089 0.772267
1.913251 1.487811 0.759347
1.907939 1.497896 0.789281
1.904618 1.457718 0.804554
1.890318 1.448280 0.768518
1.892956 1.488002 0.755598
1.887644 1.498087 0.785532
1.884322 1.457909 0.800805
1.913232 1.487984 0.759454
1.916600 1.527066 0.744800
1.910148 1.538380 0.774142
1.907919 1.498069 0.789388
1.892982 1.487908 0.755462
1.896350 1.526990 0.740808
1.889898 1.538304 0.770150
1.887670 1.497993 0.785396
1.916542 1.527039 0.745070
1.920328 1.565768 0.729611
1.914023 1.577535 0.756821
1.910090 1.538352 0.774412
1.896414 1.527097 0.740506
1.900199 1.565826 0.725047
1.893895 1.577593 0.752257
1.889962 1.538410 0.769848
1.920302 1.565752 0.729721
1.924480 1.604415 0.714199
1.918756 1.615936 0.737904
1.913997 1.577519 0.756930
1.900233 1.565919 0.724904
1.904411 1.604582 0.709381
1.898688 1.616103 0.733086
1.893929 1.577686 0.752113
1.924448 1.604418 0.714329
1.929063 1.643063 0.698879
1.924152 1.653669 0.717777
1.918724 1.615939 0.738035
1.904453 1.604656 0.709215
1.909069 1.643301 0.693765
1.904158 1.653907 0.712662
1.898729 1.616177 0.732920
1.920032 1.646975 0.705858
1.915416 1.608330 0.721308
1.933335 1.604124 0.721587
1.937307 1.642026 0.705706
1.918123 1.639374 0.686764
1.913507 1.600729 0.702215
1.931426 1.596523 0.702493
1.935398 1.634425 0.686612
1.915157 1.608278 0.721351
1.910979 1.569615 0.736874
1.929299 1.565952 0.737063
1.933075 1.604073 0.721629
1.913759 1.600703 0.702203
1.909581 1.562040 0.717726
1.927901 1.558377 0.717915
1.931677 1.596497 0.702481
1.910968 1.569530 0.736908
1.907183 1.530801 0.752367
1.925724 1.527659 0.752171
1.929289 1.565867 0.737097
1.909584 1.562049 0.717722
1.905798 1.523319 0.733181
1.924339 1.520178 0.732985
1.927904 1.558386 0.717912
1.907113 1.530627 0.752438
1.903745 1.491544 0.767092
1.922566 1.489037 0.766974
1.925654 1.527485 0.752242
1.905861 1.523416 0.733140
1.902493 1.484334 0.747794
1.921314 1.481827 0.747676
1.924402 1.520275 0.732944
1.903553 1.491084 0.767263
1.900915 1.451362 0.780183
1.919275 1.449518 0.780056
1.922374 1.488576 0.767146
1.902679 1.484717 0.747650
1.900041 1.444995 0.760570
1.918401 1.443151 0.760443
1.921500 1.482209 0.747532
1.900777 1.451233 0.780230
1.898263 1.411321 0.792712
1.916134 1.410187 0.792664
1.919137 1.449389 0.780102
1.900173 1.445045 0.760549
1.897659 1.405133 0.773031
1.915531 1.403999 0.772983
1.918533 1.443201 0.760422
1.898191 1.410852 0.792850
1.895517 1.370515 0.803765
1.914026 1.369877 0.803438
1.916063 1.409718 0.792802
1.897726 1.405522 0.772916
1.895052 1.365185 0.783831
1.913561 1.364546 0.783504
1.915598 1.404388 0.772868
1.895579 1.370453 0.803780
1.892907 1.330084 0.814616
1.912047 1.329954 0.814026
1.914088 1.369814 0.803453
1.894986 1.365167 0.783838
1.892313 1.324798 0.794674
1.911453 1.324667 0.794084
1.913495 1.364528 0.783511
1.893086 1.329749 0.814693
1.890543 1.289148 0.824608
1.909975 1.289439 0.823320
1.912226 1.329619 0.814103
1.892129 1.325052 0.794618
1.889586 1.284450 0.804533
1.909018 1.284741 0.803246
1.911269 1.324922 0.794028
1.890760 1.288921 0.824646
1.888557 1.248159 0.833680
1.908093 1.248819 0.832060
1.910192 1.289212 0.823359
1.889364 1.284595 0.804513
1.887160 1.243833 0.813547
1.906697 1.244494 0.811927
1.908796 1.284886 0.803226
1.888597 1.247758 0.833755
1.887336 1.206555 0.841103
1.906649 1.207874 0.839534
1.908133 1.248419 0.832135
1.887117 1.244152 0.813487
1.885856 1.202949 0.820835
1.905169 1.204268 0.819266
1.906653 1.244812 0.811868
1.876961 1.018873 0.935412
1.876849 1.057295 0.928135
1.867980 1.054292 0.932027
1.866581 1.016835 0.940213
1.869421 1.015160 0.916562
1.869309 1.053581 0.909285
1.860440 1.050579 0.913177
1.859041 1.013122 0.921362
1.876467 1.058190 0.928063
1.878310 1.095522 0.916388
1.867883 1.092411 0.921248
1.867598 1.055187 0.931955
1.869693 1.052762 0.909338
1.871537 1.090094 0.897663
1.861109 1.086983 0.902523
1.860824 1.049759 0.913230
1.878243 1.095838 0.916315
1.879372 1.133010 0.904090
1.868357 1.129418 0.909038
1.867816 1.092727 0.921176
1.871606 1.089852 0.897712
1.872734 1.127024 0.885487
1.861720 1.123432 0.890434
1.861178 1.086741 0.902572
1.879134 1.132991 0.904178
1.882066 1.170027 0.891862
1.867521 1.166388 0.897546
1.868119 1.129399 0.909125
1.872975 1.127116 0.885375
1.875908 1.164152 0.873060
1.861362 1.160513 0.878743
1.861960 1.123524 0.890323
1.893960 0.986319 0.833714
1.893327 1.030900 0.836019
1.887473 1.047602 0.875681
1.886745 0.996080 0.881187
1.873546 0.986238 0.830676
1.872912 1.030819 0.832982
1.867058 1.047521 0.872644
1.866330 0.995999 0.878150
1.893331 1.030907 0.835991
1.892684 1.075422 0.839938
1.888437 1.085150 0.869385
1.887477 1.047609 0.875653
1.872908 1.030901 0.833008
1.872262 1.075416 0.836956
1.868015 1.085144 0.866403
1.867054 1.047603 0.872670
1.892686 1.075325 0.839925
1.892356 1.119568 0.845495
1.889599 1.123979 0.865717
1.888439 1.085052 0.869372
1.872261 1.075597 0.836968
1.871931 1.119840 0.842537
1.869175 1.124251 0.862759
1.868014 1.085324 0.866415
1.892299 1.118964 0.845683
1.895323 1.163318 0.849433
1.893337 1.164281 0.860615
1.889543 1.123376 0.865905
1.871991 1.120528 0.842349
1.875015 1.164882 0.846098
1.873029 1.165845 0.857280
1.869235 1.124939 0.862571
1.886818 0.996101 0.880549
1.887546 1.047624 0.875043
1.883371 1.055481 0.919521
1.883483 1.017059 0.926798
1.866247 0.996005 0.878877
1.866975 1.047527 0.873371
1.862800 1.055384 0.917849
1.862912 1.016962 0.925126
1.887536 1.047459 0.875147
1.888496 1.084999 0.868879
1.885205 1.092647 0.907950
1.883362 1.055316 0.919625
1.866986 1.047774 0.873252
1.867947 1.085315 0.866985
1.864655 1.092963 0.906055
1.862812 1.055631 0.917730
1.888494 1.085094 0.868920
1.889654 1.124021 0.865264
1.886331 1.129914 0.895765
1.885203 1.092742 0.907990
1.867952 1.085296 0.866927
1.869112 1.124223 0.863271
1.865789 1.130116 0.893772
1.864661 1.092944 0.905998
1.889582 1.123619 0.865757
1.893376 1.164525 0.860466
1.889191 1.166548 0.883943
1.886259 1.129512 0.896258
1.869190 1.124703 0.862762
1.872984 1.165608 0.857471
1.868799 1.167631 0.880947
1.865867 1.130595 0.893263
1.914358 0.987084 0.839271
1.912653 1.032181 0.841458
1.884299 1.030371 0.844720
1.884932 0.985790 0.842414
1.912035 0.988049 0.818785
1.910330 1.033147 0.820973
1.881976 1.031337 0.824235
1.882609 0.986756 0.821929
1.912840 1.031904 0.841418
1.905506 1.076050 0.845521
1.883839 1.074609 0.848627
1.884485 1.030094 0.844680
1.910138 1.033513 0.821019
1.902804 1.077659 0.825122
1.881137 1.076218 0.828229
1.881784 1.031703 0.824281
1.906264 1.075947 0.845382
1.894040 1.119178 0.850732
1.884267 1.118749 0.854058
1.884597 1.074506 0.848489
1.902036 1.077851 0.825270
1.889813 1.121082 0.830620
1.880039 1.120653 0.833946
1.880369 1.076409 0.828377
1.895271 1.119118 0.850385
1.888522 1.163043 0.857461
1.885498 1.118689 0.853711
1.888574 1.121215 0.830976
1.881825 1.165140 0.838051
1.878801 1.120786 0.834302
1.897139 1.164442 0.838367
1.894976 1.165503 0.850667
1.901725 1.121577 0.843592
1.906029 1.120929 0.834986
1.877541 1.161634 0.832535
1.875378 1.162695 0.844834
1.882128 1.118770 0.837759
1.886431 1.118121 0.829153
1.905400 1.121514 0.836361
1.901097 1.122162 0.844967
1.913320 1.078931 0.839617
1.917409 1.078759 0.830718
1.887080 1.117449 0.827768
1.882777 1.118098 0.836374
1.895000 1.074867 0.831024
1.899089 1.074695 0.822125
1.917614 1.077832 0.830619
1.913524 1.078004 0.839518
1.920859 1.033858 0.835415
1.924605 1.033880 0.826910
1.898903 1.075535 0.822214
1.894814 1.075707 0.831113
1.902148 1.031561 0.827010
1.905895 1.031583 0.818506
1.924525 1.032901 0.827233
1.920779 1.032879 0.835737
1.922484 0.987782 0.833550
1.927655 0.988391 0.823767
1.905984 1.032472 0.818177
1.902238 1.032450 0.826681
1.903943 0.987353 0.824494
1.909114 0.987962 0.814711
1.907287 1.164344 0.844199
1.888290 1.162406 0.845702
1.897180 1.118893 0.842321
1.916932 1.120853 0.840521
1.905411 1.165608 0.823684
1.886414 1.163671 0.825188
1.895303 1.120158 0.821806
1.915056 1.122118 0.820006
1.916981 1.120395 0.840479
1.897228 1.118435 0.842279
1.909237 1.075680 0.836636
1.928766 1.077477 0.835069
1.915029 1.122490 0.820039
1.895276 1.120530 0.821839
1.907285 1.077775 0.816196
1.926813 1.079572 0.814629
1.928728 1.077747 0.835096
1.909200 1.075950 0.836663
1.916191 1.031998 0.832955
1.935949 1.033963 0.831229
1.926870 1.079216 0.814593
1.907341 1.077419 0.816160
1.914332 1.033467 0.812452
1.934090 1.035432 0.810726
1.935690 1.034030 0.831254
1.915933 1.032064 0.832979
1.919062 0.987554 0.829513
1.936452 0.989224 0.829050
1.934357 1.035276 0.810695
1.914600 1.033311 0.812421
1.917729 0.988801 0.808955
1.935119 0.990471 0.808492
1.877244 1.018207 0.935404
1.866863 1.016169 0.940204
1.867749 0.971281 0.945636
1.876394 0.973288 0.941712
1.869137 1.015743 0.916584
1.858757 1.013705 0.921384
1.859643 0.968817 0.926816
1.868288 0.970824 0.922892
1.876177 0.972717 0.941861
1.867532 0.970710 0.945785
1.867052 0.925466 0.949018
1.875886 0.926903 0.945668
1.868504 0.971305 0.922753
1.859859 0.969298 0.926677
1.859379 0.924053 0.929910
1.868213 0.925491 0.926560
1.875708 0.926649 0.945754
1.866873 0.925212 0.949103
1.866892 0.879884 0.951517
1.876478 0.880888 0.947747
1.868391 0.925653 0.926480
1.859557 0.924216 0.929830
1.859576 0.878888 0.932243
1.869162 0.879892 0.928474
1.876078 0.880677 0.947899
1.866492 0.879673 0.951668
1.864639 0.834370 0.953283
1.875943 0.834959 0.950041
1.869561 0.880012 0.928327
1.859975 0.879007 0.932096
1.858121 0.833704 0.933711
1.869426 0.834293 0.930469
1.875618 0.834442 0.950149
1.864314 0.833853 0.953390
1.863990 0.788414 0.952954
1.876402 0.788637 0.949173
1.869750 0.834719 0.930363
1.858445 0.834130 0.933605
1.858122 0.788691 0.933168
1.870534 0.788913 0.929387
1.876679 0.788098 0.949065
1.864267 0.787876 0.952846
1.865229 0.742659 0.949891
1.877273 0.742415 0.945647
1.870257 0.789361 0.929491
1.857845 0.789138 0.933272
1.858807 0.743921 0.930317
1.870851 0.743678 0.926072
1.883508 1.016806 0.926346
1.882658 0.971887 0.932654
1.883895 0.963467 0.892563
1.884609 0.992826 0.887932
1.862884 1.017130 0.925598
1.862035 0.972211 0.931906
1.863272 0.963791 0.891815
1.863985 0.993150 0.887184
1.882660 0.971985 0.932624
1.882368 0.926171 0.936431
1.883814 0.919148 0.893977
1.883897 0.963565 0.892532
1.862032 0.972031 0.931945
1.861740 0.926217 0.935752
1.863186 0.919194 0.893298
1.863269 0.963611 0.891854
1.883785 0.788915 0.939656
1.884379 0.743232 0.936238
1.885685 0.761607 0.902876
1.885003 0.800681 0.894562
1.863165 0.788559 0.938856
1.863758 0.742876 0.935438
1.865064 0.761250 0.902076
1.864383 0.800325 0.893762
1.884611 0.992837 0.887869
1.883897 0.963478 0.892499
1.885434 0.945983 0.845996
1.885370 0.967312 0.850673
1.863985 0.993102 0.887167
1.863272 0.963743 0.891797
1.864808 0.946248 0.845294
1.864744 0.967577 0.849971
1.883897 0.963623 0.892524
1.883814 0.919206 0.893968
1.885873 0.902078 0.846016
1.885433 0.946129 0.846020
1.863272 0.963528 0.891774
1.863189 0.919111 0.893218
1.865248 0.901983 0.845266
1.864808 0.946033 0.845270
1.884272 0.966462 0.854846
1.884335 0.945133 0.850168
1.887909 0.946361 0.843175
1.887941 0.972660 0.848758
1.865847 0.968409 0.845750
1.865911 0.947081 0.841072
1.869485 0.948308 0.834079
1.869517 0.974608 0.839662
1.893668 0.984147 0.834131
1.886453 0.993907 0.881605
1.888648 0.971559 0.846157
1.873837 0.988351 0.830253
1.866622 0.998111 0.877726
1.868817 0.975763 0.842278
1.893073 0.944491 0.836556
1.892903 0.985826 0.836934
1.887883 0.973238 0.848959
1.887850 0.946938 0.843376
1.874775 0.945292 0.827042
1.874605 0.986628 0.827419
1.869585 0.974039 0.839445
1.869552 0.947740 0.833862
1.889407 0.823171 0.844766
1.889049 0.857248 0.844254
1.884961 0.856800 0.851373
1.885722 0.821717 0.851130
1.871548 0.822842 0.834425
1.871190 0.856919 0.833913
1.867102 0.856471 0.841032
1.867863 0.821387 0.840790
1.889005 0.857262 0.844329
1.887925 0.903227 0.845126
1.884450 0.902116 0.850860
1.884917 0.856814 0.851448
1.871232 0.856985 0.833838
1.870153 0.902950 0.834635
1.866678 0.901839 0.840369
1.867145 0.856537 0.840957
1.888053 0.903285 0.844900
1.887712 0.947452 0.843645
1.884138 0.946224 0.850639
1.884578 0.902174 0.850635
1.870023 0.902982 0.834860
1.869682 0.947149 0.833604
1.866108 0.945922 0.840598
1.866548 0.901872 0.840594
1.885835 0.795833 0.854926
1.889940 0.792523 0.848396
1.889335 0.823758 0.844835
1.885651 0.822303 0.851200
1.868121 0.794268 0.844451
1.872226 0.790958 0.837920
1.871621 0.822192 0.834359
1.867936 0.820737 0.840724
1.888430 0.776491 0.870113
1.890304 0.795125 0.846309
1.886199 0.798436 0.852839
1.885892 0.783227 0.872194
1.869988 0.769674 0.863836
1.871861 0.788309 0.840032
1.867756 0.791619 0.846563
1.867449 0.776410 0.865917
1.895327 0.782952 0.833414
1.891046 0.793404 0.845267
1.889173 0.774770 0.869071
1.875407 0.779572 0.829200
1.871126 0.790024 0.841053
1.869253 0.771390 0.864857
1.895066 0.822478 0.835319
1.889893 0.823234 0.843816
1.890498 0.791999 0.847377
1.894779 0.781547 0.835523
1.876245 0.821954 0.826864
1.871072 0.822710 0.835361
1.871677 0.791475 0.838922
1.875958 0.781022 0.827068
1.894420 0.822395 0.836536
1.893796 0.857358 0.836809
1.888889 0.857228 0.844521
1.889247 0.823151 0.845033
1.876890 0.822107 0.825645
1.876265 0.857070 0.825919
1.871359 0.856940 0.833631
1.871717 0.822863 0.834143
1.893712 0.857353 0.836941
1.893054 0.904088 0.837211
1.887726 0.903188 0.845450
1.888805 0.857223 0.844653
1.876348 0.857156 0.825787
1.875689 0.903890 0.826057
1.870361 0.902991 0.834296
1.871441 0.857026 0.833499
1.892829 0.904188 0.837544
1.892382 0.945008 0.837708
1.887159 0.947455 0.844528
1.887501 0.903288 0.845783
1.875913 0.903879 0.825724
1.875466 0.944699 0.825888
1.870243 0.947146 0.832707
1.870585 0.902979 0.833963
1.912050 0.784738 0.839101
1.912114 0.825082 0.838954
1.886643 0.822255 0.841359
1.886356 0.781323 0.841563
1.910105 0.784657 0.818553
1.910170 0.825002 0.818407
1.884698 0.822174 0.820811
1.884411 0.781243 0.821016
1.912161 0.825053 0.838950
1.912662 0.865450 0.838898
1.886065 0.857188 0.841628
1.886689 0.822225 0.841354
1.910123 0.825110 0.818411
1.910625 0.865507 0.818360
1.884027 0.857245 0.821089
1.884652 0.822282 0.820816
1.912728 0.865487 0.838892
1.913314 0.905802 0.838900
1.885472 0.903960 0.841891
1.886130 0.857225 0.841621
1.910560 0.865551 0.818367
1.911146 0.905865 0.818375
1.883303 0.904024 0.821366
1.883962 0.857289 0.821096
1.913296 0.905819 0.838902
1.913533 0.946391 0.839213
1.885007 0.944797 0.842057
1.885454 0.903977 0.841893
1.911164 0.905933 0.818373
1.911401 0.946505 0.818684
1.882875 0.944911 0.821529
1.883322 0.904091 0.821364
1.913531 0.946425 0.839213
1.914261 0.987459 0.839291
1.884835 0.986166 0.842435
1.885004 0.944831 0.842058
1.911403 0.946553 0.818684
1.912133 0.987587 0.818762
1.882708 0.986294 0.821906
1.882877 0.944959 0.821529
1.925687 0.784637 0.823341
1.925887 0.825266 0.823338
1.920233 0.825023 0.833586
1.920168 0.784679 0.833733
1.907535 0.784678 0.813517
1.907735 0.825307 0.813514
1.902082 0.825064 0.823762
1.902017 0.784720 0.823909
1.925921 0.825265 0.823273
1.926038 0.865733 0.823200
1.920770 0.865419 0.833470
1.920268 0.825022 0.833522
1.907701 0.825389 0.813578
1.907818 0.865857 0.813505
1.902549 0.865543 0.823775
1.902048 0.825146 0.823827
1.926170 0.865737 0.822944
1.926315 0.906227 0.823190
1.921488 0.905738 0.833222
1.920901 0.865424 0.833214
1.907687 0.865934 0.813761
1.907832 0.906423 0.814007
1.903005 0.905934 0.824040
1.902418 0.865620 0.824031
1.926366 0.906271 0.823087
1.926588 0.946802 0.823525
1.921776 0.946355 0.833430
1.921539 0.905783 0.833119
1.907781 0.906459 0.814111
1.908004 0.946990 0.814548
1.903191 0.946543 0.824454
1.902954 0.905971 0.824143
1.926503 0.946718 0.823693
1.927592 0.987914 0.823894
1.922421 0.987305 0.833677
1.921691 0.946271 0.833599
1.908090 0.947157 0.814380
1.909178 0.988353 0.814581
1.904007 0.987744 0.824364
1.903277 0.946710 0.824286
1.882703 0.652714 0.938195
1.878034 0.682457 0.940369
1.864724 0.681729 0.944186
1.864961 0.651174 0.943431
1.876894 0.653203 0.918395
1.872226 0.682946 0.920569
1.858916 0.682218 0.924386
1.859153 0.651663 0.923632
1.878027 0.681672 0.940319
1.876487 0.711704 0.943981
1.865243 0.711481 0.947290
1.864717 0.680944 0.944136
1.872230 0.683791 0.920624
1.870690 0.713823 0.924287
1.859446 0.713601 0.927595
1.858920 0.683064 0.924441
1.876764 0.712083 0.943930
1.877238 0.742297 0.945650
1.865194 0.742540 0.949894
