2.210396 0.828764 0.970347
2.210004 0.806963 0.970818
2.191341 0.807307 0.971195
2.168083 0.850792 0.937136
2.195703 0.859333 0.955725
2.217001 0.858923 0.955916
2.189135 0.850385 0.936629
2.167400 0.807465 0.957673
2.195021 0.816007 0.976262
2.216319 0.815597 0.976453
2.188453 0.807059 0.957166
2.189161 0.850522 0.936926
2.217027 0.859061 0.956213
2.238325 0.858652 0.956401
2.210214 0.850115 0.936419
2.188470 0.806920 0.956870
2.216335 0.815459 0.976157
2.237634 0.815050 0.976345
2.209522 0.806513 0.956364
2.238295 0.880249 0.956060
2.217155 0.880775 0.955889
2.199093 0.887460 0.935938
2.216875 0.887110 0.935603
2.239385 0.926014 0.970336
2.218245 0.926540 0.970165
2.200183 0.933224 0.950214
2.217965 0.932875 0.949879
2.217135 0.880796 0.955823
2.195995 0.881322 0.955649
2.181292 0.887831 0.936210
2.199074 0.887481 0.935872
2.218225 0.926520 0.970231
2.197085 0.927046 0.970056
2.182382 0.933554 0.950617
2.200164 0.933204 0.950279
2.181353 0.911728 0.919455
2.180281 0.933372 0.920429
2.198772 0.933094 0.920020
2.199134 0.911378 0.919117
2.182304 0.909686 0.967354
2.181233 0.931330 0.968328
2.199723 0.931052 0.967919
2.200086 0.909336 0.967016
2.199152 0.911308 0.919114
2.198789 0.933024 0.920016
2.217280 0.932746 0.919605
2.216934 0.910959 0.918779
2.200104 0.909404 0.967018
2.199742 0.931120 0.967921
2.218232 0.930842 0.967510
2.217886 0.909055 0.966683
2.282310 0.909462 0.917531
2.249649 0.910103 0.918150
2.249995 0.932040 0.918874
2.282654 0.931550 0.918150
2.283270 0.907986 0.965451
2.250609 0.908626 0.966070
2.250955 0.930563 0.966794
2.283614 0.930073 0.966069
2.249619 0.910222 0.918155
2.216958 0.910864 0.918775
2.217304 0.932651 0.919601
2.249965 0.932159 0.918879
2.250574 0.908508 0.966067
2.217913 0.909149 0.966686
2.218259 0.930936 0.967513
2.250920 0.930445 0.966791
2.238310 0.880223 0.956142
2.216890 0.887085 0.935684
2.249552 0.886443 0.935065
2.267871 0.879746 0.955500
2.239420 0.926038 0.970254
2.218000 0.932900 0.949796
2.250661 0.932258 0.949177
2.268980 0.925561 0.969612
2.267903 0.879720 0.955582
2.249584 0.886417 0.935146
2.282245 0.885777 0.934527
2.297465 0.879243 0.954939
2.269010 0.925586 0.969529
2.250691 0.932283 0.949093
2.283352 0.931642 0.948474
2.298572 0.925109 0.968886
2.297283 0.857795 0.955396
2.276265 0.848960 0.935095
2.243182 0.849600 0.935896
2.267747 0.858286 0.956038
2.296937 0.813939 0.974785
2.275919 0.805104 0.954485
2.242836 0.805745 0.955285
2.267400 0.814430 0.975428
2.267717 0.858306 0.956084
2.243153 0.849621 0.935941
2.210069 0.850261 0.936741
2.238181 0.858798 0.956723
2.267367 0.814411 0.975384
2.242803 0.805726 0.955241
2.209719 0.806366 0.956041
2.237831 0.814902 0.976023
2.275536 0.826286 0.920822
2.275149 0.804547 0.921561
2.242064 0.805157 0.922226
2.242453 0.826927 0.921622
2.276625 0.827746 0.968739
2.276238 0.806007 0.969478
2.243153 0.806617 0.970144
2.243542 0.828387 0.969539
2.242423 0.827077 0.921619
2.242034 0.805307 0.922223
2.208947 0.805916 0.922889
2.209339 0.827717 0.922418
2.243506 0.828239 0.969544
2.243117 0.806469 0.970148
2.210030 0.807079 0.970814
2.210423 0.828880 0.970344
2.341754 0.824702 0.919219
2.341375 0.803024 0.920228
2.308289 0.803635 0.920902
2.308672 0.825343 0.920027
2.342866 0.826762 0.967114
2.342487 0.805084 0.968123
2.309401 0.805695 0.968797
2.309784 0.827404 0.967922
2.308645 0.825494 0.920022
2.308262 0.803786 0.920897
2.275177 0.804396 0.921565
2.275563 0.826136 0.920826
2.309745 0.827254 0.967929
2.309362 0.805546 0.968804
2.276277 0.806156 0.969472
2.276663 0.827896 0.968733
2.356414 0.856772 0.954011
2.342487 0.847636 0.933392
2.309405 0.848277 0.934200
2.326878 0.857263 0.954659
2.356077 0.812996 0.973580
2.342150 0.803860 0.952961
2.309068 0.804501 0.953769
2.326541 0.813487 0.974228
2.326849 0.857283 0.954705
2.309376 0.848297 0.934245
2.276294 0.848939 0.935050
2.297312 0.857774 0.955350
2.326507 0.813467 0.974184
2.309034 0.804482 0.953725
2.275952 0.805123 0.954529
2.296971 0.813958 0.974830
2.297497 0.879218 0.955021
2.282277 0.885751 0.934609
2.314937 0.885112 0.933987
2.327058 0.878741 0.954376
2.298601 0.925133 0.968803
2.283382 0.931667 0.948391
2.316041 0.931027 0.947769
2.328162 0.924656 0.968158
2.327090 0.878716 0.954458
2.314969 0.885087 0.934069
2.347629 0.884448 0.933445
2.356651 0.878239 0.953810
2.328193 0.924680 0.968075
2.316072 0.931052 0.947686
2.348732 0.930413 0.947061
2.357754 0.924203 0.967427
2.347688 0.907951 0.916277
2.315028 0.908590 0.916902
2.315372 0.930828 0.917418
2.348032 0.930339 0.916691
2.348662 0.906938 0.964209
2.316003 0.907577 0.964833
2.316347 0.929814 0.965350
2.349006 0.929325 0.964622
2.315000 0.908705 0.916905
2.282340 0.909344 0.917527
2.282684 0.931432 0.918146
2.315344 0.930942 0.917422
2.315966 0.907463 0.964831
2.283306 0.908102 0.965453
2.283650 0.930190 0.966072
2.316310 0.929700 0.965348
2.413058 0.906442 0.915014
2.380399 0.907080 0.915658
2.380743 0.929617 0.915955
2.413402 0.929129 0.915222
2.414061 0.905891 0.962952
2.381401 0.906530 0.963597
2.381745 0.929067 0.963894
2.414404 0.928579 0.963160
2.380381 0.907192 0.915660
2.347721 0.907830 0.916274
2.348065 0.930218 0.916688
2.380725 0.929729 0.915957
2.381354 0.906419 0.963596
2.348694 0.907057 0.964210
2.349039 0.929445 0.964624
2.381698 0.928956 0.963893
2.356684 0.878214 0.953890
2.347662 0.884423 0.933525
2.380322 0.883785 0.932911
2.386245 0.877737 0.953240
2.357782 0.924227 0.967346
2.348760 0.930436 0.946980
2.381420 0.929798 0.946366
2.387343 0.923750 0.966695
2.386274 0.877712 0.953324
2.380351 0.883760 0.932995
2.413010 0.883121 0.932350
2.415835 0.877235 0.952671
2.387377 0.923774 0.966609
2.381454 0.929822 0.946280
2.414113 0.929183 0.945635
2.416938 0.923297 0.965956
2.415563 0.855757 0.952735
2.408724 0.846320 0.931688
2.375642 0.846960 0.932505
2.386024 0.856247 0.953284
2.415204 0.812046 0.972449
2.408365 0.802609 0.951403
2.375283 0.803250 0.952220
2.385665 0.812536 0.972999
2.385979 0.856260 0.953314
2.375597 0.846974 0.932535
2.342515 0.847615 0.933347
2.356443 0.856751 0.953966
2.385648 0.812524 0.972971
2.375266 0.803237 0.952192
2.342184 0.803879 0.953004
2.356111 0.813015 0.973623
2.407972 0.823119 0.917603
2.407601 0.801502 0.918882
2.374515 0.802113 0.919564
2.374891 0.823759 0.918420
2.409107 0.825779 0.965468
2.408735 0.804163 0.966747
2.375650 0.804773 0.967429
2.376026 0.826420 0.966285
2.374864 0.823910 0.918413
2.374488 0.802264 0.919557
2.341402 0.802874 0.920234
2.341782 0.824552 0.919225
2.375986 0.826270 0.966294
2.375611 0.804623 0.967438
2.342525 0.805233 0.968115
2.342905 0.826911 0.967106
2.474675 0.854743 0.951321
2.474926 0.845009 0.929974
2.441845 0.845649 0.930800
2.445139 0.855235 0.951996
2.474362 0.811092 0.971167
2.474613 0.801357 0.949820
2.441532 0.801997 0.950646
2.444826 0.811583 0.971842
2.445110 0.855256 0.952044
2.441816 0.845670 0.930847
2.408735 0.846311 0.931669
2.415574 0.855747 0.952715
2.444792 0.811563 0.971796
2.441498 0.801977 0.950600
2.408416 0.802617 0.951421
2.415255 0.812054 0.972468
2.474189 0.821540 0.915973
2.473825 0.799985 0.917517
2.440740 0.800594 0.918209
2.441108 0.822180 0.916799
2.475348 0.824795 0.963801
2.474983 0.803240 0.965345
2.441898 0.803849 0.966036
2.442267 0.825435 0.964627
2.441080 0.822329 0.916790
2.440711 0.800744 0.918200
2.407627 0.801353 0.918890
2.407998 0.822970 0.917612
2.442229 0.825287 0.964637
2.441860 0.803701 0.966047
2.408776 0.804311 0.966737
2.409147 0.825927 0.965458
2.415868 0.877210 0.952757
2.413043 0.883096 0.932436
2.445703 0.882458 0.931802
2.445429 0.876733 0.952101
2.416967 0.923322 0.965869
2.414142 0.929207 0.945548
2.446801 0.928569 0.944913
2.446528 0.922844 0.965212
2.445461 0.876708 0.952186
2.445734 0.882433 0.931887
2.478393 0.881794 0.931248
2.475022 0.876231 0.951527
2.446558 0.922868 0.965126
2.446832 0.928593 0.944826
2.479491 0.927954 0.944187
2.476119 0.922391 0.964466
2.478438 0.904952 0.913737
2.445779 0.905591 0.914376
2.446123 0.928428 0.914480
2.478782 0.927940 0.913740
2.479448 0.904825 0.961678
2.446789 0.905464 0.962317
2.447133 0.928301 0.962421
2.479792 0.927813 0.961681
2.445751 0.905700 0.914377
2.413091 0.906338 0.915012
2.413435 0.929026 0.915220
2.446094 0.928537 0.914481
2.446753 0.905356 0.962318
2.414093 0.905994 0.962952
2.414437 0.928682 0.963160
2.447096 0.928193 0.962422
2.543529 0.903079 0.912460
2.510851 0.903738 0.913860
2.511214 0.926855 0.913009
2.543873 0.926367 0.912258
2.545125 0.904142 0.960374
2.512447 0.904801 0.961773
2.512810 0.927918 0.960923
2.545468 0.927430 0.960171
2.511377 0.903833 0.913846
2.478736 0.904451 0.913736
2.479080 0.927439 0.913739
2.511739 0.926950 0.912996
2.511856 0.904707 0.961788
2.479216 0.905325 0.961678
2.479560 0.928313 0.961681
2.512219 0.927824 0.960938
2.475137 0.876233 0.951509
2.478509 0.881796 0.931231
2.511150 0.881178 0.931341
2.504698 0.875756 0.950847
2.476066 0.922388 0.964482
2.479437 0.927951 0.944204
2.512078 0.927333 0.944314
2.505626 0.921911 0.963819
2.504558 0.875749 0.950884
2.511010 0.881171 0.931378
2.543688 0.880513 0.929979
2.534119 0.875272 0.950218
2.505828 0.921917 0.963781
2.512280 0.927339 0.944275
2.544958 0.926680 0.942876
2.535389 0.921440 0.963115
2.533658 0.853626 0.949671
2.540999 0.843595 0.928018
2.507879 0.844259 0.929760
2.504122 0.854118 0.950353
2.533648 0.810241 0.970095
2.540989 0.800210 0.948442
2.507870 0.800874 0.950184
2.504112 0.810733 0.970777
2.504373 0.854157 0.950440
2.508130 0.844298 0.929848
2.475088 0.844914 0.929771
2.474837 0.854648 0.951119
2.503799 0.810694 0.970690
2.507556 0.800835 0.950098
2.474514 0.801451 0.950021
2.474262 0.811186 0.971369
2.540085 0.820467 0.914303
2.539728 0.798973 0.916112
2.506644 0.799582 0.916818
2.506966 0.821130 0.916046
2.541908 0.823307 0.962136
2.541551 0.801813 0.963946
2.508467 0.802422 0.964651
2.508789 0.823970 0.963879
2.507596 0.821268 0.916023
2.507274 0.799720 0.916795
2.474189 0.800329 0.917490
2.474554 0.821884 0.915946
2.508092 0.823834 0.963903
2.507770 0.802285 0.964676
2.474685 0.802894 0.965371
2.475050 0.824449 0.963827
2.606622 0.818384 0.912669
2.606273 0.796952 0.914742
2.573188 0.797560 0.915453
2.573541 0.819023 0.913513
2.607828 0.822830 0.960399
2.607478 0.801398 0.962473
2.574393 0.802006 0.963183
2.574747 0.823469 0.961243
2.573512 0.819173 0.913500
2.573159 0.797710 0.915440
2.540075 0.798318 0.916149
2.540432 0.819812 0.914340
2.574709 0.823321 0.961258
2.574356 0.801858 0.963197
2.541271 0.802466 0.963907
2.541628 0.823960 0.962097
2.592932 0.852693 0.948404
2.607364 0.842366 0.926441
2.574283 0.843005 0.927286
2.563397 0.853185 0.949093
2.592642 0.809206 0.968609
2.607073 0.798880 0.946646
2.573992 0.799519 0.947491
2.563106 0.809698 0.969298
2.563368 0.853205 0.949137
2.574254 0.843026 0.927330
2.541173 0.843666 0.928170
2.533832 0.853697 0.949823
2.563072 0.809678 0.969255
2.573958 0.799499 0.947447
2.540878 0.800138 0.948287
2.533536 0.810170 0.969941
2.534239 0.875203 0.950460
2.543808 0.880443 0.930221
2.576467 0.879805 0.929571
2.563799 0.874726 0.949791
2.535332 0.921508 0.962871
2.544901 0.926748 0.942632
2.577560 0.926110 0.941982
2.564892 0.921031 0.962202
2.563831 0.874702 0.949880
2.576499 0.879781 0.929660
2.609159 0.879144 0.929007
2.593392 0.874225 0.949208
2.564922 0.921054 0.962112
2.577590 0.926134 0.941892
2.610249 0.925496 0.941239
2.594482 0.920578 0.961440
2.609189 0.901980 0.911145
2.576530 0.902617 0.911798
2.576873 0.926055 0.911493
2.609532 0.925568 0.910740
2.610233 0.902689 0.959080
2.577574 0.903326 0.959733
2.577917 0.926764 0.959428
2.610576 0.926277 0.958675
2.576500 0.902719 0.911797
2.543841 0.903357 0.912447
2.544184 0.926645 0.912245
2.576843 0.926157 0.911492
2.577538 0.903225 0.959735
2.544879 0.903863 0.960385
2.545222 0.927151 0.960183
2.577881 0.926663 0.959430
2.674571 0.900511 0.909837
2.641910 0.901144 0.910493
2.642251 0.924882 0.909985
2.674909 0.924399 0.909231
2.675624 0.901617 0.957765
2.642963 0.902250 0.958420
2.643304 0.925988 0.957913
2.675962 0.925505 0.957159
2.641878 0.901243 0.910491
2.609218 0.901879 0.911146
2.609561 0.925467 0.910741
2.642219 0.924981 0.909984
2.642930 0.902152 0.958423
2.610270 0.902788 0.959078
2.610612 0.926376 0.958673
2.643270 0.925890 0.957915
2.593424 0.874201 0.949297
2.609191 0.879120 0.929096
2.641851 0.878483 0.928441
2.622985 0.873724 0.948623
2.594512 0.920601 0.961350
2.610279 0.925519 0.941148
2.642939 0.924883 0.940494
2.624072 0.920124 0.960676
2.623019 0.873700 0.948713
2.641885 0.878459 0.928530
2.674546 0.877826 0.927875
2.652578 0.873224 0.948038
2.624101 0.920147 0.960585
2.642967 0.924906 0.940403
2.675628 0.924273 0.939748
2.653660 0.919670 0.959910
2.652059 0.851668 0.946918
2.673581 0.841046 0.924649
2.640500 0.841685 0.925502
2.622524 0.852159 0.947621
2.651782 0.808265 0.967300
2.673304 0.797642 0.945031
2.640223 0.798282 0.945885
2.622247 0.808756 0.968003
2.622496 0.852181 0.947667
2.640473 0.841707 0.925548
2.607392 0.842346 0.926397
2.592960 0.852672 0.948360
2.622212 0.808735 0.967959
2.640188 0.798261 0.945840
2.607108 0.798900 0.946689
2.592676 0.809226 0.968651
2.672838 0.816807 0.910995
2.672495 0.795436 0.913331
2.639411 0.796044 0.914053
2.639757 0.817447 0.911848
2.674067 0.821848 0.958665
2.673725 0.800477 0.961002
2.640641 0.801085 0.961723
2.640986 0.822488 0.959519
2.639729 0.817596 0.911834
2.639383 0.796193 0.914038
2.606299 0.796802 0.914756
2.606648 0.818234 0.912682
2.640948 0.822340 0.959535
2.640602 0.800938 0.961739
2.607518 0.801547 0.962457
2.607867 0.822979 0.960383
2.710744 0.794515 0.912521
2.691638 0.794866 0.912939
2.694746 0.816167 0.910452
2.716617 0.815743 0.909882
2.711996 0.799991 0.960143
2.692889 0.800342 0.960561
2.695997 0.821642 0.958074
2.717868 0.821219 0.957504
2.691623 0.794961 0.912929
2.672517 0.795313 0.913344
2.672859 0.816684 0.911008
2.694731 0.816262 0.910441
2.692863 0.800247 0.960573
2.673758 0.800599 0.960988
2.674100 0.821970 0.958651
2.695971 0.821548 0.958085
2.652024 0.851607 0.946787
2.670752 0.851248 0.946019
2.695417 0.840562 0.923952
2.673546 0.840984 0.924518
2.651869 0.808325 0.967429
2.670598 0.807967 0.966661
2.695263 0.797280 0.944594
2.673391 0.797703 0.945160
2.670766 0.851188 0.945893
2.689495 0.850830 0.945123
2.717303 0.840078 0.923257
2.695431 0.840501 0.923826
2.670625 0.808027 0.966786
2.689354 0.807669 0.966016
2.717161 0.796917 0.944149
2.695290 0.797340 0.944719
2.674552 0.877819 0.927904
2.701238 0.877303 0.927368
2.669888 0.872992 0.947332
2.652584 0.873216 0.948067
2.675675 0.924279 0.939717
2.702361 0.923763 0.939181
2.671011 0.919452 0.959145
2.653708 0.919677 0.959880
2.701260 0.877298 0.927384
2.727947 0.876784 0.926846
2.687214 0.872763 0.946612
2.669911 0.872987 0.947347
2.702383 0.923767 0.939165
2.729069 0.923252 0.938627
2.688337 0.919231 0.958393
2.671033 0.919456 0.959128
2.674600 0.900425 0.909839
2.674938 0.924313 0.909233
2.701653 0.923920 0.908618
2.701286 0.899909 0.909303
2.675654 0.901701 0.957762
2.675992 0.925589 0.957156
2.702707 0.925196 0.956542
2.702340 0.901185 0.957226
2.701312 0.899838 0.909304
2.701679 0.923848 0.908620
2.728394 0.923455 0.908009
2.727999 0.899323 0.908766
2.702367 0.901256 0.957224
2.702734 0.925267 0.956539
2.729448 0.924874 0.955928
2.729054 0.900741 0.956686
2.110174 0.913373 0.920803
2.106264 0.934733 0.922067
2.143247 0.934176 0.921261
2.145737 0.912674 0.920134
2.111103 0.910841 0.968679
2.107193 0.932201 0.969943
2.144176 0.931644 0.969137
2.146666 0.910142 0.968010
2.145767 0.912534 0.920127
2.143277 0.934037 0.921254
2.180259 0.933479 0.920434
2.181330 0.911834 0.919460
2.146709 0.910280 0.968016
2.144219 0.931782 0.969143
2.181201 0.931225 0.968324
2.182272 0.909580 0.967350
2.195964 0.881352 0.955557
2.163895 0.882151 0.955295
2.145698 0.888561 0.936785
2.181261 0.887861 0.936118
2.197063 0.927017 0.970149
2.164994 0.927816 0.969887
2.146796 0.934225 0.951376
2.182360 0.933526 0.950710
2.163862 0.882194 0.955163
2.131792 0.882992 0.954894
2.110102 0.889303 0.937321
2.145665 0.888604 0.936653
2.164959 0.927774 0.970019
2.132889 0.928572 0.969750
2.111199 0.934883 0.952177
2.146762 0.934183 0.951509
2.196685 0.903034 0.938915
2.175239 0.891431 0.939320
2.158469 0.893391 0.939103
2.164616 0.903832 0.938653
2.196345 0.905318 0.986811
2.174898 0.893715 0.987216
2.158128 0.895676 0.986999
2.164275 0.906117 0.986549
2.164592 0.903837 0.938652
2.158445 0.893395 0.939102
2.141595 0.894413 0.938936
2.132522 0.904635 0.938383
2.164250 0.906115 0.986549
2.158103 0.895674 0.986999
2.141254 0.896691 0.986833
2.132181 0.906913 0.986280
2.175226 0.891420 0.939320
2.153779 0.879815 0.939717
2.148439 0.882285 0.939563
2.158456 0.893380 0.939103
2.174881 0.893704 0.987216
2.153435 0.882100 0.987613
2.148095 0.884569 0.987459
2.158112 0.895664 0.987000
2.158445 0.893384 0.939103
2.148428 0.882289 0.939563
2.142929 0.884371 0.939420
2.141595 0.894401 0.938937
2.158100 0.895664 0.986999
2.148083 0.884569 0.987459
2.142584 0.886651 0.987317
2.141251 0.896682 0.986834
2.125058 0.829728 0.924429
2.146112 0.829319 0.923925
2.152885 0.807326 0.924008
2.134221 0.807672 0.924371
2.126111 0.830136 0.972367
2.147165 0.829727 0.971864
2.153937 0.807735 0.971947
2.135274 0.808081 0.972310
2.146126 0.829229 0.923926
2.167177 0.828820 0.923427
2.171563 0.806892 0.923634
2.152898 0.807237 0.924009
2.147191 0.829816 0.971862
2.168242 0.829407 0.971364
2.172628 0.807480 0.971571
2.153963 0.807824 0.971946
2.125918 0.851205 0.937322
2.131182 0.860168 0.954317
2.153046 0.859748 0.954524
2.146971 0.850796 0.936819
2.125250 0.808690 0.959491
2.130514 0.817654 0.976486
2.152377 0.817233 0.976692
2.146303 0.808281 0.958988
2.147059 0.850988 0.937198
2.153133 0.859940 0.954903
2.195730 0.859120 0.955288
2.168110 0.850579 0.936700
2.146269 0.808088 0.958608
2.152343 0.817040 0.976313
2.194940 0.816221 0.976699
2.167320 0.807679 0.958110
2.195537 0.836602 0.942051
2.152940 0.837422 0.941666
2.157150 0.846075 0.941308
2.174441 0.847297 0.941399
2.195141 0.838757 0.989953
2.152544 0.839576 0.989568
2.156754 0.848230 0.989210
2.174045 0.849452 0.989301
2.152918 0.837422 0.941666
2.131055 0.837843 0.941459
2.139795 0.845807 0.941179
2.157128 0.846076 0.941308
2.152517 0.839576 0.989568
2.130653 0.839997 0.989361
2.139393 0.847960 0.989080
2.156727 0.848229 0.989210
2.174430 0.847311 0.941399
2.157139 0.846089 0.941307
2.147894 0.855760 0.940800
2.153334 0.858007 0.940742
2.174032 0.849458 0.989301
2.156742 0.848236 0.989210
2.147497 0.857907 0.988702
2.152936 0.860154 0.988644
2.157129 0.846087 0.941307
2.139796 0.845818 0.941178
2.142301 0.853903 0.940833
2.147884 0.855758 0.940800
2.156729 0.848235 0.989209
2.139395 0.847966 0.989080
2.141900 0.856051 0.988735
2.147484 0.857907 0.988702
2.848619 0.837153 0.918915
2.818450 0.837725 0.919735
2.804268 0.848212 0.939529
2.820577 0.847901 0.938837
2.848549 0.794835 0.941468
2.818380 0.795407 0.942288
2.804197 0.805895 0.962081
2.820506 0.805584 0.961389
2.818434 0.837802 0.919882
2.788264 0.838373 0.920693
2.787945 0.848603 0.940371
2.804252 0.848290 0.939675
2.818349 0.795331 0.942143
2.788178 0.795901 0.942954
2.787860 0.806131 0.962632
2.804167 0.805818 0.961936
2.846933 0.804246 0.907474
2.817062 0.798578 0.909145
2.817688 0.813608 0.907220
2.847857 0.813035 0.906400
2.848407 0.810141 0.955040
2.818535 0.804473 0.956711
2.819162 0.819502 0.954785
2.849331 0.818930 0.953965
2.817043 0.798452 0.909162
2.787173 0.792786 0.910841
2.787499 0.814051 0.908047
2.817670 0.813481 0.907236
2.818494 0.804594 0.956697
2.788623 0.798928 0.958376
2.788949 0.820194 0.955582
2.819120 0.819623 0.954771
2.795130 0.836737 0.926708
2.807346 0.834844 0.926273
2.803170 0.825891 0.926890
2.786863 0.826203 0.927586
2.797208 0.839084 0.974557
2.809423 0.837191 0.974122
2.805247 0.828237 0.974740
2.788940 0.828550 0.975435
2.807358 0.834845 0.926272
2.819682 0.833964 0.925777
2.819491 0.825581 0.926198
2.803182 0.825892 0.926890
2.809440 0.837188 0.974122
2.821764 0.836307 0.973626
2.821573 0.827923 0.974047
2.805264 0.828235 0.974739
2.803806 0.847279 0.925819
2.811545 0.843855 0.925648
2.807353 0.834858 0.926272
2.795137 0.836751 0.926707
2.805882 0.849617 0.973669
2.813621 0.846193 0.973498
2.809429 0.837197 0.974122
2.797213 0.839090 0.974557
2.811553 0.843854 0.925647
2.819879 0.842362 0.925361
2.819686 0.833977 0.925776
2.807361 0.834858 0.926272
2.813632 0.846190 0.973497
2.821959 0.844697 0.973211
2.821765 0.836312 0.973626
2.809441 0.837193 0.974121
2.082919 0.830721 0.925417
2.111155 0.830169 0.924751
2.115521 0.808188 0.924737
2.096856 0.808536 0.925095
2.083967 0.830791 0.973357
2.112202 0.830239 0.972692
2.116568 0.808257 0.972678
2.097904 0.808606 0.973035
2.111189 0.830086 0.924751
2.125057 0.829815 0.924428
2.134220 0.807759 0.924370
2.115554 0.808105 0.924737
2.112208 0.830321 0.972691
2.126077 0.830050 0.972369
2.135239 0.807994 0.972311
2.116574 0.808340 0.972677
2.079121 0.860754 0.953061
2.105119 0.860253 0.953316
2.111986 0.851062 0.936883
2.083750 0.851614 0.937549
2.078491 0.819070 0.976755
2.104490 0.818569 0.977009
2.111356 0.809377 0.960576
2.083121 0.809929 0.961242
2.105211 0.860485 0.953735
2.131210 0.859986 0.953975
2.125946 0.851022 0.936980
2.112078 0.851294 0.937302
2.104444 0.818336 0.976589
2.130443 0.817837 0.976829
2.125179 0.808874 0.959834
2.111311 0.809145 0.960156
2.079021 0.838853 0.940965
2.105221 0.848653 0.940761
2.122490 0.847236 0.940966
2.105019 0.838352 0.941219
2.078608 0.840989 0.988867
2.104808 0.850789 0.988664
2.122077 0.849371 0.988869
2.104606 0.840488 0.989122
2.105036 0.838346 0.941219
2.122508 0.847229 0.940966
2.139775 0.845810 0.941178
2.131035 0.837847 0.941459
2.104632 0.840493 0.989122
2.122103 0.849376 0.988869
2.139371 0.847958 0.989080
2.130631 0.839994 0.989361
2.139785 0.845818 0.941178
2.122517 0.847236 0.940966
2.136789 0.855985 0.940697
2.142290 0.853902 0.940833
2.139383 0.847967 0.989080
2.122115 0.849386 0.988868
2.136387 0.858135 0.988599
2.141889 0.856052 0.988735
2.122504 0.847241 0.940966
2.105235 0.848659 0.940761
2.131437 0.858460 0.940538
2.136776 0.855990 0.940696
2.122105 0.849384 0.988868
2.104836 0.850802 0.988664
2.131037 0.860603 0.988441
2.136377 0.858133 0.988599
2.048138 0.821303 0.925081
2.048503 0.833050 0.926277
2.065965 0.832709 0.925865
2.072905 0.816423 0.925188
2.048085 0.818095 0.972926
2.048451 0.829842 0.974121
2.065912 0.829501 0.973710
2.072853 0.813214 0.973033
2.072729 0.815346 0.925141
2.065789 0.831632 0.925818
2.083250 0.831288 0.925418
2.097187 0.809103 0.925096
2.073071 0.814286 0.973080
2.066130 0.830572 0.973757
2.083592 0.830228 0.973357
2.097529 0.808043 0.973035
2.048795 0.851831 0.937571
2.039325 0.861052 0.951887
2.059207 0.860668 0.952087
2.066257 0.851490 0.937160
2.048147 0.811084 0.962842
2.038677 0.820305 0.977158
2.058559 0.819921 0.977358
2.065609 0.810743 0.962431
2.066281 0.851713 0.937527
2.059232 0.860891 0.952454
2.079113 0.860509 0.952640
2.083743 0.851369 0.937127
2.065621 0.810519 0.962064
2.058571 0.819698 0.976991
2.078453 0.819316 0.977177
2.083082 0.810175 0.961664
2.089674 0.884142 0.954238
2.065347 0.884749 0.954037
2.056700 0.890451 0.938007
2.074482 0.890102 0.937683
2.090749 0.929522 0.969694
2.066422 0.930129 0.969493
2.057775 0.935831 0.953463
2.075557 0.935482 0.953140
2.065321 0.884781 0.953944
2.047585 0.885223 0.953786
2.038892 0.890834 0.938249
2.056674 0.890484 0.937914
2.066409 0.930097 0.969587
2.048673 0.930539 0.969429
2.039980 0.936149 0.953893
2.057763 0.935799 0.953557
2.039497 0.922139 0.921386
2.056432 0.924175 0.921996
2.057429 0.912618 0.921758
2.039646 0.912968 0.922094
2.039068 0.923203 0.969325
2.056003 0.925238 0.969934
2.056999 0.913682 0.969696
2.039217 0.914031 0.970032
2.056161 0.925721 0.922010
2.073045 0.928200 0.922318
2.074940 0.913815 0.921449
2.057158 0.914164 0.921773
2.056308 0.923694 0.969919
2.073192 0.926173 0.970227
2.075087 0.911788 0.969358
2.057305 0.912137 0.969682
1.998184 0.832382 0.925502
1.999411 0.839496 0.928445
2.024054 0.839020 0.927863
2.023337 0.830284 0.925877
1.997641 0.818204 0.971307
1.998867 0.825318 0.974250
2.023511 0.824842 0.973668
2.022794 0.816105 0.971682
2.023221 0.826866 0.925087
2.023938 0.835602 0.927073
2.048584 0.835121 0.926506
2.048219 0.823374 0.925311
2.022960 0.819520 0.972472
2.023677 0.828256 0.974458
2.048324 0.827775 0.973892
2.047958 0.816028 0.972696
1.999404 0.852179 0.937785
1.999461 0.861209 0.950566
2.019344 0.860825 0.950766
2.024047 0.851704 0.937203
1.998873 0.812651 0.964926
1.998931 0.821680 0.977707
2.018813 0.821297 0.977907
2.023517 0.812175 0.964344
2.024082 0.852032 0.937695
2.019378 0.861153 0.951258
2.039258 0.860772 0.951444
2.048728 0.851551 0.937128
2.023527 0.811846 0.963852
2.018823 0.820968 0.977415
2.038703 0.820586 0.977601
2.048173 0.811365 0.963285
2.047568 0.885259 0.953684
2.026537 0.885784 0.953511
2.021092 0.891222 0.938473
2.038875 0.890870 0.938147
2.048653 0.930503 0.969532
2.027622 0.931028 0.969359
2.022177 0.936467 0.954321
2.039960 0.936114 0.953995
2.026517 0.885826 0.953394
2.005484 0.886350 0.953210
2.003290 0.891620 0.938694
2.021071 0.891264 0.938356
2.027604 0.930987 0.969476
2.006572 0.931512 0.969292
2.004378 0.936781 0.954776
2.022159 0.936426 0.954438
2.006042 0.910632 0.921181
2.023028 0.911768 0.922373
2.022365 0.904536 0.924308
2.004584 0.904892 0.924646
2.004539 0.929261 0.965341
2.021526 0.930397 0.966533
2.020862 0.923165 0.968468
2.003081 0.923521 0.968806
2.022822 0.917255 0.920791
2.039793 0.918842 0.921693
2.039942 0.909670 0.922400
2.022159 0.910023 0.922726
2.021766 0.924912 0.968116
2.038737 0.926499 0.969018
2.038886 0.917327 0.969725
2.021103 0.917680 0.970051
2.728021 0.899253 0.908768
2.728416 0.923386 0.908011
2.755131 0.922994 0.907395
2.754707 0.898738 0.908228
2.729085 0.900810 0.956683
2.729480 0.924942 0.955926
2.756194 0.924550 0.955310
2.755771 0.900294 0.956143
2.754728 0.898667 0.908230
2.755151 0.922924 0.907397
2.781868 0.922528 0.906775
2.781412 0.898151 0.907684
2.755804 0.900363 0.956140
2.756227 0.924620 0.955307
2.782944 0.924224 0.954685
2.782489 0.899847 0.955594
2.781368 0.875740 0.925800
2.737901 0.872094 0.944496
2.712583 0.872423 0.945574
2.754683 0.876256 0.926345
2.782489 0.922230 0.937498
2.739022 0.918584 0.956194
2.713704 0.918913 0.957273
2.755805 0.922746 0.938044
2.754658 0.876262 0.926326
2.712558 0.872429 0.945555
2.687240 0.872757 0.946632
2.727973 0.876778 0.926866
2.755778 0.922741 0.938065
2.713677 0.918908 0.957294
2.688359 0.919236 0.958371
2.729092 0.923257 0.938605
2.707004 0.882984 0.928267
2.686752 0.894869 0.928584
2.712070 0.894541 0.927506
2.724941 0.884876 0.927400
2.709074 0.885225 0.976121
2.688822 0.897110 0.976439
2.714140 0.896782 0.975361
2.727011 0.887116 0.975255
2.724963 0.884883 0.927399
2.712092 0.894549 0.927505
2.737410 0.894219 0.926427
2.743001 0.884662 0.926628
2.727032 0.887109 0.975255
2.714161 0.896774 0.975361
2.739480 0.896445 0.974282
2.745071 0.886888 0.974484
2.726710 0.871096 0.927967
2.707012 0.882975 0.928267
2.724949 0.884867 0.927400
2.737261 0.875172 0.927313
2.728796 0.873333 0.975822
2.709098 0.885212 0.976121
2.727035 0.887104 0.975255
2.739347 0.877409 0.975167
2.737287 0.875189 0.927311
2.724976 0.884884 0.927398
2.743014 0.884663 0.926628
2.748606 0.875106 0.926831
2.739349 0.877394 0.975168
2.727038 0.887089 0.975255
2.745076 0.886868 0.974485
2.750668 0.877311 0.974688
2.748988 0.793627 0.911695
2.729880 0.793976 0.912121
2.738517 0.815135 0.909331
2.760387 0.814714 0.908753
2.750263 0.799477 0.959272
2.731155 0.799826 0.959697
2.739792 0.820985 0.956908
2.761662 0.820564 0.956330
2.729866 0.794069 0.912110
2.710759 0.794421 0.912531
2.716632 0.815649 0.909893
2.738503 0.815228 0.909320
2.731128 0.799733 0.959709
2.712021 0.800084 0.960131
2.717894 0.821312 0.957493
2.739765 0.820892 0.956920
2.689498 0.850757 0.944975
2.713435 0.850299 0.943988
2.739176 0.839584 0.922536
2.717305 0.840005 0.923108
2.689394 0.807740 0.966163
2.713331 0.807282 0.965176
2.739072 0.796568 0.943724
2.717201 0.796988 0.944296
2.713450 0.850226 0.943842
2.737379 0.849771 0.942860
2.761061 0.839091 0.921811
2.739191 0.839512 0.922390
2.713362 0.807354 0.965320
2.737290 0.806898 0.964338
2.760973 0.796219 0.943290
2.739103 0.796639 0.943868
2.706227 0.838692 0.930405
2.724087 0.836138 0.929776
2.712371 0.827677 0.930664
2.688434 0.828136 0.931651
2.708240 0.840938 0.978262
2.726100 0.838385 0.977633
2.714384 0.829924 0.978521
2.690446 0.830382 0.979508
2.724105 0.836130 0.929775
2.742133 0.835679 0.929030
2.736317 0.827214 0.929681
2.712389 0.827669 0.930663
2.726124 0.838391 0.977631
2.744152 0.837940 0.976886
2.738336 0.829474 0.977537
2.714408 0.829930 0.978520
2.726279 0.849211 0.929066
2.736638 0.844629 0.928846
2.724103 0.836142 0.929775
2.706243 0.838696 0.930404
2.728292 0.851469 0.976923
2.738651 0.846887 0.976702
2.726116 0.838400 0.977631
2.708256 0.840954 0.978261
2.736639 0.844636 0.928845
2.747950 0.844165 0.928383
2.742132 0.835699 0.929029
2.724104 0.836150 0.929774
2.738679 0.846875 0.976702
2.749990 0.846403 0.976239
2.744172 0.837937 0.976886
2.726144 0.838388 0.977631
2.072814 0.928701 0.922346
2.089632 0.931621 0.922372
2.090316 0.914010 0.921182
2.074709 0.914316 0.921478
2.073457 0.925674 0.970198
2.090275 0.928594 0.970224
2.090959 0.910983 0.969034
2.075351 0.911290 0.969330
2.089425 0.931551 0.922371
2.106155 0.934908 0.922079
2.110065 0.913549 0.920815
2.090109 0.913940 0.921182
2.090517 0.928667 0.970224
2.107247 0.932025 0.969932
2.111157 0.910665 0.968668
2.091201 0.911056 0.969034
2.131770 0.883031 0.954777
2.110738 0.883556 0.954604
2.090122 0.889734 0.937571
2.110079 0.889342 0.937204
2.132858 0.928534 0.969868
2.111826 0.929059 0.969695
2.091210 0.935236 0.952661
2.111167 0.934845 0.952295
2.110724 0.883587 0.954512
2.089693 0.884111 0.954329
2.074502 0.890071 0.937774
2.090109 0.889765 0.937479
2.111801 0.929029 0.969786
2.090769 0.929552 0.969604
2.075578 0.935513 0.953049
2.091185 0.935206 0.952753
2.132502 0.904637 0.938383
2.141575 0.894416 0.938936
2.124701 0.894221 0.938821
2.111470 0.905162 0.938210
2.132158 0.906911 0.986280
2.141231 0.896690 0.986833
2.124357 0.896495 0.986718
2.111126 0.907436 0.986106
2.111454 0.905163 0.938210
2.124685 0.894222 0.938821
2.107851 0.893069 0.938757
2.090423 0.905686 0.938027
2.111104 0.907435 0.986106
2.124335 0.896494 0.986718
2.107500 0.895342 0.986654
2.090073 0.907959 0.985924
2.141584 0.894404 0.938937
2.142917 0.884374 0.939420
2.137334 0.882520 0.939471
2.124711 0.894210 0.938822
2.141239 0.896679 0.986834
2.142572 0.886649 0.987317
2.136989 0.884795 0.987367
2.124366 0.896485 0.986719
2.124700 0.894209 0.938822
2.137323 0.882519 0.939471
2.131885 0.880274 0.939535
2.107865 0.893057 0.938758
2.124354 0.896482 0.986719
2.136977 0.884792 0.987367
2.131539 0.882547 0.987432
2.107519 0.895330 0.986655
2.787235 0.792780 0.910840
2.768126 0.793125 0.911276
2.773992 0.814304 0.908411
2.787562 0.814046 0.908046
2.788514 0.798931 0.958378
2.769405 0.799277 0.958815
2.775271 0.820456 0.955950
2.788841 0.820197 0.955585
2.768113 0.793194 0.911268
2.749007 0.793544 0.911705
2.760407 0.814631 0.908763
2.773979 0.814373 0.908403
2.769385 0.799209 0.958824
2.750280 0.799559 0.959261
2.761679 0.820646 0.956319
2.775251 0.820388 0.955959
2.787887 0.848670 0.940499
2.788206 0.838440 0.920822
2.774636 0.838698 0.921186
2.762633 0.849152 0.941549
2.787875 0.806065 0.962505
2.788193 0.795835 0.942827
2.774624 0.796093 0.943192
2.762620 0.806548 0.963554
2.762621 0.849211 0.941663
2.774624 0.838757 0.921300
2.761052 0.839015 0.921661
2.737369 0.849695 0.942709
2.762593 0.806490 0.963441
2.774597 0.796036 0.943079
2.761024 0.796294 0.943439
2.737342 0.806973 0.964488
2.742150 0.835663 0.929030
2.760191 0.835366 0.928279
2.761585 0.826714 0.928635
2.736333 0.827198 0.929681
2.744178 0.837955 0.976885
2.762220 0.837657 0.976133
2.763614 0.829006 0.976489
2.738362 0.829489 0.977536
2.760208 0.835353 0.928279
2.778154 0.837168 0.927423
2.786856 0.826219 0.927586
2.761602 0.826702 0.928635
2.762246 0.837670 0.976131
2.780193 0.839485 0.975276
2.788895 0.828535 0.975438
2.763640 0.829018 0.976487
2.747961 0.844144 0.928383
2.759279 0.844062 0.927898
2.760185 0.835380 0.928278
2.742143 0.835678 0.929030
2.750007 0.846424 0.976237
2.761325 0.846342 0.975752
2.762231 0.837660 0.976132
2.744189 0.837958 0.976884
2.759289 0.844038 0.927899
2.769841 0.848114 0.927244
2.778141 0.837171 0.927423
2.760195 0.835357 0.928279
2.761343 0.846368 0.975750
2.771896 0.850443 0.975095
2.780196 0.839501 0.975275
2.762250 0.837686 0.976130
2.748623 0.875094 0.926831
2.743032 0.884651 0.926628
2.761050 0.884278 0.925869
2.759713 0.874719 0.926373
2.750680 0.877322 0.974687
2.745088 0.886879 0.974484
2.763106 0.886506 0.973725
2.761769 0.876948 0.974229
2.759728 0.874693 0.926374
2.761066 0.884252 0.925870
2.778922 0.881775 0.925213
2.770308 0.870015 0.926150
2.761782 0.876970 0.974228
2.763119 0.886528 0.973723
2.780976 0.884051 0.973067
2.772361 0.872292 0.974004
2.743023 0.884656 0.926628
2.737432 0.894213 0.926426
2.762472 0.893889 0.925355
2.761041 0.884282 0.925869
2.745092 0.886894 0.974483
2.739502 0.896451 0.974281
2.764542 0.896127 0.973210
2.763111 0.886520 0.973724
2.761059 0.884270 0.925869
2.762491 0.893877 0.925354
2.787533 0.893553 0.924282
2.778916 0.881794 0.925213
2.763135 0.886531 0.973723
2.764567 0.896137 0.973208
2.789609 0.895813 0.972136
2.780992 0.884054 0.973066
2.819042 0.874991 0.925069
2.788029 0.871432 0.942404
2.762987 0.871756 0.943476
2.800229 0.875359 0.925464
2.820165 0.921507 0.936661
2.789152 0.917948 0.953996
2.764110 0.918273 0.955068
2.801351 0.921875 0.937057
2.800208 0.875366 0.925439
2.762967 0.871763 0.943450
2.737926 0.872087 0.944521
2.781393 0.875733 0.925826
2.801328 0.921869 0.937084
2.764086 0.918266 0.955095
2.739046 0.918590 0.956167
2.782513 0.922236 0.937471
2.818415 0.912244 0.904911
2.818494 0.895842 0.907028
2.799680 0.896210 0.907424
2.799806 0.916364 0.905830
2.820669 0.917079 0.952565
2.820747 0.900677 0.954682
2.801934 0.901046 0.955078
2.802060 0.921199 0.953484
2.799802 0.917455 0.905744
2.799676 0.897301 0.907338
2.780861 0.897668 0.907725
2.781316 0.922045 0.906816
2.802026 0.920114 0.953571
2.801900 0.899960 0.955165
2.783085 0.900327 0.955552
2.783541 0.924704 0.954643
2.686743 0.894853 0.928585
2.706995 0.882968 0.928268
2.705271 0.871988 0.928864
2.687008 0.878029 0.929363
2.688809 0.897111 0.976439
2.709060 0.885226 0.976122
2.707336 0.874246 0.976718
2.689073 0.880286 0.977218
2.687016 0.878017 0.929364
2.705279 0.871976 0.928864
2.704436 0.860889 0.929425
2.686733 0.861522 0.930151
2.689064 0.880271 0.977219
2.707327 0.874230 0.976720
2.706484 0.863144 0.977280
2.688781 0.863776 0.978006
2.669425 0.895091 0.929320
2.686729 0.894866 0.928585
2.686994 0.878042 0.929363
2.669271 0.878460 0.930104
2.671482 0.897332 0.977176
2.688786 0.897107 0.976441
2.689051 0.880283 0.977219
2.671328 0.880701 0.977959
2.669277 0.878444 0.930104
2.687000 0.878025 0.929364
2.686717 0.861530 0.930151
2.669123 0.861813 0.930887
2.671322 0.880684 0.977960
2.689045 0.880266 0.977220
2.688762 0.863771 0.978007
2.671168 0.864054 0.978743
2.652105 0.895322 0.930056
2.669409 0.895097 0.929321
2.669255 0.878467 0.930104
2.651806 0.878720 0.930839
2.654160 0.897550 0.977912
2.671464 0.897326 0.977177
2.671310 0.880695 0.977960
2.653861 0.880949 0.978695
2.651813 0.878704 0.930839
2.669261 0.878451 0.930105
2.669107 0.861820 0.930887
2.651513 0.862103 0.931622
2.653854 0.880931 0.978696
2.671303 0.880677 0.977961
2.671149 0.864047 0.978744
2.653554 0.864329 0.979479
2.651381 0.863134 0.931603
2.621833 0.863618 0.932282
2.622163 0.880375 0.932921
2.651681 0.879736 0.930820
2.653639 0.863299 0.979501
2.624091 0.863782 0.980180
2.624421 0.880539 0.980819
2.653939 0.879900 0.978718
2.651649 0.877694 0.930916
2.622131 0.878333 0.933017
2.622388 0.894772 0.930808
2.651948 0.894295 0.930133
2.653971 0.881976 0.978620
2.624454 0.882615 0.980721
2.624711 0.899054 0.978512
2.654270 0.898577 0.977837
2.622384 0.864650 0.932281
2.592836 0.865134 0.932959
2.593161 0.881892 0.933634
2.622714 0.881407 0.932920
2.623481 0.862751 0.980183
2.593933 0.863235 0.980861
2.594258 0.879993 0.981536
2.623811 0.879508 0.980822
2.622653 0.877261 0.933118
2.593100 0.877747 0.933832
2.593349 0.894177 0.931583
2.622910 0.893701 0.930909
2.623873 0.883687 0.980622
2.594320 0.884172 0.981336
2.594569 0.900603 0.979087
2.624130 0.900126 0.978413
2.592810 0.865186 0.932962
2.563262 0.865670 0.933636
2.563581 0.882429 0.934348
2.593135 0.881944 0.933637
2.593900 0.863184 0.980860
2.564352 0.863668 0.981534
2.564671 0.880427 0.982246
2.594225 0.879942 0.981535
2.593072 0.877689 0.933841
2.563518 0.878174 0.934552
2.563761 0.894596 0.932263
2.593321 0.894120 0.931591
2.594289 0.884230 0.981329
2.564735 0.884716 0.982040
2.564978 0.901138 0.979751
2.594538 0.900661 0.979080
2.563236 0.865722 0.933639
2.533688 0.866206 0.934310
2.534002 0.882967 0.935058
2.563556 0.882482 0.934351
2.564318 0.863617 0.981533
2.534770 0.864101 0.982204
2.535085 0.880861 0.982951
2.564638 0.880376 0.982244
2.563490 0.878118 0.934560
2.533937 0.878603 0.935268
2.534173 0.895017 0.932941
2.563733 0.894540 0.932271
2.564704 0.884773 0.982033
2.535151 0.885258 0.982740
2.535387 0.901673 0.980413
2.564947 0.901195 0.979744
2.533661 0.866259 0.934313
2.504113 0.866743 0.934981
2.504422 0.883505 0.935766
2.533976 0.883019 0.935061
2.534737 0.864049 0.982202
2.505189 0.864533 0.982870
2.505498 0.881295 0.983655
2.535052 0.880809 0.982950
2.533909 0.878546 0.935276
2.504355 0.879032 0.935982
2.504584 0.895438 0.933615
2.534145 0.894961 0.932949
2.535119 0.885316 0.982733
2.505566 0.885801 0.983438
2.505794 0.902207 0.981072
2.535355 0.901730 0.980406
2.504087 0.866796 0.934984
2.474539 0.867280 0.935648
2.474843 0.884043 0.936470
2.504397 0.883558 0.935769
2.505155 0.864481 0.982868
2.475607 0.864965 0.983532
2.475911 0.881728 0.984354
2.505465 0.881243 0.983653
2.504328 0.878975 0.935990
2.474774 0.879461 0.936691
2.474996 0.895858 0.934287
2.504556 0.895381 0.933624
2.505534 0.885858 0.983430
2.475981 0.886343 0.984131
2.476202 0.902741 0.981727
2.505763 0.902264 0.981064
2.474513 0.867333 0.935651
2.444964 0.867817 0.936313
2.445263 0.884581 0.937172
2.474816 0.884096 0.936473
2.475574 0.864913 0.983531
2.446026 0.865398 0.984192
2.446324 0.882162 0.985051
2.475878 0.881676 0.984352
2.474746 0.879404 0.936700
2.445192 0.879890 0.937399
2.445407 0.896279 0.934955
2.474968 0.895802 0.934296
2.475949 0.886400 0.984124
2.446395 0.886886 0.984822
2.446610 0.903275 0.982379
2.476171 0.902798 0.981719
2.445020 0.867722 0.936307
2.415471 0.868206 0.936964
2.415760 0.885022 0.937656
2.445318 0.884486 0.937166
2.445911 0.865494 0.984199
2.416363 0.865978 0.984856
2.416651 0.882793 0.985548
2.446210 0.882258 0.985058
2.445245 0.879972 0.937386
2.415687 0.880508 0.937876
2.415899 0.896838 0.935599
2.445460 0.896361 0.934942
2.446283 0.886805 0.984837
2.416724 0.887340 0.985327
2.416937 0.903671 0.983050
2.446498 0.903194 0.982394
2.414774 0.869182 0.937052
2.385226 0.869666 0.937706
2.385548 0.886739 0.939953
2.415063 0.885997 0.937745
2.417000 0.865003 0.984770
2.387451 0.865487 0.985424
2.387774 0.882561 0.987670
2.417289 0.881819 0.985462
2.414945 0.879501 0.938070
2.385430 0.880243 0.940278
2.385596 0.896308 0.936446
2.415157 0.895832 0.935793
2.417407 0.888348 0.985135
2.387892 0.889090 0.987343
2.388058 0.905155 0.983511
2.417619 0.904679 0.982858
2.386407 0.869695 0.937684
2.356859 0.870179 0.938336
2.357137 0.887006 0.939098
2.386730 0.886768 0.939930
2.386210 0.865459 0.985448
2.356662 0.865943 0.986100
2.356940 0.882771 0.986862
2.386533 0.882533 0.987694
2.386650 0.880169 0.940261
2.357056 0.880407 0.939429
2.357255 0.896711 0.937079
2.386816 0.896235 0.936429
2.386614 0.889165 0.987362
2.357021 0.889403 0.986530
2.357219 0.905707 0.984180
2.386780 0.905230 0.983530
2.356210 0.869179 0.938274
2.326661 0.869664 0.938922
2.326934 0.886496 0.939720
2.356487 0.886007 0.939036
2.357252 0.866943 0.986162
2.327703 0.867427 0.986811
2.327976 0.884260 0.987608
2.357530 0.883771 0.986925
2.356419 0.881467 0.939259
2.326865 0.881956 0.939943
2.327056 0.898248 0.937557
2.356617 0.897771 0.936909
2.357599 0.888344 0.986700
2.328046 0.888833 0.987384
2.328237 0.905126 0.984998
2.357798 0.904649 0.984351
2.326635 0.869714 0.938925
2.297086 0.870198 0.939570
2.297354 0.887039 0.940404
2.326908 0.886547 0.939723
2.327670 0.867378 0.986809
2.298121 0.867862 0.987454
2.298389 0.884702 0.988288
2.327943 0.884210 0.987607
2.326836 0.881902 0.939951
2.297282 0.882394 0.940632
2.297467 0.898671 0.938211
2.327028 0.898194 0.937565
2.328015 0.888888 0.987377
2.298461 0.889380 0.988058
2.298645 0.905657 0.985636
2.328206 0.905180 0.984991
2.297123 0.870133 0.939566
2.267575 0.870617 0.940208
2.267883 0.887368 0.940910
2.297391 0.886973 0.940400
2.298025 0.867928 0.987459
2.268476 0.868412 0.988101
2.268784 0.885163 0.988803
2.298293 0.884768 0.988293
2.297329 0.882468 0.940620
2.267820 0.882863 0.941130
2.267952 0.899223 0.938842
2.297513 0.898746 0.938199
2.298355 0.889306 0.988071
2.268847 0.889701 0.988581
2.268979 0.906061 0.986293
2.298540 0.905584 0.985650
2.268082 0.869449 0.940179
2.238534 0.869933 0.940818
2.238747 0.886485 0.940026
2.268390 0.886200 0.940881
2.267910 0.869581 0.988131
2.238361 0.870066 0.988770
2.238574 0.886617 0.987978
2.268218 0.886333 0.988832
2.268361 0.884047 0.940984
2.238718 0.884332 0.940130
2.238932 0.900884 0.939337
2.268493 0.900407 0.938696
2.268247 0.888518 0.988727
2.238604 0.888803 0.987873
2.238818 0.905355 0.987080
2.268378 0.904878 0.986439
2.217378 0.869322 0.940666
2.217632 0.885903 0.939877
2.238811 0.885406 0.940054
2.238597 0.868855 0.940846
2.217027 0.871612 0.988562
2.217281 0.888193 0.987773
2.238460 0.887696 0.987950
2.238246 0.871145 0.988742
2.217625 0.885921 0.939876
2.217879 0.902502 0.939089
2.239019 0.901976 0.939260
2.238805 0.885424 0.940053
2.217287 0.888209 0.987772
2.217540 0.904790 0.986985
2.238681 0.904264 0.987156
2.238466 0.887712 0.987949
2.196139 0.869799 0.940483
2.196432 0.886409 0.939700
2.217612 0.885912 0.939877
2.217358 0.869331 0.940665
2.195786 0.872073 0.988380
2.196078 0.888683 0.987597
2.217258 0.888186 0.987773
2.217005 0.871605 0.988562
2.196426 0.886426 0.939699
2.196719 0.903036 0.938915
2.217859 0.902510 0.939089
2.217606 0.885929 0.939876
2.196084 0.888699 0.987596
2.196377 0.905309 0.986812
2.217517 0.904783 0.986986
2.217264 0.888202 0.987773
2.196103 0.869801 0.940483
2.176996 0.869301 0.940379
2.176556 0.880394 0.939851
2.196395 0.886411 0.939700
2.195782 0.872068 0.988380
2.176675 0.871567 0.988277
2.176235 0.882660 0.987748
2.196074 0.888678 0.987597
2.196396 0.886425 0.939699
2.176556 0.880407 0.939850
2.175242 0.891432 0.939320
2.196689 0.903035 0.938915
2.196073 0.888692 0.987596
2.176234 0.882674 0.987747
2.174919 0.893699 0.987217
2.196366 0.905302 0.986812
2.686739 0.861506 0.930151
2.704442 0.860874 0.929425
2.704887 0.849759 0.929933
2.687576 0.845439 0.930871
2.688775 0.863764 0.978007
2.706478 0.863132 0.977281
2.706923 0.852016 0.977789
2.689612 0.847697 0.978726
2.687587 0.845420 0.930871
2.704898 0.849740 0.929934
2.706215 0.838689 0.930406
2.688421 0.828133 0.931651
2.689602 0.847688 0.978727
2.706914 0.852007 0.977790
2.708230 0.840957 0.978262
2.690437 0.830400 0.979507
2.686723 0.861512 0.930151
2.687560 0.845445 0.930871
2.669398 0.845156 0.931654
2.669129 0.861795 0.930887
2.688756 0.863756 0.978008
2.689592 0.847689 0.978728
2.671430 0.847399 0.979510
2.671162 0.864039 0.978744
2.687568 0.845427 0.930872
2.688402 0.828139 0.931652
2.669673 0.828497 0.932422
2.669405 0.845137 0.931655
2.689586 0.847674 0.978729
2.690420 0.830387 0.979509
2.671691 0.830745 0.980278
2.671423 0.847385 0.979511
2.669114 0.861803 0.930888
2.669382 0.845163 0.931654
2.651221 0.845484 0.932406
2.651520 0.862085 0.931623
2.671141 0.864031 0.978745
2.671409 0.847392 0.979512
2.653248 0.847712 0.980263
2.653547 0.864314 0.979480
2.669390 0.845145 0.931655
2.669658 0.828506 0.932422
2.650929 0.828864 0.933190
2.651228 0.845466 0.932406
2.671402 0.847376 0.979513
2.671670 0.830737 0.980280
2.652941 0.831095 0.981048
2.653241 0.847697 0.980264
2.651083 0.829303 0.933168
2.621547 0.829794 0.933871
2.621855 0.846398 0.933695
2.651382 0.845904 0.932384
2.652739 0.830658 0.981072
2.623204 0.831148 0.981775
2.623511 0.847753 0.981599
2.653038 0.847259 0.980288
2.651379 0.845030 0.932425
2.621852 0.845524 0.933736
2.622130 0.862115 0.932321
2.651678 0.861632 0.931642
2.653042 0.848166 0.980245
2.623515 0.848660 0.981556
2.623793 0.865252 0.980142
2.653341 0.864768 0.979463
2.621781 0.830226 0.933856
2.592245 0.830718 0.934548
2.592546 0.847319 0.934371
2.622088 0.846831 0.933680
2.622911 0.830716 0.981792
2.593376 0.831208 0.982485
2.593677 0.847808 0.982307
2.623219 0.847321 0.981616
2.622067 0.845056 0.933765
2.592525 0.845544 0.934456
2.592797 0.862132 0.933028
2.622346 0.861648 0.932350
2.623241 0.849128 0.981529
2.593699 0.849616 0.982220
2.593971 0.866204 0.980793
2.623519 0.865720 0.980115
2.592218 0.830716 0.934549
2.562682 0.831208 0.935238
2.562977 0.847805 0.935060
2.592519 0.847317 0.934371
2.593344 0.831210 0.982485
2.563808 0.831701 0.983174
2.564103 0.848298 0.982996
2.593645 0.847811 0.982308
2.592498 0.845525 0.934458
2.562956 0.846012 0.935147
2.563222 0.862596 0.933705
2.592770 0.862112 0.933031
2.593667 0.849637 0.982219
2.564125 0.850124 0.982908
2.564391 0.866709 0.981466
2.593939 0.866224 0.980792
2.562655 0.831207 0.935239
2.533120 0.831698 0.935925
2.533409 0.848292 0.935745
2.562951 0.847804 0.935061
2.563776 0.831704 0.983175
2.534240 0.832195 0.983861
2.534529 0.848789 0.983681
2.564071 0.848301 0.982997
2.562929 0.845992 0.935149
2.533387 0.846480 0.935833
2.533647 0.863061 0.934378
2.563195 0.862577 0.933707
2.564093 0.850145 0.982907
2.534551 0.850633 0.983591
2.534811 0.867213 0.982136
2.564359 0.866729 0.981465
2.533093 0.831697 0.935925
2.503557 0.832188 0.936607
2.503840 0.848778 0.936427
2.533382 0.848290 0.935746
2.534207 0.832197 0.983862
2.504671 0.832689 0.984543
2.504954 0.849279 0.984363
2.534496 0.848791 0.983682
2.533360 0.846461 0.935836
2.503818 0.846949 0.936517
2.504071 0.863525 0.935048
2.533620 0.863041 0.934381
2.534519 0.850653 0.983590
2.504977 0.851141 0.984271
2.505230 0.867718 0.982803
2.534779 0.867234 0.982135
2.503530 0.832187 0.936608
2.473994 0.832679 0.937286
2.474271 0.849265 0.937105
2.503813 0.848777 0.936427
2.504639 0.832691 0.984544
2.475103 0.833182 0.985222
2.475380 0.849768 0.985041
2.504922 0.849280 0.984364
2.503791 0.846929 0.936519
2.474249 0.847417 0.937197
2.474496 0.863990 0.935715
2.504044 0.863506 0.935051
2.504945 0.851162 0.984270
2.475403 0.851650 0.984948
2.475650 0.868222 0.983466
2.505198 0.867738 0.982802
2.473968 0.832678 0.937287
2.444432 0.833169 0.937961
2.444703 0.849752 0.937780
2.474245 0.849264 0.937106
2.475070 0.833184 0.985223
2.445535 0.833675 0.985898
2.445806 0.850258 0.985716
2.475348 0.849770 0.985042
2.474222 0.847398 0.937199
2.444680 0.847886 0.937873
2.444920 0.864455 0.936379
2.474469 0.863971 0.935717
2.475371 0.851669 0.984947
2.445829 0.852157 0.985621
2.446069 0.868726 0.984126
2.475618 0.868242 0.983465
2.444405 0.833168 0.937962
2.414869 0.833659 0.938633
2.415133 0.850239 0.938451
2.444676 0.849751 0.937780
2.445502 0.833677 0.985899
2.415966 0.834168 0.986570
2.416231 0.850748 0.986388
2.445773 0.850260 0.985717
2.444653 0.847867 0.937876
2.415110 0.848355 0.938547
2.415345 0.864920 0.937038
2.444893 0.864436 0.936381
2.445797 0.852177 0.985620
2.416254 0.852665 0.986291
2.416489 0.869230 0.984782
2.446037 0.868746 0.984125
2.414892 0.833743 0.938632
2.385353 0.834233 0.939182
2.385614 0.850811 0.939117
2.415156 0.850323 0.938450
2.415884 0.834085 0.986573
2.386345 0.834575 0.987122
2.386607 0.851152 0.987057
2.416149 0.850665 0.986390
2.415083 0.848335 0.938549
2.385541 0.848823 0.939216
2.385769 0.865385 0.937695
2.415318 0.864901 0.937041
2.416222 0.852685 0.986290
2.386680 0.853173 0.986957
