2.560944 0.517751 0.063521
2.542963 0.517862 0.063486
2.542892 0.511824 0.080750
2.560873 0.511713 0.080784
2.560632 0.461174 0.043730
2.542650 0.461285 0.043695
2.542580 0.455247 0.060958
2.560561 0.455135 0.060993
2.560746 0.496419 0.097902
2.542764 0.496530 0.097867
2.542648 0.480124 0.105770
2.560629 0.480013 0.105805
2.560689 0.470407 0.043900
2.542707 0.470518 0.043866
2.542590 0.454112 0.051769
2.560572 0.454001 0.051803
2.543467 0.518020 0.063001
2.525486 0.518132 0.062966
2.525424 0.513185 0.078918
2.543397 0.511982 0.080264
2.542110 0.461128 0.044180
2.524128 0.461239 0.044145
2.524067 0.456293 0.060097
2.542039 0.455090 0.061443
2.542184 0.497033 0.097614
2.524212 0.498236 0.096268
2.524086 0.480738 0.105482
2.542068 0.480627 0.105517
2.543251 0.470016 0.044118
2.525279 0.471220 0.042772
2.525153 0.453722 0.051986
2.543134 0.453610 0.052021
2.560780 0.472354 0.002596
2.542799 0.472466 0.002562
2.542896 0.489929 0.007995
2.560878 0.489818 0.008029
2.560560 0.454550 0.059831
2.542579 0.454662 0.059796
2.542676 0.472125 0.065229
2.560658 0.472014 0.065264
2.560960 0.507698 0.023182
2.542978 0.507809 0.023148
2.542998 0.516342 0.040098
2.560980 0.516230 0.040133
2.560576 0.454160 0.050133
2.542595 0.454271 0.050098
2.542615 0.462803 0.067049
2.560596 0.462692 0.067083
2.542216 0.473000 0.002737
2.524235 0.473111 0.002702
2.524338 0.491844 0.009274
2.542314 0.490463 0.008170
2.543125 0.454129 0.059622
2.525144 0.454240 0.059587
2.525247 0.472974 0.066159
2.543223 0.471592 0.065054
2.543502 0.508029 0.023611
2.525526 0.509410 0.024716
2.525541 0.516672 0.040527
2.543522 0.516561 0.040562
2.542035 0.454052 0.049635
2.524059 0.455434 0.050739
2.524074 0.462696 0.066551
2.542055 0.462585 0.066586
2.550010 0.512516 0.056809
2.550955 0.504842 0.071878
2.553894 0.491412 0.071388
2.553955 0.496359 0.055437
2.491692 0.499185 0.053047
2.492638 0.491512 0.068117
2.495576 0.478082 0.067627
2.495638 0.483028 0.051675
2.550065 0.512232 0.052897
2.554010 0.496074 0.051525
2.553995 0.488812 0.035714
2.551177 0.504943 0.038543
2.491638 0.499469 0.056928
2.495583 0.483311 0.055556
2.495568 0.476049 0.039744
2.492750 0.492180 0.042573
2.510834 0.541475 0.044812
2.522210 0.536401 0.045191
2.520410 0.532092 0.032322
2.506122 0.540145 0.033429
2.485321 0.490557 0.063502
2.496698 0.485483 0.063880
2.494898 0.481174 0.051012
2.480609 0.489227 0.052119
2.521924 0.535898 0.043586
2.533301 0.530824 0.043965
2.534413 0.523536 0.029611
2.520124 0.531589 0.030718
2.497009 0.485973 0.065484
2.508386 0.480899 0.065863
2.509498 0.473611 0.051508
2.495210 0.481664 0.052615
2.507271 0.539473 0.033263
2.521560 0.531420 0.032156
2.519760 0.527111 0.019287
2.502560 0.538143 0.021880
2.479454 0.489894 0.052261
2.493742 0.481841 0.051154
2.491942 0.477532 0.038285
2.474742 0.488564 0.040878
2.521229 0.531083 0.030889
2.535517 0.523030 0.029782
2.536628 0.515742 0.015427
2.519428 0.526774 0.018020
2.494105 0.482158 0.052417
2.508393 0.474105 0.051310
2.509505 0.466817 0.036955
2.492305 0.477849 0.039548
2.510678 0.541681 0.063156
2.505924 0.540667 0.074554
2.520150 0.532263 0.076769
2.522054 0.536607 0.063535
2.485477 0.490352 0.045182
2.480723 0.489338 0.056580
2.494950 0.480934 0.058795
2.496854 0.485278 0.045561
2.521557 0.536028 0.065613
2.519652 0.531685 0.078846
2.533878 0.523280 0.081061
2.532933 0.530954 0.065991
2.497377 0.485843 0.043486
2.495473 0.481499 0.056720
2.509699 0.473095 0.058934
2.508754 0.480769 0.043864
2.507427 0.539789 0.074783
2.502674 0.538776 0.086181
2.519749 0.527042 0.090231
2.521653 0.531385 0.076998
2.479214 0.490211 0.056376
2.474460 0.489198 0.067774
2.491536 0.477464 0.071824
2.493440 0.481807 0.058590
2.521116 0.531022 0.078631
2.519211 0.526679 0.091865
2.536287 0.514944 0.095916
2.535342 0.522618 0.080846
2.494009 0.482150 0.056963
2.492105 0.477806 0.070197
2.509180 0.466072 0.074247
2.508235 0.473745 0.059177
2.474534 0.542345 0.047683
2.474168 0.540747 0.037443
2.462484 0.539114 0.042475
2.462945 0.540687 0.048564
2.485449 0.484388 0.058388
2.485082 0.482789 0.048148
2.473399 0.481157 0.053180
2.473860 0.482729 0.059268
2.472517 0.540412 0.037584
2.472151 0.538813 0.027344
2.460373 0.537207 0.036527
2.460834 0.538780 0.042615
2.486732 0.483120 0.047992
2.486365 0.481521 0.037752
2.474587 0.479915 0.046935
2.475048 0.481488 0.053023
2.493007 0.545426 0.051361
2.488295 0.544096 0.039978
2.474582 0.541178 0.039999
2.474949 0.542777 0.050238
2.503119 0.486610 0.056953
2.498408 0.485280 0.045570
2.484695 0.482362 0.045590
2.485061 0.483961 0.055830
2.485603 0.543563 0.040671
2.480892 0.542233 0.029288
2.471524 0.539046 0.030452
2.471891 0.540645 0.040691
2.501094 0.485810 0.044856
2.496383 0.484480 0.033473
2.487015 0.481293 0.034636
2.487381 0.482892 0.044876
2.492763 0.545462 0.055953
2.474705 0.542812 0.054830
2.474299 0.541515 0.066235
2.488009 0.544448 0.067351
2.503363 0.486575 0.052383
2.485305 0.483925 0.051260
2.484899 0.482627 0.062665
2.498610 0.485561 0.063781
2.485487 0.543912 0.066738
2.471776 0.540978 0.065622
2.471370 0.539680 0.077027
2.480734 0.542899 0.078136
2.501127 0.486095 0.064417
2.487416 0.483161 0.063301
2.487010 0.481863 0.074706
2.496373 0.485082 0.075815
2.463511 0.540977 0.058120
2.463027 0.539578 0.064495
2.474693 0.541338 0.068644
2.475100 0.542636 0.057239
2.473294 0.482439 0.049729
2.472810 0.481040 0.056105
2.484477 0.482800 0.060253
2.484883 0.484098 0.048849
2.461142 0.539220 0.064356
2.460658 0.537820 0.070731
2.472402 0.539682 0.079909
2.472808 0.540980 0.068504
2.474694 0.481395 0.056262
2.474210 0.479996 0.062638
2.485954 0.481857 0.071816
2.486361 0.483155 0.060411
2.551053 0.504523 0.071408
2.551998 0.496849 0.086478
2.553991 0.491093 0.070918
2.492540 0.491824 0.068613
2.493486 0.484150 0.083683
2.495479 0.478394 0.068122
2.554365 0.468735 0.081993
2.554491 0.486233 0.072779
2.552498 0.491989 0.088339
2.494855 0.465735 0.075482
2.494981 0.483233 0.066267
2.492988 0.488989 0.081828
2.551473 0.503778 0.040181
2.554292 0.487647 0.037352
2.552585 0.496490 0.025827
2.492454 0.493339 0.040911
2.495272 0.477207 0.038082
2.493565 0.486051 0.026556
2.554417 0.464770 0.027574
2.552813 0.492347 0.022620
2.554520 0.483504 0.034145
2.494943 0.462594 0.034711
2.493339 0.490171 0.029757
2.495046 0.481327 0.041282
2.560295 0.414847 0.069447
2.560313 0.422828 0.085903
2.542332 0.422939 0.085868
2.542314 0.414958 0.069412
2.560680 0.468778 0.043292
2.560698 0.476759 0.059747
2.542716 0.476870 0.059713
2.542698 0.468889 0.043257
2.560390 0.439973 0.101147
2.560485 0.457157 0.107116
2.542503 0.457269 0.107081
2.542409 0.440085 0.101113
2.560621 0.459638 0.044525
2.560716 0.476822 0.050494
2.542734 0.476934 0.050459
2.542639 0.459750 0.044491
2.542816 0.414740 0.068949
2.542834 0.422720 0.085404
2.524847 0.421596 0.084192
2.524835 0.414851 0.068914
2.542160 0.469108 0.043720
2.542178 0.477088 0.060176
2.524191 0.475964 0.058964
2.524179 0.469219 0.043686
2.541823 0.439564 0.100918
2.541918 0.456748 0.106887
2.523936 0.456859 0.106852
2.523836 0.438440 0.099706
2.543189 0.460270 0.044685
2.543284 0.477454 0.050653
2.525303 0.477565 0.050619
2.525202 0.459146 0.043472
2.560641 0.450370 0.004243
2.560534 0.435287 0.011550
2.542552 0.435398 0.011515
2.542660 0.450482 0.004208
2.560699 0.476502 0.058186
2.560592 0.461418 0.065493
2.542610 0.461530 0.065459
2.542718 0.476613 0.058152
2.560408 0.420202 0.028221
2.560333 0.413673 0.046039
2.542352 0.413784 0.046004
2.542427 0.420314 0.028186
2.560717 0.476481 0.048847
2.560642 0.469951 0.066665
2.542661 0.470062 0.066631
2.542735 0.476592 0.048813
2.542116 0.449985 0.004460
2.542008 0.434901 0.011767
2.524017 0.433881 0.013010
2.524134 0.450096 0.004426
2.543226 0.477110 0.057900
2.543118 0.462026 0.065207
2.525127 0.461007 0.066450
2.525244 0.477221 0.057865
2.542948 0.420143 0.028673
2.542873 0.413613 0.046491
2.524891 0.413724 0.046456
2.524957 0.419123 0.029915
2.542178 0.476763 0.048327
2.542103 0.470233 0.066145
2.524122 0.470345 0.066111
2.524187 0.475744 0.049570
2.549423 0.419414 0.062170
2.553570 0.435256 0.058955
2.553582 0.442002 0.074233
2.550476 0.428755 0.076260
2.491275 0.432957 0.056861
2.495422 0.448799 0.053646
2.495434 0.455544 0.068925
2.492328 0.442297 0.070951
2.549478 0.419247 0.058252
2.550671 0.424824 0.043157
2.553690 0.440488 0.038496
2.553625 0.435089 0.055037
2.491220 0.433122 0.060749
2.492413 0.438699 0.045654
2.495432 0.454363 0.040993
2.495367 0.448964 0.057534
2.509878 0.389764 0.053549
2.505174 0.389838 0.042085
2.519562 0.397531 0.040071
2.521317 0.394705 0.053351
2.485020 0.442807 0.066252
2.480317 0.442881 0.054788
2.494704 0.450573 0.052774
2.496459 0.447748 0.066054
2.521036 0.395023 0.051699
2.519281 0.397849 0.038419
2.533668 0.405541 0.036405
2.532475 0.399964 0.051501
2.496767 0.447442 0.067703
2.495012 0.450267 0.054424
2.509399 0.457960 0.052410
2.508206 0.452382 0.067505
2.506332 0.390472 0.041844
2.501629 0.390545 0.030381
2.518964 0.400990 0.026551
2.520719 0.398165 0.039830
2.479153 0.442250 0.055004
2.474450 0.442323 0.043541
2.491786 0.452768 0.039711
2.493541 0.449942 0.052990
2.520392 0.398358 0.038533
2.518637 0.401183 0.025253
2.535972 0.411628 0.021423
2.534779 0.406050 0.036519
2.493900 0.449767 0.054282
2.492145 0.452593 0.041002
2.509481 0.463037 0.037173
2.508288 0.457460 0.052268
2.509732 0.391668 0.071795
2.521172 0.396608 0.071597
2.519332 0.402466 0.084244
2.505000 0.394042 0.082998
2.485165 0.440906 0.048030
2.496604 0.445847 0.047832
2.494765 0.451705 0.060478
2.480433 0.443281 0.059233
2.520682 0.397427 0.073594
2.532122 0.402368 0.073396
2.533174 0.411708 0.087486
2.518843 0.403285 0.086241
2.497120 0.445041 0.045835
2.508560 0.449982 0.045637
2.509612 0.459322 0.059727
2.495281 0.450899 0.058482
2.506514 0.394922 0.083126
2.520846 0.403345 0.084371
2.519006 0.409203 0.097018
2.501782 0.397296 0.094329
2.478912 0.442410 0.059129
2.493245 0.450833 0.060374
2.491405 0.456691 0.073021
2.474180 0.444784 0.070332
2.520314 0.403900 0.085952
2.534646 0.412324 0.087198
2.535699 0.421664 0.101287
2.518474 0.409757 0.098599
2.493808 0.450299 0.058797
2.508140 0.458722 0.060043
2.509193 0.468063 0.074133
2.491968 0.456156 0.071444
2.473572 0.389685 0.056474
2.462005 0.391579 0.057150
2.461560 0.392448 0.050921
2.473218 0.390103 0.046119
2.485221 0.448347 0.060464
2.473654 0.450241 0.061140
2.473209 0.451110 0.054911
2.484867 0.448764 0.050108
2.471572 0.390471 0.046218
2.459914 0.392817 0.051021
2.459468 0.393686 0.044792
2.471218 0.390889 0.035863
2.486513 0.448397 0.049991
2.474854 0.450742 0.054794
2.474409 0.451612 0.048565
2.486159 0.448814 0.039636
2.492007 0.386816 0.060495
2.473983 0.389545 0.059063
2.473629 0.389962 0.048707
2.487304 0.386889 0.049032
2.502862 0.445752 0.059306
2.484838 0.448482 0.057873
2.484484 0.448899 0.047517
2.498159 0.445826 0.047842
2.484619 0.387532 0.049657
2.470944 0.390605 0.049332
2.470591 0.391023 0.038976
2.479917 0.387606 0.038193
2.500838 0.445184 0.047195
2.487163 0.448257 0.046871
2.486809 0.448674 0.036515
2.496135 0.445257 0.035731
2.491766 0.387310 0.065061
2.487033 0.389685 0.076263
2.473360 0.392643 0.074808
2.473742 0.390040 0.063628
2.503103 0.445260 0.054762
2.498370 0.447635 0.065965
2.484697 0.450593 0.064510
2.485079 0.447990 0.053330
2.484518 0.390179 0.075591
2.479786 0.392553 0.086794
2.470462 0.395740 0.085316
2.470844 0.393137 0.074136
2.500881 0.447146 0.066660
2.496149 0.449520 0.077863
2.486826 0.452708 0.076385
2.487207 0.450104 0.065205
2.462574 0.392381 0.066677
2.474140 0.390487 0.066001
2.473758 0.393090 0.077181
2.462112 0.394509 0.072850
2.473086 0.449441 0.051629
2.484652 0.447547 0.050953
2.484270 0.450151 0.062134
2.472624 0.451569 0.057802
2.460232 0.394872 0.072669
2.471878 0.393454 0.077000
2.471497 0.396057 0.088180
2.459770 0.397000 0.078841
2.474504 0.451210 0.058000
2.486150 0.449792 0.062332
2.485768 0.452395 0.073512
2.474042 0.453338 0.064173
2.550577 0.429016 0.075757
2.553683 0.442263 0.073730
2.551630 0.438357 0.089847
2.492227 0.442045 0.071479
2.495333 0.455292 0.069452
2.493279 0.451386 0.085569
2.554346 0.465716 0.082167
2.552191 0.443390 0.091138
2.554245 0.447296 0.075021
2.494874 0.468700 0.075311
2.492720 0.446374 0.084282
2.494773 0.450280 0.068165
2.550984 0.426166 0.044651
2.552176 0.431743 0.029555
2.554003 0.441829 0.039991
2.492101 0.437362 0.044135
2.493294 0.442940 0.029039
2.495120 0.453025 0.039475
2.554402 0.461689 0.027840
2.554285 0.445474 0.036424
2.552459 0.435388 0.025989
2.494957 0.465616 0.034448
2.494840 0.449401 0.043032
2.493014 0.439316 0.032597
