3.369775 1.119646 -0.825341
3.331006 1.121699 -0.826795
3.330594 1.124380 -0.817471
3.370337 1.122529 -0.815452
3.367379 1.081338 -0.814228
3.328609 1.083390 -0.815682
3.328197 1.086072 -0.806359
3.367940 1.084220 -0.804339
3.329753 1.122388 -0.823581
3.298100 1.123853 -0.824316
3.291267 1.125881 -0.793766
3.329342 1.125069 -0.814257
3.329787 1.082705 -0.818888
3.298134 1.084170 -0.819624
3.291301 1.086197 -0.789074
3.329376 1.085386 -0.809565
3.427417 1.089476 -0.830549
3.409253 1.109221 -0.828398
3.413599 1.112913 -0.817851
3.434157 1.089978 -0.820139
3.402105 1.064602 -0.812180
3.383941 1.084347 -0.810029
3.388288 1.088039 -0.799482
3.408846 1.065104 -0.801770
3.398834 1.115529 -0.825782
3.370873 1.119222 -0.826353
3.371434 1.122105 -0.816464
3.403181 1.119221 -0.815235
3.394311 1.078063 -0.812642
3.366350 1.081756 -0.813213
3.366911 1.084639 -0.803324
3.398658 1.081755 -0.802095
3.333131 0.999075 -0.828262
3.363698 1.001003 -0.827776
3.364693 0.998036 -0.820481
3.333585 0.996563 -0.821205
3.330797 1.036265 -0.813831
3.361364 1.038192 -0.813345
3.362359 1.035226 -0.806050
3.331251 1.033752 -0.806773
3.364050 1.001564 -0.829027
3.394656 1.004116 -0.828282
3.396067 0.999787 -0.819617
3.365045 0.998597 -0.821732
3.361074 1.037635 -0.812092
3.391680 1.040187 -0.811347
3.393091 1.035859 -0.802682
3.362068 1.034669 -0.804797
3.374956 1.081502 -0.833212
3.373596 1.069431 -0.820243
3.365732 1.065494 -0.820595
3.360668 1.075562 -0.833366
3.362008 1.109223 -0.807508
3.360648 1.097152 -0.794539
3.352784 1.093215 -0.794890
3.347721 1.103283 -0.807662
3.365091 1.078468 -0.833179
3.370154 1.068400 -0.820408
3.363893 1.062911 -0.820763
3.355061 1.068324 -0.833340
3.343279 1.100364 -0.807850
3.348342 1.090297 -0.795078
3.342080 1.084807 -0.795434
3.333248 1.090220 -0.808010
3.358623 1.073504 -0.833186
3.367455 1.068091 -0.820609
3.363832 1.060071 -0.820976
3.352869 1.059148 -0.833369
3.329673 1.085021 -0.808165
3.338505 1.079608 -0.795588
3.334882 1.071588 -0.795955
3.323920 1.070665 -0.808347
3.384609 1.063155 -0.832693
3.374221 1.060132 -0.821225
3.366642 1.068913 -0.820782
3.373361 1.077146 -0.832736
3.408066 1.082090 -0.806461
3.397678 1.079067 -0.794993
3.390098 1.087848 -0.794551
3.396817 1.096080 -0.806505
3.378632 1.073036 -0.832777
3.371913 1.064804 -0.820823
3.360689 1.069705 -0.820547
3.362049 1.081776 -0.833516
3.391523 1.100207 -0.806464
3.384803 1.091975 -0.794510
3.373580 1.096876 -0.794234
3.374940 1.108947 -0.807203
3.354672 1.060105 -0.831736
3.361194 1.066386 -0.820681
3.370391 1.063816 -0.820117
3.370542 1.054516 -0.831272
3.343921 1.030115 -0.807616
3.350443 1.036396 -0.796560
3.359639 1.033825 -0.795996
3.359791 1.024526 -0.807152
3.363753 1.055143 -0.831585
3.363602 1.064442 -0.820429
3.372938 1.064993 -0.820205
3.380091 1.057002 -0.831724
3.366605 1.023897 -0.806839
3.366454 1.033196 -0.795683
3.375790 1.033747 -0.795459
3.382943 1.025756 -0.806978
3.352321 1.071600 -0.833520
3.363283 1.072522 -0.821127
3.366525 1.065322 -0.821222
3.357760 1.061713 -0.832924
3.324468 1.058194 -0.808196
3.335430 1.059116 -0.795803
3.338672 1.051915 -0.795897
3.329907 1.048307 -0.807600
3.357950 1.061767 -0.832682
3.366716 1.065376 -0.820979
3.369923 1.058163 -0.821041
3.363401 1.051882 -0.832096
3.329725 1.048236 -0.807842
3.338490 1.051844 -0.796139
3.341698 1.044631 -0.796201
3.335176 1.038350 -0.807256
3.369037 1.095962 -0.840330
3.354750 1.090022 -0.840484
3.330375 1.103128 -0.841207
3.369145 1.101075 -0.839753
3.367913 1.094783 -0.800403
3.353626 1.088843 -0.800557
3.329251 1.101949 -0.801280
3.368021 1.099897 -0.799826
3.346076 1.079512 -0.840566
3.340323 1.065156 -0.840749
3.332752 1.064307 -0.842051
3.331732 1.102762 -0.841128
3.342199 1.079027 -0.800798
3.336445 1.064671 -0.800981
3.328874 1.063822 -0.802282
3.327855 1.102277 -0.801360
3.334160 1.017407 -0.840906
3.333599 1.040575 -0.841463
3.346031 1.054703 -0.840124
3.351482 1.044818 -0.839539
3.329751 1.017978 -0.801194
3.329190 1.041146 -0.801751
3.341622 1.055274 -0.800412
3.347073 1.045389 -0.799827
3.334145 1.040687 -0.841396
3.333567 1.063853 -0.841955
3.341138 1.064702 -0.840653
3.346577 1.054815 -0.840057
3.328637 1.041067 -0.801819
3.328059 1.064233 -0.802378
3.335630 1.065082 -0.801076
3.341069 1.055195 -0.800481
3.332450 1.018624 -0.841002
3.349773 1.046035 -0.839634
3.365642 1.040446 -0.839170
3.363018 1.020552 -0.840516
3.331486 1.016742 -0.801097
3.348808 1.044153 -0.799730
3.364678 1.038564 -0.799266
3.362053 1.018670 -0.800612
3.362726 1.020571 -0.840519
3.365351 1.040466 -0.839174
3.381688 1.042325 -0.839313
3.393332 1.023124 -0.839774
3.362392 1.018650 -0.800607
3.365016 1.038545 -0.799262
3.381353 1.040404 -0.799401
3.392998 1.021202 -0.799862
3.413679 1.077346 -0.841318
3.395278 1.072941 -0.839532
3.384030 1.086932 -0.839576
3.395515 1.097092 -0.839167
3.415822 1.076722 -0.801420
3.397421 1.072317 -0.799635
3.386172 1.086307 -0.799678
3.397658 1.096467 -0.799269
3.397349 1.097486 -0.839170
3.385863 1.087326 -0.839579
3.369280 1.096066 -0.840318
3.369388 1.101179 -0.839741
3.395787 1.096095 -0.799265
3.384302 1.085935 -0.799674
3.367719 1.094675 -0.800413
3.367827 1.099788 -0.799836
3.405870 1.009746 -0.828997
3.428426 1.035346 -0.831622
3.433974 1.030949 -0.818883
3.407281 1.005418 -0.820332
3.380521 1.034584 -0.810630
3.403077 1.060184 -0.813255
3.408625 1.055787 -0.800517
3.381932 1.030256 -0.801966
3.370711 1.052234 -0.832176
3.363559 1.060226 -0.820657
3.373855 1.068397 -0.821155
3.383455 1.066504 -0.832127
3.392346 1.030536 -0.806526
3.385193 1.038527 -0.795007
3.395490 1.046699 -0.795505
3.405090 1.044806 -0.806477
3.391323 1.022538 -0.839708
3.379679 1.041740 -0.839247
3.392423 1.056010 -0.839199
3.413879 1.048138 -0.842332
3.395048 1.021810 -0.799929
3.383403 1.041012 -0.799468
3.396147 1.055282 -0.799419
3.417604 1.047410 -0.802553
3.413338 1.048195 -0.842273
3.391881 1.056066 -0.839139
3.393944 1.073008 -0.839414
3.412345 1.077413 -0.841200
3.418163 1.047397 -0.802613
3.396707 1.055269 -0.799480
3.398769 1.072210 -0.799754
3.417171 1.076615 -0.801540
3.379371 1.057361 -0.832496
3.369771 1.059254 -0.821524
3.371045 1.071279 -0.821303
3.381433 1.074302 -0.832771
3.409187 1.053976 -0.806109
3.399588 1.055869 -0.795136
3.400862 1.067894 -0.794916
3.411250 1.070917 -0.806383
3.298619 1.123947 -0.823210
3.266677 1.124693 -0.823975
3.260523 1.126772 -0.794341
3.291786 1.125974 -0.792660
3.297548 1.084078 -0.820722
3.265607 1.084825 -0.821487
3.259453 1.086904 -0.791852
3.290716 1.086106 -0.790171
3.266711 1.124683 -0.824114
3.234756 1.125431 -0.824890
3.230014 1.127665 -0.797073
3.260557 1.126762 -0.794479
3.265510 1.084837 -0.821351
3.233554 1.085585 -0.822128
3.228813 1.087818 -0.794311
3.259356 1.086915 -0.791717
3.234684 1.125419 -0.825079
3.202733 1.126167 -0.825846
3.198697 1.128491 -0.798939
3.229942 1.127653 -0.797262
3.233563 1.085598 -0.821942
3.201612 1.086346 -0.822709
3.197577 1.088670 -0.795802
3.228822 1.087832 -0.794125
3.202719 1.126154 -0.826001
3.170766 1.126895 -0.826764
3.167433 1.129362 -0.800770
3.198683 1.128479 -0.799093
3.201563 1.086360 -0.822557
3.169611 1.087100 -0.823320
3.166278 1.089567 -0.797327
3.197528 1.088684 -0.795650
3.183470 1.004244 -0.839768
3.213683 1.004160 -0.838985
3.229429 0.996619 -0.830755
3.203620 0.995575 -0.831324
3.182300 1.031595 -0.810658
3.212512 1.031510 -0.809875
3.228259 1.023969 -0.801645
3.202450 1.022926 -0.802214
3.213704 1.003242 -0.838064
3.243917 1.003174 -0.837219
3.255255 0.996687 -0.829286
3.229450 0.995701 -0.829834
3.212547 1.032428 -0.810795
3.242761 1.032360 -0.809950
3.254099 1.025873 -0.802017
3.228294 1.024888 -0.802565
3.243961 1.002203 -0.836097
3.274164 1.002125 -0.835240
3.281118 0.996762 -0.827566
3.255300 0.995716 -0.828165
3.242773 1.033332 -0.811070
3.272976 1.033254 -0.810212
3.279929 1.027891 -0.802538
3.254111 1.026845 -0.803137
3.274171 1.001018 -0.833722
3.304388 1.000947 -0.832857
3.306930 0.996686 -0.825447
3.281125 0.995656 -0.826048
3.273025 1.034361 -0.811728
3.303242 1.034290 -0.810864
3.305784 1.030029 -0.803454
3.279979 1.028999 -0.804054
3.304660 0.999605 -0.830463
3.332752 0.999654 -0.829650
3.333206 0.997142 -0.822593
3.307202 0.995344 -0.823053
3.303025 1.035633 -0.813257
3.331117 1.035683 -0.812444
3.331571 1.033171 -0.805387
3.305567 1.031373 -0.805847
3.176323 1.070382 -0.848018
3.170890 1.108514 -0.844965
3.202842 1.107774 -0.844202
3.207333 1.069326 -0.846715
3.174930 1.067307 -0.808201
3.169496 1.105440 -0.805148
3.201448 1.104700 -0.804385
3.205940 1.066251 -0.806898
3.207380 1.069003 -0.846736
3.202889 1.107451 -0.844223
3.234840 1.106704 -0.843455
3.238387 1.067947 -0.845364
3.205956 1.066572 -0.806875
3.201465 1.105020 -0.804362
3.233416 1.104273 -0.803595
3.236963 1.065516 -0.805504
3.238411 1.067614 -0.845381
3.234864 1.106371 -0.843472
3.266819 1.105623 -0.842696
3.269412 1.066556 -0.844015
3.237002 1.065848 -0.805485
3.233455 1.104604 -0.803576
3.265411 1.103857 -0.802799
3.268003 1.064789 -0.804119
3.269430 1.066228 -0.844026
3.266837 1.105295 -0.842707
3.298779 1.104548 -0.841942
3.300447 1.065175 -0.842661
3.268048 1.065115 -0.804105
3.265455 1.104183 -0.802786
3.297397 1.103436 -0.802021
3.299064 1.064062 -0.802741
3.300205 1.065053 -0.842671
3.298538 1.104427 -0.841952
3.330191 1.102961 -0.841216
3.331210 1.064506 -0.842138
3.299369 1.064182 -0.802729
3.297701 1.103555 -0.802010
3.329354 1.102090 -0.801274
3.330373 1.063635 -0.802196
3.176354 1.067878 -0.848055
3.207364 1.066822 -0.846752
3.210596 1.041879 -0.845596
3.179977 1.042451 -0.846603
3.174908 1.069748 -0.808165
3.205918 1.068692 -0.806862
3.209150 1.043749 -0.805705
3.178531 1.044320 -0.806713
3.207466 1.067011 -0.846756
3.238473 1.065956 -0.845385
3.241310 1.041498 -0.844456
3.210698 1.042069 -0.845600
3.205877 1.068501 -0.806856
3.236884 1.067445 -0.805484
3.239721 1.042987 -0.804556
3.209109 1.043558 -0.805699
3.238500 1.066121 -0.845389
3.269501 1.065062 -0.844023
3.271958 1.041098 -0.843338
3.241337 1.041663 -0.844461
3.236919 1.067278 -0.805477
3.267920 1.066219 -0.804111
3.270377 1.042255 -0.803427
3.239755 1.042820 -0.804549
3.269533 1.065245 -0.844026
3.300550 1.064192 -0.842661
3.302599 1.040709 -0.842229
3.271990 1.041281 -0.843342
3.267949 1.066035 -0.804106
3.298966 1.064981 -0.802741
3.301015 1.041498 -0.802308
3.270406 1.042071 -0.803421
3.300177 1.064184 -0.842672
3.331181 1.063637 -0.842139
3.331759 1.040471 -0.841581
3.302225 1.040700 -0.842240
3.299400 1.064989 -0.802728
3.330405 1.064442 -0.802195
3.330983 1.041276 -0.801636
3.301449 1.041505 -0.802296
3.179834 1.042388 -0.846604
3.210453 1.041816 -0.845597
3.213663 1.016879 -0.844383
3.183451 1.016963 -0.845165
3.178681 1.044333 -0.806708
3.209300 1.043761 -0.805701
3.212510 1.018824 -0.804487
3.182298 1.018909 -0.805269
3.210551 1.042006 -0.845603
3.241162 1.041436 -0.844459
3.243975 1.017001 -0.843543
3.213761 1.017069 -0.844388
3.209263 1.043571 -0.805694
3.239874 1.043001 -0.804551
3.242687 1.018566 -0.803635
3.212473 1.018634 -0.804480
3.241192 1.041640 -0.844465
3.271814 1.041075 -0.843343
3.274208 1.017127 -0.842691
3.244005 1.017205 -0.843549
3.239905 1.042795 -0.804543
3.270526 1.042230 -0.803420
3.272920 1.018282 -0.802769
3.242717 1.018360 -0.803627
3.271845 1.041267 -0.843347
3.302454 1.040695 -0.842234
3.304456 1.017248 -0.841830
3.274240 1.017319 -0.842695
3.270555 1.042037 -0.803415
3.301164 1.041465 -0.802302
3.303166 1.018017 -0.801899
3.272950 1.018089 -0.802763
3.302347 1.040696 -0.842237
3.331881 1.040467 -0.841578
3.332442 1.017298 -0.841021
3.304350 1.017249 -0.841833
3.301330 1.041463 -0.802298
3.330864 1.041234 -0.801638
3.331424 1.018066 -0.801081
3.303332 1.018016 -0.801894
3.172513 1.024827 -0.843281
3.172737 1.028658 -0.865761
3.173173 1.051594 -0.864414
3.173551 1.048380 -0.844635
3.132574 1.026093 -0.842924
3.132798 1.029925 -0.865404
3.133235 1.052860 -0.864058
3.133612 1.049647 -0.844278
3.172746 1.029430 -0.865790
3.173088 1.033251 -0.888305
3.172398 1.055589 -0.884187
3.173182 1.052365 -0.864444
3.132789 1.029160 -0.865417
3.133131 1.032982 -0.887932
3.132441 1.055320 -0.883814
3.133225 1.052096 -0.864071
3.173532 1.048410 -0.845361
3.173154 1.051624 -0.865140
3.173519 1.074565 -0.863768
3.174626 1.071959 -0.846755
3.133632 1.049663 -0.843553
3.133255 1.052876 -0.863332
3.133619 1.075817 -0.861960
3.134726 1.073212 -0.844947
3.173165 1.051962 -0.865069
3.172381 1.055186 -0.884812
3.172897 1.077515 -0.880748
3.173530 1.074903 -0.863697
3.133242 1.052544 -0.863440
3.132458 1.055768 -0.883183
3.132975 1.078096 -0.879119
3.133607 1.075485 -0.862068
3.193512 1.017538 -0.842117
3.163224 1.025053 -0.859973
3.164262 1.048607 -0.861327
3.189895 1.042962 -0.843556
3.172179 1.018341 -0.808337
3.141891 1.025856 -0.826193
3.142929 1.049410 -0.827547
3.168562 1.043765 -0.809776
3.191300 1.043087 -0.842584
3.165667 1.048731 -0.860356
3.166761 1.072280 -0.861750
3.187677 1.068514 -0.844036
3.167154 1.043690 -0.810750
3.141521 1.049334 -0.828521
3.142615 1.072883 -0.829915
3.163531 1.069117 -0.812202
3.174601 1.073924 -0.846510
3.173494 1.076530 -0.863524
3.172343 1.097275 -0.868258
3.172183 1.104791 -0.846805
3.134749 1.071296 -0.845193
3.133643 1.073902 -0.862207
3.132491 1.094647 -0.866941
3.132331 1.102163 -0.845488
3.173516 1.076185 -0.863471
3.172884 1.078796 -0.880521
3.172364 1.096929 -0.868204
3.133621 1.074239 -0.862289
3.132988 1.076850 -0.879340
3.132469 1.094984 -0.867023
3.189646 1.071005 -0.842165
3.168730 1.074771 -0.859878
3.166312 1.105638 -0.860172
3.184212 1.109137 -0.839112
3.161556 1.066685 -0.814074
3.140640 1.070451 -0.831787
3.138222 1.101319 -0.832081
3.156123 1.104818 -0.811021
3.438972 1.043591 -0.819043
3.433424 1.047988 -0.831781
3.432431 1.077206 -0.830708
3.439172 1.077709 -0.820297
3.403651 1.043203 -0.800358
3.398103 1.047600 -0.813096
3.397111 1.076818 -0.812023
3.403851 1.077320 -0.801613
3.344642 1.079106 -0.840655
3.330298 1.102356 -0.841217
3.354672 1.089250 -0.840494
3.343647 1.079458 -0.800709
3.329303 1.102708 -0.801271
3.353678 1.089602 -0.800548
