3.407146 0.604041 0.392924
3.408292 0.592043 0.391420
3.410477 0.578966 0.404068
3.405857 0.588094 0.406698
3.496647 0.624637 0.412514
3.497793 0.612639 0.411011
3.499977 0.599562 0.423659
3.495357 0.608690 0.426288
3.403909 0.613962 0.391690
3.404925 0.602964 0.389784
3.406438 0.597518 0.404255
3.405292 0.609516 0.405758
3.497117 0.623628 0.385584
3.498132 0.612630 0.383678
3.499645 0.607184 0.398149
3.498499 0.619182 0.399653
3.402959 0.613770 0.376880
3.404198 0.600029 0.374037
3.404924 0.602965 0.389769
3.403908 0.613964 0.391675
3.496166 0.623437 0.370775
3.497405 0.609696 0.367932
3.498131 0.612632 0.383664
3.497115 0.623630 0.385570
3.402543 0.608896 0.362823
3.403843 0.597259 0.364233
3.404197 0.600026 0.374024
3.402958 0.613767 0.376868
3.495751 0.618563 0.356716
3.497050 0.606927 0.358126
3.497405 0.609694 0.367917
3.496166 0.623435 0.370761
3.402712 0.599818 0.351014
3.403610 0.594456 0.356243
3.403842 0.597254 0.364221
3.402543 0.608891 0.362810
3.495919 0.609486 0.344910
3.496818 0.604124 0.350139
3.497050 0.606922 0.358117
3.495751 0.618558 0.356706
3.403445 0.587492 0.342692
3.404467 0.583858 0.352550
3.403611 0.594449 0.356236
3.402712 0.599810 0.351007
3.496652 0.597158 0.336586
3.497675 0.593524 0.346443
3.496818 0.604114 0.350130
3.495919 0.609476 0.344901
3.404662 0.573227 0.338683
3.405491 0.571920 0.349266
3.404468 0.583844 0.352544
3.403446 0.587478 0.342686
3.497869 0.582895 0.332578
3.498698 0.581588 0.343161
3.497676 0.593513 0.346439
3.496653 0.597147 0.336581
3.406219 0.558608 0.339309
3.407265 0.556887 0.352546
3.405492 0.571907 0.349265
3.404663 0.573214 0.338683
3.499426 0.568275 0.333204
3.500472 0.566554 0.346441
3.498699 0.581574 0.343160
3.497871 0.582881 0.332577
3.407976 0.544899 0.344424
3.408661 0.546140 0.356840
3.407266 0.556872 0.352549
3.406221 0.558594 0.339312
3.501183 0.554568 0.338320
3.501868 0.555809 0.350736
3.500473 0.566542 0.346445
3.499428 0.568263 0.333208
3.409760 0.533449 0.353523
3.409635 0.538174 0.359103
3.408662 0.546130 0.356845
3.407978 0.544889 0.344429
3.502967 0.543116 0.347419
3.502842 0.547841 0.352998
3.501869 0.555796 0.350741
3.501185 0.554556 0.338325
3.411395 0.525380 0.365713
3.410584 0.535389 0.369172
3.409636 0.538166 0.359112
3.409761 0.533441 0.353533
3.504602 0.535047 0.359606
3.503791 0.545057 0.363066
3.502844 0.547834 0.353005
3.502968 0.543109 0.347426
3.412534 0.523001 0.379421
3.411668 0.532359 0.380937
3.410583 0.535400 0.369177
3.411394 0.525391 0.365718
3.505746 0.532638 0.373329
3.504880 0.541997 0.374845
3.503794 0.545037 0.363085
3.504606 0.535028 0.359626
3.413988 0.519136 0.395260
3.412276 0.535848 0.395727
3.411674 0.532334 0.380981
3.412540 0.522975 0.379465
3.507190 0.528822 0.389107
3.505478 0.545533 0.389574
3.504876 0.542019 0.374828
3.505742 0.532661 0.373312
3.413482 0.530497 0.407216
3.412169 0.545059 0.408670
3.412237 0.536017 0.395389
3.413950 0.519305 0.394921
3.506762 0.539854 0.401768
3.505449 0.554416 0.403222
3.505517 0.545374 0.389940
3.507229 0.528663 0.389473
3.406244 0.570840 0.359049
3.405493 0.571906 0.349276
3.407265 0.556886 0.352558
3.407741 0.557616 0.360971
3.499451 0.580507 0.352943
3.498700 0.581573 0.343170
3.500473 0.566553 0.346451
3.500948 0.567283 0.354864
3.405263 0.583447 0.364039
3.404469 0.583843 0.352555
3.405491 0.571919 0.349277
3.406242 0.570852 0.359050
3.498470 0.593115 0.357933
3.497676 0.593511 0.346449
3.498699 0.581587 0.343171
3.499449 0.580521 0.352944
3.403611 0.594446 0.356245
3.404468 0.583856 0.352558
3.405262 0.583460 0.364042
3.403844 0.597244 0.364222
3.496819 0.604113 0.350139
3.497676 0.593523 0.346453
3.498469 0.593127 0.357937
3.497051 0.606911 0.358117
3.405090 0.591846 0.374701
3.404199 0.600014 0.374024
3.403844 0.597248 0.364232
3.405262 0.583463 0.364052
3.498297 0.601513 0.368595
3.497406 0.609681 0.367918
3.497051 0.606915 0.358126
3.498469 0.593130 0.357946
3.405770 0.593737 0.388076
3.404925 0.602955 0.389767
3.404199 0.600019 0.374036
3.405090 0.591850 0.374713
3.498977 0.603404 0.381971
3.498132 0.612621 0.383662
3.497406 0.609685 0.367931
3.498298 0.601517 0.368608
3.407108 0.588714 0.400545
3.406439 0.597507 0.404253
3.404926 0.602953 0.389782
3.405771 0.593735 0.388091
3.500315 0.598382 0.394439
3.499646 0.607175 0.398147
3.498133 0.612620 0.383676
3.498978 0.603403 0.381985
3.408753 0.578114 0.408880
3.408625 0.584421 0.416913
3.406440 0.597499 0.404264
3.407109 0.588706 0.400556
3.501961 0.587782 0.402774
3.501832 0.594089 0.410807
3.499648 0.607166 0.398159
3.500317 0.598373 0.394451
3.410264 0.564780 0.410831
3.410448 0.575061 0.429922
3.408627 0.584409 0.416922
3.408755 0.578102 0.408889
3.503471 0.574449 0.404724
3.503656 0.584729 0.423816
3.501834 0.594078 0.410816
3.501962 0.587770 0.402783
3.410450 0.575047 0.429928
3.410266 0.564767 0.410836
3.412255 0.550537 0.418671
3.412705 0.554520 0.431848
3.503658 0.584714 0.423822
3.503473 0.574433 0.404731
3.505462 0.560203 0.412565
3.505912 0.564186 0.425743
3.411241 0.552210 0.405845
3.412204 0.544925 0.409008
3.412255 0.550528 0.418659
3.410266 0.564759 0.410825
3.504448 0.561877 0.399739
3.505411 0.554591 0.402902
3.505462 0.560195 0.412553
3.503473 0.574425 0.404719
3.411413 0.543809 0.395177
3.412273 0.535872 0.395717
3.412204 0.544914 0.408999
3.411242 0.552200 0.405835
3.504620 0.553479 0.389070
3.505480 0.545542 0.389611
3.505411 0.554584 0.402892
3.504449 0.561869 0.399729
3.410730 0.541925 0.381758
3.411671 0.532353 0.380958
3.412272 0.535866 0.395704
3.411413 0.543803 0.395164
3.503937 0.551595 0.375652
3.504878 0.542022 0.374852
3.505479 0.545536 0.389598
3.504620 0.553473 0.389057
3.409389 0.546977 0.369291
3.410584 0.535395 0.369185
3.411669 0.532354 0.380945
3.410729 0.541926 0.381745
3.502597 0.556645 0.363186
3.503791 0.545063 0.363080
3.504877 0.542022 0.374840
3.503936 0.551594 0.375640
3.408661 0.546141 0.356853
3.409387 0.546990 0.369276
3.407743 0.557604 0.360975
3.407267 0.556874 0.352562
3.501869 0.555808 0.350747
3.502594 0.556657 0.363170
3.500950 0.567271 0.354869
3.500474 0.566541 0.346455
3.408663 0.546131 0.356857
3.409636 0.538175 0.359114
3.410583 0.535398 0.369174
3.409388 0.546979 0.369280
3.501870 0.555798 0.350750
3.502843 0.547842 0.353007
3.503790 0.545065 0.363068
3.502596 0.556647 0.363174
3.428548 0.561650 0.377387
3.436146 0.574072 0.379028
3.437408 0.553907 0.367923
3.473970 0.524202 0.450550
3.481568 0.536624 0.452191
3.482830 0.516459 0.441086
3.412158 0.545257 0.408809
3.413471 0.530695 0.407356
3.412209 0.550860 0.418461
3.505459 0.554237 0.403102
3.506772 0.539675 0.401648
3.505510 0.559841 0.412753
