-0.256353 0.401614 0.563698
-0.268267 0.405283 0.562970
-0.267337 0.404946 0.546017
-0.255419 0.401290 0.546742
-0.215239 0.535293 0.563354
-0.227152 0.538963 0.562626
-0.226223 0.538626 0.545672
-0.214305 0.534970 0.546398
-0.268255 0.405280 0.563009
-0.280173 0.408941 0.562281
-0.279244 0.408599 0.545329
-0.267326 0.404943 0.546055
-0.227187 0.538973 0.562586
-0.239105 0.542634 0.561859
-0.238176 0.542293 0.544906
-0.226258 0.538637 0.545632
-0.257329 0.401958 0.580674
-0.269242 0.405628 0.579944
-0.268307 0.405295 0.562990
-0.256393 0.401626 0.563718
-0.216136 0.535614 0.580325
-0.228050 0.539284 0.579595
-0.227114 0.538951 0.562641
-0.215200 0.535282 0.563369
-0.269228 0.405624 0.579965
-0.281142 0.409294 0.579237
-0.280210 0.408952 0.562284
-0.268293 0.405291 0.563011
-0.228087 0.539296 0.579571
-0.240001 0.542965 0.578843
-0.239069 0.542624 0.561890
-0.227152 0.538963 0.562617
-0.258257 0.402297 0.597671
-0.270171 0.405963 0.596942
-0.269237 0.405627 0.579986
-0.257323 0.401956 0.580716
-0.217077 0.535957 0.597271
-0.228992 0.539623 0.596543
-0.228057 0.539287 0.579586
-0.216144 0.535616 0.580317
-0.270196 0.405971 0.596938
-0.282109 0.409643 0.596207
-0.281175 0.409304 0.579254
-0.269261 0.405634 0.579982
-0.228991 0.539623 0.596545
-0.240903 0.543295 0.595814
-0.239970 0.542956 0.578861
-0.228056 0.539286 0.579589
-0.259166 0.402634 0.614657
-0.271082 0.406295 0.613927
-0.270148 0.405956 0.596973
-0.258234 0.402290 0.597701
-0.218034 0.536308 0.614230
-0.229950 0.539970 0.613500
-0.229016 0.539631 0.596546
-0.217102 0.535964 0.597274
-0.271115 0.406305 0.613896
-0.283031 0.409969 0.613165
-0.282093 0.409638 0.596212
-0.270180 0.405966 0.596943
-0.229942 0.539967 0.613529
-0.241858 0.543631 0.612798
-0.240921 0.543300 0.595844
-0.229008 0.539628 0.596575
-0.260060 0.402959 0.631595
-0.271979 0.406610 0.630862
-0.271040 0.406282 0.613909
-0.259124 0.402620 0.614639
-0.219016 0.536660 0.631237
-0.230935 0.540312 0.630505
-0.229995 0.539983 0.613552
-0.218079 0.536322 0.614282
-0.271996 0.406616 0.630815
-0.283916 0.410268 0.630083
-0.282972 0.409951 0.613130
-0.271057 0.406287 0.613861
-0.230942 0.540314 0.630552
-0.242861 0.543966 0.629820
-0.241918 0.543650 0.612867
-0.230002 0.539986 0.613598
-0.240015 0.482281 0.701215
-0.251934 0.485932 0.700479
-0.255349 0.474789 0.700501
-0.243430 0.471137 0.701233
-0.232229 0.479638 0.561596
-0.244148 0.483288 0.560861
-0.247563 0.472145 0.560883
-0.235644 0.468493 0.561615
-0.251939 0.485959 0.700478
-0.263859 0.489610 0.699742
-0.267273 0.478467 0.699769
-0.255354 0.474815 0.700500
-0.244166 0.483269 0.560860
-0.256086 0.486920 0.560124
-0.259501 0.475778 0.560151
-0.247581 0.472126 0.560883
-0.233270 0.504544 0.701191
-0.245188 0.508194 0.700441
-0.248601 0.497050 0.700453
-0.236683 0.493400 0.701196
-0.225307 0.501998 0.561581
-0.237226 0.505648 0.560832
-0.240639 0.494503 0.560843
-0.228720 0.490854 0.561586
-0.236632 0.493430 0.701199
-0.248550 0.497080 0.700456
-0.251964 0.485936 0.700477
-0.240045 0.482285 0.701213
-0.228778 0.490801 0.561584
-0.240697 0.494451 0.560841
-0.244111 0.483307 0.560863
-0.232192 0.479656 0.561598
-0.245194 0.508240 0.700440
-0.257113 0.511888 0.699689
-0.260526 0.500745 0.699708
-0.248607 0.497095 0.700452
-0.237244 0.505609 0.560831
-0.249164 0.509257 0.560080
-0.252576 0.498115 0.560099
-0.240657 0.494465 0.560843
-0.248553 0.497128 0.700455
-0.260472 0.500778 0.699711
-0.263886 0.489635 0.699740
-0.251967 0.485984 0.700476
-0.240718 0.494410 0.560841
-0.252637 0.498060 0.560097
-0.256051 0.486917 0.560126
-0.244132 0.483266 0.560862
-0.224247 0.489094 0.476678
-0.236166 0.492749 0.475960
-0.232748 0.503891 0.475933
-0.220828 0.500238 0.476643
-0.231781 0.491791 0.616309
-0.243700 0.495446 0.615591
-0.240282 0.506588 0.615564
-0.228362 0.502935 0.616274
-0.236156 0.492799 0.475959
-0.248075 0.496454 0.475240
-0.244658 0.507595 0.475222
-0.232738 0.503941 0.475933
-0.243733 0.495404 0.615590
-0.255653 0.499059 0.614870
-0.252235 0.510200 0.614852
-0.240315 0.506546 0.615563
-0.231034 0.466763 0.476750
-0.242952 0.470420 0.476024
-0.239532 0.481561 0.475993
-0.227614 0.477906 0.476718
-0.238686 0.469507 0.616373
-0.250604 0.473164 0.615648
-0.247184 0.484305 0.615617
-0.235266 0.480650 0.616341
-0.227634 0.477916 0.476716
-0.239552 0.481571 0.475992
-0.236134 0.492713 0.475962
-0.224215 0.489059 0.476680
-0.235239 0.480662 0.616342
-0.247157 0.484318 0.615618
-0.243739 0.495460 0.615588
-0.231820 0.491805 0.616306
-0.242962 0.470435 0.476023
-0.254880 0.474092 0.475297
-0.251461 0.485233 0.475269
-0.239542 0.481577 0.475992
-0.250618 0.473155 0.615647
-0.262536 0.476812 0.614921
-0.259117 0.487953 0.614893
-0.247198 0.484297 0.615616
-0.239554 0.481605 0.475991
-0.251472 0.485261 0.475268
-0.248054 0.496402 0.475242
-0.236135 0.492747 0.475962
-0.247180 0.484291 0.615617
-0.259099 0.487947 0.614894
-0.255681 0.499088 0.614868
-0.243761 0.495433 0.615588
-0.204132 0.568462 0.546376
-0.216052 0.572115 0.545666
-0.216654 0.572311 0.559883
-0.204730 0.568671 0.560593
-0.245055 0.434722 0.546555
-0.256974 0.438376 0.545845
-0.257576 0.438572 0.560062
-0.245652 0.434931 0.560772
-0.204797 0.568691 0.560658
-0.216721 0.572332 0.559948
-0.217325 0.572519 0.574166
-0.205398 0.568888 0.574875
-0.245585 0.434911 0.560735
-0.257510 0.438552 0.560026
-0.258113 0.438738 0.574243
-0.246187 0.435108 0.574952
-0.216058 0.572117 0.545728
-0.227977 0.575771 0.545018
-0.228582 0.575956 0.559236
-0.216659 0.572313 0.559945
-0.256993 0.438381 0.545782
-0.268912 0.442036 0.545071
-0.269518 0.442221 0.559289
-0.257594 0.438577 0.559999
-0.216717 0.572330 0.559996
-0.228640 0.575974 0.559286
-0.229247 0.576152 0.573504
-0.217321 0.572517 0.574213
-0.257538 0.438560 0.559977
-0.269461 0.442203 0.559268
-0.270067 0.442382 0.573485
-0.258142 0.438747 0.574195
-0.232699 0.577455 0.629975
-0.220780 0.573807 0.630726
-0.220123 0.573631 0.616510
-0.232044 0.577271 0.615759
-0.273574 0.443701 0.629780
-0.261654 0.440053 0.630531
-0.260997 0.439878 0.616315
-0.272919 0.443518 0.615564
-0.232071 0.577279 0.615873
-0.220150 0.573640 0.616624
-0.219486 0.573485 0.602409
-0.231407 0.577125 0.601658
-0.272890 0.443509 0.615421
-0.260969 0.439869 0.616172
-0.260305 0.439714 0.601957
-0.272226 0.443355 0.601206
-0.220741 0.573795 0.630755
-0.208823 0.570145 0.631505
-0.208165 0.569972 0.617290
-0.220084 0.573620 0.616539
-0.261669 0.440058 0.630503
-0.249750 0.436408 0.631253
-0.249093 0.436235 0.617038
-0.261012 0.439882 0.616287
-0.220114 0.573629 0.616640
-0.208195 0.569981 0.617391
-0.207530 0.569832 0.603176
-0.219451 0.573474 0.602425
-0.260980 0.439873 0.616158
-0.249061 0.436225 0.616909
-0.248395 0.436077 0.602694
-0.260316 0.439718 0.601942
0.769094 0.302626 0.614305
0.769497 0.302621 0.597326
0.781971 0.303128 0.597623
0.781568 0.303119 0.614601
0.763494 0.442374 0.614185
0.763898 0.442368 0.597206
0.776371 0.442876 0.597502
0.775968 0.442867 0.614480
0.781592 0.303120 0.614544
0.781994 0.303129 0.597566
0.794468 0.303637 0.597863
0.794066 0.303615 0.614840
0.775970 0.442867 0.614538
0.776373 0.442876 0.597560
0.788846 0.443384 0.597857
0.788444 0.443362 0.614834
0.768645 0.302608 0.631230
0.769045 0.302624 0.614251
0.781520 0.303117 0.614547
0.781119 0.303097 0.631525
0.763141 0.442359 0.631252
0.763541 0.442376 0.614273
0.776016 0.442869 0.614568
0.775615 0.442849 0.631546
0.781142 0.303098 0.631511
0.781543 0.303118 0.614532
0.794017 0.303613 0.614828
0.793617 0.303589 0.631805
0.775617 0.442849 0.631561
0.776018 0.442869 0.614583
0.788492 0.443364 0.614879
0.788091 0.443340 0.631855
0.768249 0.302587 0.648225
0.768648 0.302608 0.631246
0.781122 0.303097 0.631541
0.780724 0.303081 0.648519
0.762738 0.442338 0.648248
0.763136 0.442359 0.631270
0.775611 0.442849 0.631564
0.775212 0.442833 0.648542
0.780748 0.303082 0.648542
0.781147 0.303098 0.631564
0.793622 0.303589 0.631858
0.793222 0.303579 0.648836
0.775212 0.442833 0.648520
0.775611 0.442849 0.631542
0.788086 0.443340 0.631836
0.787686 0.443330 0.648814
0.767866 0.302565 0.665207
0.768266 0.302587 0.648229
0.780740 0.303082 0.648523
0.780340 0.303061 0.665501
0.762320 0.442315 0.665255
0.762720 0.442337 0.648278
0.775194 0.442832 0.648572
0.774794 0.442811 0.665550
0.780364 0.303062 0.665503
0.780764 0.303083 0.648525
0.793238 0.303580 0.648820
0.792838 0.303558 0.665797
0.774795 0.442811 0.665548
0.775195 0.442832 0.648570
0.787670 0.443329 0.648864
0.787270 0.443307 0.665842
0.767476 0.302529 0.682145
0.767873 0.302565 0.665166
0.780347 0.303061 0.665461
0.779951 0.303026 0.682438
0.761914 0.442278 0.682309
0.762311 0.442315 0.665330
0.774785 0.442810 0.665624
0.774388 0.442775 0.682602
0.779967 0.303027 0.682441
0.780364 0.303062 0.665464
0.792839 0.303558 0.665757
0.792441 0.303523 0.682736
0.774397 0.442775 0.682599
0.774793 0.442811 0.665622
0.787268 0.443307 0.665915
0.786870 0.443272 0.682894
0.762576 0.383927 0.752153
0.763040 0.372282 0.752146
0.775514 0.372779 0.752439
0.775050 0.384425 0.752452
0.765885 0.384182 0.612332
0.766349 0.372537 0.612325
0.778824 0.373034 0.612618
0.778359 0.384679 0.612631
0.775053 0.384387 0.752452
0.775518 0.372741 0.752439
0.787991 0.373238 0.752733
0.787527 0.384883 0.752753
0.778381 0.384718 0.612632
0.778845 0.373073 0.612619
0.791319 0.373570 0.612913
0.790855 0.385215 0.612933
0.761589 0.407202 0.752173
0.762053 0.395557 0.752158
0.774527 0.396054 0.752464
0.774062 0.407700 0.752481
0.765013 0.407534 0.612355
0.765478 0.395889 0.612340
0.777952 0.396387 0.612646
0.777487 0.408032 0.612663
0.762075 0.395585 0.752158
0.762539 0.383940 0.752152
0.775013 0.384437 0.752451
0.774549 0.396082 0.752464
0.765457 0.395838 0.612339
0.765921 0.384193 0.612333
0.778395 0.384690 0.612632
0.777931 0.396335 0.612645
0.774080 0.407690 0.752481
0.774545 0.396045 0.752464
0.787019 0.396542 0.752769
0.786554 0.408188 0.752788
0.777494 0.408042 0.612663
0.777958 0.396397 0.612646
0.790433 0.396894 0.612951
0.789968 0.408540 0.612970
0.774560 0.396052 0.752464
0.775024 0.384407 0.752451
0.787498 0.384904 0.752753
0.787034 0.396549 0.752769
0.777945 0.396366 0.612646
0.778409 0.384721 0.612633
0.790883 0.385218 0.612934
0.790419 0.396864 0.612951
0.767371 0.395582 0.527284
0.766899 0.407228 0.527239
0.779373 0.407736 0.527522
0.779845 0.396090 0.527576
0.764127 0.396048 0.667106
0.763655 0.407694 0.667061
0.776129 0.408202 0.667344
0.776601 0.396556 0.667398
0.779864 0.396035 0.527577
0.779392 0.407681 0.527523
0.791866 0.408188 0.527806
0.792338 0.396543 0.527870
0.776607 0.396612 0.667398
0.776135 0.408257 0.667344
0.788609 0.408764 0.667627
0.789081 0.397119 0.667691
0.768362 0.372415 0.527347
0.767889 0.384061 0.527322
0.780362 0.384568 0.527618
0.780836 0.372922 0.527644
0.765033 0.372586 0.667167
0.764560 0.384231 0.667142
0.777033 0.384739 0.667438
0.777507 0.373093 0.667464
0.767879 0.383991 0.527322
0.767405 0.395637 0.527285
0.779879 0.396145 0.527577
0.780352 0.384499 0.527618
0.764568 0.384324 0.667142
0.764095 0.395970 0.667105
0.776568 0.396478 0.667397
0.777042 0.384832 0.667438
0.780858 0.372930 0.527644
0.780384 0.384576 0.527619
0.792858 0.385084 0.527918
0.793332 0.373439 0.527941
0.777509 0.373086 0.667464
0.777035 0.384732 0.667438
0.789509 0.385240 0.667738
0.789983 0.373595 0.667761
0.780378 0.384469 0.527619
0.779905 0.396115 0.527578
0.792379 0.396622 0.527871
0.792852 0.384977 0.527918
0.777040 0.384863 0.667438
0.776567 0.396509 0.667397
0.789041 0.397016 0.667691
0.789514 0.385371 0.667738
0.762422 0.477338 0.596841
0.762167 0.477388 0.611075
0.774640 0.477903 0.611357
0.774896 0.477846 0.597125
0.768132 0.337596 0.597472
0.767876 0.337646 0.611706
0.780350 0.338161 0.611988
0.780605 0.338104 0.597756
0.762132 0.477387 0.611102
0.761877 0.477435 0.625335
0.774350 0.477955 0.625617
0.774605 0.477901 0.611385
0.767910 0.337648 0.611707
0.767656 0.337696 0.625940
0.780129 0.338216 0.626222
0.780384 0.338162 0.611990
0.774917 0.477846 0.597097
0.774661 0.477903 0.611329
0.787135 0.478415 0.611612
0.787391 0.478353 0.597380
0.780609 0.338104 0.597784
0.780354 0.338161 0.612017
0.792827 0.338673 0.612299
0.793083 0.338611 0.598068
0.774634 0.477903 0.611361
0.774379 0.477956 0.625593
0.786853 0.478473 0.625876
0.787108 0.478414 0.611643
0.780380 0.338162 0.612014
0.780125 0.338216 0.626247
0.792598 0.338732 0.626529
0.792854 0.338674 0.612297
0.785457 0.478243 0.683063
0.785736 0.478296 0.668831
0.773262 0.477793 0.668524
0.772983 0.477746 0.682756
0.791065 0.338496 0.682680
0.791344 0.338549 0.668448
0.778871 0.338046 0.668141
0.778591 0.337999 0.682374
0.785715 0.478295 0.668854
0.785994 0.478354 0.654622
0.773520 0.477849 0.654315
0.773241 0.477793 0.668547
0.791366 0.338550 0.668397
0.791645 0.338609 0.654165
0.779171 0.338104 0.653858
0.778892 0.338047 0.668090
0.772974 0.477745 0.682736
0.773253 0.477793 0.668504
0.760780 0.477292 0.668197
0.760500 0.477248 0.682429
0.778575 0.337998 0.682394
0.778855 0.338046 0.668161
0.766381 0.337545 0.667854
0.766102 0.337500 0.682086
0.773225 0.477792 0.668524
0.773504 0.477848 0.654292
0.761031 0.477341 0.653985
0.760751 0.477291 0.668217
0.778884 0.338047 0.668112
0.779163 0.338104 0.653880
0.766690 0.337596 0.653573
0.766410 0.337546 0.667805
-0.213431 0.546110 -0.572272
-0.225217 0.550166 -0.571533
-0.224330 0.549669 -0.554581
-0.212541 0.545617 -0.555318
-0.259000 0.413890 -0.573742
-0.270787 0.417946 -0.573003
-0.269899 0.417449 -0.556051
-0.258110 0.413397 -0.556788
-0.225230 0.550170 -0.571512
-0.237018 0.554227 -0.570774
-0.236131 0.553725 -0.553822
-0.224342 0.549673 -0.554560
-0.270798 0.417950 -0.573023
-0.282586 0.422007 -0.572285
-0.281699 0.421505 -0.555333
-0.269910 0.417453 -0.556071
-0.214305 0.546603 -0.589225
-0.226091 0.550662 -0.588484
-0.225200 0.550160 -0.571532
-0.213413 0.546103 -0.572271
-0.259912 0.414397 -0.590732
-0.271698 0.418455 -0.589991
-0.270806 0.417953 -0.573039
-0.259020 0.413897 -0.573777
-0.226113 0.550669 -0.588482
-0.237900 0.554724 -0.587744
-0.237009 0.554224 -0.570792
-0.225221 0.550168 -0.571530
-0.271700 0.418456 -0.589991
-0.283487 0.422511 -0.589253
-0.282596 0.422011 -0.572301
-0.270808 0.417954 -0.573039
-0.215197 0.547110 -0.606178
-0.226984 0.551166 -0.605439
-0.226093 0.550662 -0.588484
-0.214307 0.546604 -0.589225
-0.260802 0.414903 -0.607718
-0.272589 0.418959 -0.606980
-0.271698 0.418456 -0.590025
-0.259912 0.414397 -0.590766
-0.227002 0.551172 -0.605439
-0.238788 0.555229 -0.604697
-0.237898 0.554723 -0.587745
-0.226111 0.550668 -0.588483
-0.272594 0.418961 -0.606980
-0.284381 0.423018 -0.606238
-0.283490 0.422512 -0.589286
-0.271703 0.418457 -0.590024
-0.216092 0.547621 -0.623131
-0.227879 0.551677 -0.622391
-0.226990 0.551168 -0.605439
-0.215203 0.547112 -0.606177
-0.261686 0.415411 -0.624706
-0.273474 0.419467 -0.623967
-0.272584 0.418958 -0.607015
-0.260798 0.414902 -0.607753
-0.227875 0.551675 -0.622384
-0.239660 0.555736 -0.621645
-0.238772 0.555224 -0.604690
-0.226986 0.551167 -0.605432
-0.273502 0.419476 -0.623973
-0.285287 0.423537 -0.623234
-0.284399 0.423025 -0.606279
-0.272612 0.418968 -0.607021
-0.216980 0.548116 -0.640147
-0.228766 0.552175 -0.639410
-0.227876 0.551676 -0.622457
-0.216088 0.547620 -0.623196
-0.262584 0.415908 -0.641626
-0.274370 0.419967 -0.640889
-0.273479 0.419468 -0.623935
-0.261692 0.415412 -0.624675
-0.228762 0.552173 -0.639407
-0.240548 0.556233 -0.638668
-0.239656 0.555735 -0.621714
-0.227871 0.551675 -0.622453
-0.274398 0.419976 -0.640891
-0.286184 0.424036 -0.640152
-0.285292 0.423539 -0.623198
-0.273507 0.419478 -0.623937
-0.232312 0.491071 -0.570975
-0.244099 0.495131 -0.570246
-0.247900 0.484114 -0.570352
-0.236114 0.480055 -0.571089
-0.239646 0.494997 -0.710587
-0.251432 0.499057 -0.709858
-0.255234 0.488039 -0.709964
-0.243447 0.483980 -0.710701
-0.244090 0.495181 -0.570245
-0.255877 0.499241 -0.569515
-0.259678 0.488223 -0.569612
-0.247892 0.484164 -0.570351
-0.251464 0.499015 -0.709857
-0.263250 0.503075 -0.709128
-0.267051 0.492057 -0.709225
-0.255265 0.487997 -0.709964
-0.224807 0.513128 -0.570736
-0.236594 0.517189 -0.570026
-0.240396 0.506172 -0.570137
-0.228609 0.502112 -0.570857
-0.231927 0.517050 -0.710360
-0.243714 0.521111 -0.709650
-0.247516 0.510095 -0.709761
-0.235729 0.506034 -0.710481
-0.228547 0.502129 -0.570860
-0.240334 0.506190 -0.570140
-0.244135 0.495173 -0.570242
-0.232349 0.491113 -0.570972
-0.235799 0.505994 -0.710478
-0.247586 0.510055 -0.709758
-0.251388 0.499038 -0.709861
-0.239601 0.494978 -0.710590
-0.236594 0.517249 -0.570025
-0.248381 0.521310 -0.569315
-0.252183 0.510293 -0.569417
-0.240396 0.506232 -0.570135
-0.243738 0.521059 -0.709650
-0.255525 0.525121 -0.708941
-0.259327 0.514103 -0.709042
-0.247540 0.510043 -0.709761
-0.240329 0.506254 -0.570138
-0.252116 0.510314 -0.569420
-0.255917 0.499296 -0.569511
-0.244130 0.495236 -0.570241
-0.247615 0.510000 -0.709758
-0.259402 0.514060 -0.709040
-0.263203 0.503042 -0.709131
-0.251416 0.498982 -0.709861
-0.231562 0.503507 -0.625626
-0.243350 0.507559 -0.624871
-0.239556 0.518578 -0.624769
-0.227769 0.514527 -0.625534
-0.223893 0.499639 -0.486030
-0.235681 0.503691 -0.485275
-0.231887 0.514710 -0.485173
-0.220100 0.510659 -0.485938
-0.243358 0.507620 -0.624869
-0.255145 0.511672 -0.624110
-0.251350 0.522691 -0.624000
-0.239564 0.518639 -0.624767
-0.235697 0.503638 -0.485276
-0.247484 0.507689 -0.484517
-0.243689 0.518709 -0.484407
-0.231903 0.514657 -0.485174
-0.239019 0.481524 -0.625848
-0.250807 0.485576 -0.625111
-0.247013 0.496595 -0.624991
-0.235224 0.492543 -0.625735
-0.231628 0.477501 -0.486241
-0.243416 0.481553 -0.485504
-0.239622 0.492572 -0.485384
-0.227833 0.488520 -0.486129
-0.235282 0.492526 -0.625733
-0.247071 0.496577 -0.624988
-0.243276 0.507596 -0.624874
-0.231488 0.503545 -0.625629
-0.227768 0.488560 -0.486131
-0.239556 0.492612 -0.485386
-0.235762 0.503631 -0.485272
-0.223974 0.499579 -0.486027
-0.250811 0.485630 -0.625109
-0.262600 0.489682 -0.624371
-0.258805 0.500701 -0.624242
-0.247017 0.496650 -0.624989
-0.243436 0.481507 -0.485505
-0.255225 0.485558 -0.484767
-0.251430 0.496577 -0.484637
-0.239642 0.492526 -0.485384
-0.247078 0.496648 -0.624985
-0.258867 0.500700 -0.624238
-0.255072 0.511719 -0.624113
-0.243284 0.507667 -0.624872
-0.239572 0.492549 -0.485387
-0.251361 0.496601 -0.484640
-0.247566 0.507620 -0.484515
-0.235778 0.503568 -0.485273
-0.246693 0.446478 -0.556194
-0.258480 0.450529 -0.555429
-0.259109 0.450843 -0.569642
-0.247323 0.446790 -0.570409
-0.201172 0.578720 -0.555293
-0.212959 0.582771 -0.554528
-0.213589 0.583085 -0.568741
-0.201802 0.579032 -0.569508
-0.247321 0.446789 -0.570364
-0.259107 0.450842 -0.569598
-0.259742 0.451144 -0.583812
-0.247955 0.447093 -0.584579
-0.201805 0.579034 -0.569581
-0.213592 0.583087 -0.568814
-0.214226 0.583388 -0.583028
-0.202439 0.579337 -0.583796
-0.258506 0.450538 -0.555444
-0.270292 0.454590 -0.554678
-0.270920 0.454909 -0.568891
-0.259135 0.450852 -0.569658
-0.212957 0.582770 -0.554511
-0.224744 0.586822 -0.553744
-0.225372 0.587141 -0.567958
-0.213587 0.583084 -0.568724
-0.259144 0.450855 -0.569591
-0.270930 0.454912 -0.568825
-0.271564 0.455213 -0.583039
-0.259779 0.451157 -0.583806
-0.213579 0.583082 -0.568819
-0.225364 0.587139 -0.568052
-0.225999 0.587441 -0.582266
-0.214213 0.583384 -0.583033
-0.274786 0.457128 -0.639808
-0.262999 0.453066 -0.640518
-0.262448 0.452725 -0.626301
-0.274233 0.456792 -0.625592
-0.229116 0.589314 -0.638433
-0.217329 0.585252 -0.639143
-0.216778 0.584911 -0.624926
-0.228564 0.588979 -0.624217
-0.274254 0.456800 -0.625636
-0.262468 0.452732 -0.626345
-0.261921 0.452382 -0.612129
-0.273706 0.456450 -0.611420
-0.228542 0.588971 -0.624144
-0.216757 0.584903 -0.624853
-0.216210 0.584553 -0.610637
-0.227995 0.588621 -0.609928
-0.262982 0.453061 -0.640548
-0.251195 0.449000 -0.641259
-0.250646 0.448653 -0.627041
-0.262431 0.452719 -0.626332
-0.217322 0.585250 -0.639113
-0.205535 0.581189 -0.639824
-0.204986 0.580842 -0.625606
-0.216771 0.584908 -0.624897
-0.262459 0.452729 -0.626357
-0.250674 0.448663 -0.627066
-0.250128 0.448309 -0.612849
-0.261912 0.452379 -0.612141
-0.216742 0.584898 -0.624843
-0.204957 0.580831 -0.625552
-0.204411 0.580477 -0.611335
-0.216195 0.584548 -0.610626
0.762344 0.447124 -0.622155
0.762715 0.447028 -0.605178
0.775177 0.447790 -0.605445
0.774806 0.447884 -0.622425
0.770853 0.307526 -0.623118
0.771224 0.307431 -0.606141
0.783685 0.308193 -0.606408
0.783315 0.308287 -0.623388
0.774805 0.447884 -0.622424
0.775176 0.447790 -0.605444
0.787637 0.448553 -0.605713
0.787266 0.448649 -0.622693
0.783341 0.308288 -0.623389
0.783711 0.308194 -0.606409
0.796172 0.308957 -0.606678
0.795801 0.309053 -0.623658
0.761971 0.447204 -0.639209
0.762346 0.447124 -0.622231
0.774808 0.447885 -0.622501
0.774433 0.447965 -0.639480
0.770477 0.307605 -0.640054
0.770851 0.307526 -0.623076
0.783313 0.308286 -0.623346
0.782938 0.308366 -0.640325
0.774418 0.447964 -0.639474
0.774792 0.447884 -0.622495
0.787253 0.448648 -0.622764
0.786879 0.448731 -0.639746
0.782978 0.308369 -0.640331
0.783353 0.308289 -0.623352
0.795813 0.309053 -0.623621
0.795439 0.309136 -0.640603
0.761579 0.447279 -0.656207
0.761953 0.447203 -0.639229
0.774414 0.447964 -0.639500
0.774039 0.448046 -0.656480
0.770121 0.307683 -0.657045
0.770495 0.307607 -0.640068
0.782956 0.308368 -0.640339
0.782581 0.308450 -0.657318
0.774057 0.448047 -0.656484
0.774432 0.447965 -0.639504
0.786893 0.448732 -0.639775
0.786519 0.448806 -0.656755
0.782587 0.308450 -0.657315
0.782963 0.308368 -0.640335
0.795423 0.309135 -0.640607
0.795049 0.309209 -0.657587
0.761221 0.447375 -0.673160
0.761599 0.447280 -0.656184
0.774059 0.448047 -0.656457
0.773684 0.448129 -0.673436
0.769722 0.307777 -0.674078
0.770100 0.307682 -0.657102
0.782560 0.308449 -0.657375
0.782185 0.308531 -0.674354
0.773696 0.448130 -0.673457
0.774071 0.448048 -0.656479
0.786533 0.448807 -0.656751
0.786156 0.448892 -0.673733
0.782198 0.308532 -0.674333
0.782573 0.308449 -0.657354
0.795035 0.309209 -0.657626
0.794658 0.309294 -0.674608
0.760879 0.447488 -0.690064
0.761264 0.447377 -0.673088
0.773728 0.448131 -0.673364
0.773341 0.448240 -0.690343
0.769292 0.307886 -0.691160
0.769677 0.307775 -0.674184
0.782140 0.308529 -0.674460
0.781754 0.308638 -0.691438
0.773329 0.448240 -0.690366
0.773716 0.448131 -0.673387
0.786176 0.448893 -0.673663
0.785791 0.448993 -0.690643
0.781790 0.308640 -0.691416
0.782177 0.308531 -0.674437
0.794637 0.309293 -0.674712
0.794252 0.309393 -0.691693
0.765951 0.388903 -0.620627
0.766652 0.377268 -0.620709
0.779114 0.378020 -0.620988
0.778413 0.389655 -0.620898
0.762817 0.389752 -0.760449
0.763518 0.378118 -0.760532
0.775980 0.378870 -0.760810
0.775279 0.390504 -0.760720
0.778432 0.389622 -0.620898
0.779133 0.377988 -0.620988
0.791594 0.378740 -0.621266
0.790893 0.390374 -0.621172
0.775285 0.390538 -0.760720
0.775986 0.378904 -0.760810
0.788447 0.379657 -0.761088
0.787746 0.391290 -0.760993
0.764444 0.412240 -0.620478
0.765145 0.400608 -0.620552
0.777607 0.401360 -0.620812
0.776906 0.412994 -0.620731
0.761518 0.412994 -0.760306
0.762219 0.401361 -0.760379
0.774681 0.402114 -0.760640
0.773980 0.413747 -0.760559
0.765197 0.400599 -0.620553
0.765897 0.388965 -0.620625
0.778359 0.389718 -0.620896
0.777659 0.401352 -0.620814
0.762169 0.401346 -0.760378
0.762869 0.389712 -0.760450
0.775331 0.390465 -0.760722
0.774631 0.402099 -0.760639
0.776925 0.412950 -0.620732
0.777626 0.401316 -0.620813
0.790088 0.402069 -0.621074
0.789388 0.413703 -0.620986
0.773986 0.413793 -0.760559
0.774687 0.402159 -0.760640
0.787149 0.402911 -0.760901
0.786449 0.414546 -0.760812
0.777684 0.401284 -0.620814
0.778384 0.389650 -0.620897
0.790845 0.390402 -0.621171
0.790145 0.402036 -0.621076
0.774631 0.402168 -0.760638
0.775331 0.390534 -0.760721
0.787793 0.391286 -0.760995
0.787093 0.402920 -0.760900
0.764037 0.401070 -0.675364
0.763327 0.412702 -0.675260
0.775788 0.413466 -0.675522
0.776499 0.401833 -0.675630
0.767060 0.399978 -0.535541
0.766350 0.411610 -0.535437
0.778811 0.412374 -0.535699
0.779522 0.400741 -0.535806
0.776501 0.401860 -0.675629
0.775791 0.413493 -0.675522
0.788252 0.414258 -0.675784
0.788963 0.402623 -0.675897
0.779544 0.400715 -0.535807
0.778833 0.412348 -0.535699
0.791295 0.413112 -0.535961
0.792005 0.401478 -0.536075
0.765446 0.377714 -0.675563
0.764737 0.389347 -0.675468
0.777198 0.390110 -0.675734
0.777908 0.378477 -0.675830
0.768492 0.376756 -0.535739
0.767783 0.388389 -0.535645
0.780244 0.389152 -0.535910
0.780954 0.377518 -0.536006
0.764738 0.389410 -0.675468
0.764028 0.401043 -0.675364
0.776489 0.401806 -0.675630
0.777199 0.390173 -0.675733
0.767781 0.388349 -0.535645
0.767071 0.399982 -0.535542
0.779532 0.400745 -0.535807
0.780242 0.389112 -0.535911
0.777903 0.378478 -0.675830
0.777194 0.390112 -0.675734
0.789655 0.390874 -0.676003
0.790365 0.379241 -0.676099
0.780983 0.377518 -0.536007
0.780273 0.389151 -0.535911
0.792735 0.389914 -0.536180
0.793444 0.378281 -0.536276
0.777193 0.390179 -0.675733
0.776484 0.401812 -0.675629
0.788945 0.402575 -0.675897
0.789654 0.390941 -0.676003
0.780272 0.389108 -0.535911
0.779563 0.400741 -0.535807
0.792024 0.401504 -0.536075
0.792734 0.389870 -0.536181
0.769139 0.342367 -0.605928
0.768903 0.342463 -0.620161
0.781363 0.343239 -0.620422
0.781600 0.343131 -0.606189
0.760537 0.481957 -0.604783
0.760302 0.482053 -0.619016
0.772762 0.482829 -0.619278
0.772999 0.482721 -0.605045
0.768970 0.342467 -0.620163
0.768734 0.342561 -0.634396
0.781194 0.343348 -0.634658
0.781430 0.343243 -0.620425
0.760234 0.482049 -0.619042
0.759999 0.482143 -0.633275
0.772459 0.482931 -0.633536
0.772695 0.482825 -0.619303
0.781613 0.343132 -0.606250
0.781377 0.343240 -0.620482
0.793837 0.344016 -0.620744
0.794074 0.343896 -0.606512
0.773010 0.482721 -0.604985
0.772774 0.482830 -0.619218
0.785234 0.483606 -0.619480
0.785472 0.483486 -0.605247
0.781430 0.343243 -0.620470
0.781194 0.343349 -0.634703
0.793654 0.344132 -0.634965
0.793891 0.344020 -0.620732
0.772720 0.482827 -0.619258
0.772484 0.482932 -0.633491
0.784944 0.483715 -0.633753
0.785181 0.483603 -0.619520
0.792165 0.344331 -0.691281
0.792388 0.344271 -0.677047
0.779926 0.343505 -0.676795
0.779702 0.343577 -0.691028
0.783671 0.483930 -0.690502
0.783894 0.483871 -0.676267
0.771433 0.483105 -0.676015
0.771209 0.483177 -0.690248
0.792470 0.344276 -0.677008
0.792691 0.344224 -0.662774
0.780231 0.343441 -0.662522
0.780009 0.343510 -0.676756
0.783812 0.483866 -0.676278
0.784034 0.483813 -0.662044
0.771573 0.483031 -0.661793
0.771351 0.483100 -0.676026
0.779692 0.343577 -0.691091
0.779916 0.343505 -0.676858
0.767454 0.342738 -0.676606
0.767230 0.342824 -0.690838
0.771194 0.483176 -0.690185
0.771419 0.483104 -0.675952
0.758957 0.482337 -0.675700
0.758732 0.482422 -0.689932
0.779986 0.343509 -0.676825
0.780208 0.343440 -0.662592
0.767748 0.342662 -0.662340
0.767525 0.342742 -0.676573
0.771348 0.483099 -0.675956
0.771571 0.483031 -0.661723
0.759110 0.482252 -0.661472
0.758887 0.482333 -0.675704
