3.409600 0.590907 -0.367885
3.398837 0.590181 -0.369605
3.400423 0.567585 -0.368888
3.412880 0.570000 -0.369051
3.414917 0.592350 -0.450179
3.404154 0.591624 -0.451898
3.405740 0.569028 -0.451181
3.418197 0.571443 -0.451344
3.416590 0.569967 -0.368979
3.404133 0.567552 -0.368816
3.406988 0.545055 -0.369178
3.418891 0.549074 -0.369520
3.414492 0.571432 -0.451417
3.402034 0.569017 -0.451253
3.404889 0.546520 -0.451615
3.416792 0.550539 -0.451957
3.419269 0.551351 -0.369554
3.407366 0.547332 -0.369212
3.411006 0.522484 -0.368170
3.420624 0.533323 -0.369138
3.416419 0.548219 -0.451923
3.404516 0.544200 -0.451581
3.408156 0.519351 -0.450539
3.417774 0.530191 -0.451507
3.503480 0.620740 -0.320317
3.495380 0.619646 -0.314310
3.501936 0.597442 -0.307113
3.510177 0.596671 -0.316423
3.450890 0.592086 -0.377024
3.442790 0.590992 -0.371017
3.449346 0.568788 -0.363820
3.457586 0.568017 -0.373130
3.515867 0.584366 -0.318819
3.507626 0.585138 -0.309509
3.511102 0.560975 -0.311104
3.520779 0.560488 -0.323771
3.451907 0.580274 -0.370732
3.443667 0.581046 -0.361422
3.447142 0.556883 -0.363017
3.456820 0.556396 -0.375685
3.521882 0.548697 -0.327111
3.512204 0.549184 -0.314443
3.513255 0.526472 -0.324048
3.525869 0.529142 -0.343035
3.455724 0.568141 -0.372361
3.446047 0.568629 -0.359694
3.447097 0.545916 -0.369299
3.459712 0.548586 -0.388286
3.491187 0.604489 -0.376031
3.479304 0.602390 -0.375291
3.483902 0.582514 -0.376134
3.495405 0.582319 -0.376855
3.485873 0.606635 -0.458309
3.473989 0.604536 -0.457569
3.478588 0.584660 -0.458412
3.490091 0.584466 -0.459133
3.496473 0.582819 -0.376927
3.484969 0.583013 -0.376207
3.489394 0.563113 -0.376551
3.500817 0.560703 -0.377943
3.489033 0.583924 -0.459061
3.477529 0.584118 -0.458341
3.481953 0.564217 -0.458685
3.493377 0.561808 -0.460076
3.508165 0.563917 -0.379373
3.496741 0.566327 -0.377982
3.501885 0.547671 -0.376521
3.511877 0.541679 -0.380538
3.486039 0.558553 -0.458646
3.474615 0.560962 -0.457255
3.479759 0.542306 -0.455794
3.489751 0.536314 -0.459811
3.516684 0.613267 -0.417454
3.516957 0.614741 -0.383611
3.522587 0.592921 -0.382005
3.521282 0.593390 -0.418297
3.436598 0.593659 -0.415370
3.436871 0.595134 -0.381528
3.442501 0.573314 -0.379922
3.441196 0.573783 -0.416213
3.521500 0.592423 -0.418526
3.522805 0.591955 -0.382235
3.527507 0.570071 -0.384033
3.525925 0.572523 -0.418871
3.440988 0.574708 -0.415985
3.442293 0.574239 -0.379693
3.446995 0.552355 -0.381492
3.445412 0.554807 -0.416329
3.525602 0.573932 -0.418335
3.527184 0.571480 -0.383498
3.531814 0.551715 -0.391726
3.530746 0.555276 -0.416875
3.445745 0.553358 -0.416869
3.447328 0.550906 -0.382031
3.451957 0.531142 -0.390260
3.450889 0.534703 -0.415408
3.516760 0.615519 -0.383559
3.517034 0.616993 -0.349717
3.523730 0.592924 -0.345822
3.522390 0.593699 -0.381953
3.437070 0.594358 -0.381510
3.437343 0.595832 -0.347668
3.444040 0.571763 -0.343773
3.442700 0.572538 -0.379904
3.522853 0.591746 -0.382171
3.524193 0.590972 -0.346040
3.529105 0.567093 -0.350993
3.527555 0.569863 -0.383970
3.442249 0.574444 -0.379687
3.443589 0.573670 -0.343556
3.448501 0.549791 -0.348509
3.446951 0.552561 -0.381485
3.527420 0.570510 -0.383578
3.528971 0.567741 -0.350602
3.532959 0.548186 -0.366526
3.532050 0.550746 -0.391806
3.447094 0.551871 -0.381892
3.448645 0.549101 -0.348915
3.452633 0.529546 -0.364840
3.451724 0.532106 -0.390120
3.470588 0.617466 -0.303280
3.433024 0.610720 -0.299142
3.435083 0.586805 -0.292442
3.477144 0.595263 -0.296083
3.467535 0.593164 -0.382036
3.429971 0.586418 -0.377899
3.432030 0.562503 -0.371199
3.474090 0.570960 -0.374839
3.479249 0.579952 -0.294500
3.437188 0.571494 -0.290859
3.441105 0.546942 -0.293649
3.482724 0.555789 -0.296095
3.471993 0.586224 -0.376418
3.429933 0.577766 -0.372777
3.433850 0.553215 -0.375567
3.475469 0.562061 -0.378013
3.485184 0.544469 -0.298910
3.443565 0.535623 -0.296464
3.446252 0.511872 -0.305033
3.486235 0.521757 -0.308515
3.473015 0.573333 -0.375208
3.431396 0.564487 -0.372762
3.434083 0.540736 -0.381331
3.474066 0.550621 -0.384813
3.406207 0.604642 -0.306501
3.394912 0.604797 -0.314905
3.399597 0.581726 -0.307368
3.408266 0.580727 -0.299801
3.456738 0.592490 -0.370544
3.445443 0.592644 -0.378948
3.450128 0.569573 -0.371411
3.458797 0.568574 -0.363844
3.406069 0.566651 -0.302111
3.397400 0.567650 -0.309678
3.403483 0.544432 -0.310467
3.409986 0.542100 -0.304901
3.461002 0.582602 -0.361528
3.452334 0.583601 -0.369095
3.458416 0.560383 -0.369884
3.464920 0.558051 -0.364318
3.406805 0.536486 -0.310593
3.400301 0.538818 -0.316159
3.404661 0.515958 -0.324921
3.409492 0.512735 -0.319161
3.468109 0.563617 -0.358636
3.461606 0.565949 -0.364203
3.465966 0.543089 -0.372965
3.470797 0.539866 -0.367205
3.379820 0.592636 -0.340992
3.375870 0.589093 -0.372009
3.379434 0.567523 -0.369259
3.384505 0.569565 -0.333455
3.460521 0.604803 -0.352902
3.456571 0.601260 -0.383920
3.460135 0.579690 -0.381169
3.465206 0.581732 -0.345365
3.385297 0.566303 -0.332444
3.380227 0.564261 -0.368248
3.384752 0.541932 -0.368168
3.391380 0.543084 -0.333233
3.464423 0.584949 -0.346371
3.459352 0.582907 -0.382175
3.463878 0.560578 -0.382095
3.470506 0.561730 -0.347160
3.391734 0.543100 -0.331440
3.385107 0.541948 -0.366375
3.388438 0.519831 -0.370857
3.396094 0.520240 -0.340202
3.470161 0.561669 -0.348961
3.463533 0.560517 -0.383896
3.466864 0.538400 -0.388377
3.474520 0.538809 -0.357722
3.375851 0.588880 -0.372375
3.371900 0.585337 -0.403393
3.375180 0.564430 -0.404559
3.379415 0.567309 -0.369625
3.456582 0.601468 -0.383620
3.452632 0.597925 -0.414637
3.455912 0.577018 -0.415803
3.460146 0.579897 -0.380869
3.379569 0.567161 -0.368752
3.375335 0.564282 -0.403686
3.377635 0.543389 -0.404226
3.384095 0.544833 -0.368672
3.459999 0.580002 -0.381742
3.455764 0.577123 -0.416676
3.458065 0.556230 -0.417216
3.464525 0.557673 -0.381662
3.384425 0.545677 -0.366296
3.377965 0.544233 -0.401849
3.379320 0.526205 -0.401433
3.387756 0.523560 -0.370777
3.464201 0.556787 -0.384041
3.457741 0.555344 -0.419595
3.459096 0.537315 -0.419179
3.467532 0.534670 -0.388523
3.731237 0.651973 -0.387998
3.720474 0.651247 -0.389717
3.722060 0.628651 -0.389000
3.734517 0.631066 -0.389164
3.736555 0.653417 -0.470291
3.725792 0.652691 -0.472011
3.727377 0.630095 -0.471294
3.739834 0.632510 -0.471457
3.738228 0.631034 -0.389092
3.725770 0.628619 -0.388928
3.728625 0.606122 -0.389290
3.740528 0.610141 -0.389633
3.736129 0.632499 -0.471530
3.723672 0.630084 -0.471366
3.726526 0.607587 -0.471728
3.738429 0.611606 -0.472070
3.741276 0.612510 -0.389685
3.729373 0.608491 -0.389343
3.732447 0.586257 -0.388242
3.743411 0.591428 -0.389268
3.737686 0.609193 -0.472018
3.725783 0.605174 -0.471675
3.728857 0.582941 -0.470575
3.739821 0.588111 -0.471600
3.701457 0.653702 -0.361104
3.697507 0.650160 -0.392122
3.701072 0.628589 -0.389371
3.706142 0.630631 -0.353567
3.782158 0.665870 -0.373015
3.778208 0.662327 -0.404033
3.781772 0.640756 -0.401282
3.786843 0.642798 -0.365478
3.706934 0.627369 -0.352557
3.701864 0.625327 -0.388361
3.706390 0.602998 -0.388281
3.713017 0.604151 -0.353346
3.786060 0.646015 -0.366484
3.780990 0.643973 -0.402288
3.785516 0.621644 -0.402208
3.792143 0.622797 -0.367273
3.713372 0.604150 -0.351566
3.706745 0.602998 -0.386501
3.710025 0.581209 -0.390963
3.717732 0.581290 -0.360328
3.791797 0.622752 -0.369060
3.785170 0.621600 -0.403995
3.788450 0.599811 -0.408457
3.796157 0.599892 -0.377822
3.697488 0.649946 -0.392488
3.693538 0.646403 -0.423506
3.696818 0.625496 -0.424672
3.701052 0.628376 -0.389738
3.778219 0.662534 -0.403733
3.774270 0.658992 -0.434750
3.777549 0.638085 -0.435916
3.781784 0.640964 -0.400982
3.701206 0.628228 -0.388865
3.696972 0.625348 -0.423799
3.699273 0.604455 -0.424339
3.705732 0.605899 -0.388785
3.781636 0.641069 -0.401855
3.777402 0.638189 -0.436788
3.779702 0.617296 -0.437329
3.786162 0.618740 -0.401775
3.706059 0.606442 -0.386617
3.699600 0.604998 -0.422171
3.701735 0.583916 -0.421753
3.709340 0.584653 -0.391078
3.785841 0.618154 -0.403946
3.779381 0.616711 -0.439499
3.781516 0.595628 -0.439082
3.789121 0.596365 -0.408407
3.727844 0.665709 -0.326614
3.716550 0.665864 -0.335018
3.721234 0.642792 -0.327481
3.729903 0.641793 -0.319914
3.778375 0.653556 -0.390657
3.767080 0.653711 -0.399060
3.771765 0.630639 -0.391523
3.780434 0.629641 -0.383957
3.727706 0.627718 -0.322224
3.719037 0.628717 -0.329791
3.725120 0.605498 -0.330580
3.731623 0.603166 -0.325013
3.782639 0.643668 -0.381641
3.773971 0.644667 -0.389208
3.780053 0.621449 -0.389997
3.786557 0.619117 -0.384431
3.728442 0.597552 -0.330706
3.721938 0.599884 -0.336272
3.726298 0.577024 -0.345034
3.731129 0.573801 -0.339275
3.789747 0.624683 -0.378749
3.783243 0.627016 -0.384315
3.787603 0.604156 -0.393077
3.792434 0.600933 -0.387317
3.792225 0.678532 -0.323392
3.754661 0.671787 -0.319255
3.756720 0.647871 -0.312555
3.798781 0.656329 -0.316195
3.789172 0.654230 -0.402149
3.751608 0.647485 -0.398012
3.753667 0.623569 -0.391312
3.795727 0.632027 -0.394952
3.800886 0.641018 -0.314612
3.758825 0.632560 -0.310972
3.762743 0.608009 -0.313761
3.804361 0.616855 -0.316208
3.793630 0.647290 -0.396530
3.751570 0.638833 -0.392890
3.755487 0.614281 -0.395679
3.797106 0.623127 -0.398125
3.806821 0.605535 -0.319023
3.765202 0.596689 -0.316577
3.767889 0.572938 -0.325146
3.807872 0.582823 -0.328628
3.794652 0.634399 -0.395321
3.753033 0.625553 -0.392875
3.755720 0.601802 -0.401443
3.795703 0.611687 -0.404926
3.825117 0.681807 -0.340430
3.817017 0.680712 -0.334423
3.823573 0.658509 -0.327226
3.831814 0.657737 -0.336535
3.772527 0.653152 -0.397137
3.764428 0.652058 -0.391130
3.770983 0.629855 -0.383933
3.779224 0.629083 -0.393243
3.837504 0.645432 -0.338931
3.829263 0.646204 -0.329621
3.832739 0.622041 -0.331217
3.842416 0.621554 -0.343884
3.773545 0.641341 -0.390845
3.765304 0.642113 -0.381535
3.768780 0.617949 -0.383130
3.778457 0.617462 -0.395798
3.843674 0.609666 -0.347494
3.833996 0.610153 -0.334827
3.835047 0.587441 -0.344432
3.847524 0.590977 -0.363362
3.777206 0.629306 -0.392203
3.767529 0.629793 -0.379536
3.768579 0.607081 -0.389141
3.781056 0.610617 -0.408071
3.838321 0.674333 -0.437567
3.838595 0.675807 -0.403724
3.844224 0.653988 -0.402118
3.842920 0.654456 -0.438410
3.758235 0.654726 -0.435483
3.758509 0.656201 -0.401641
3.764138 0.634381 -0.400034
3.762833 0.634850 -0.436326
3.843137 0.653490 -0.438639
3.844442 0.653021 -0.402347
3.849145 0.631138 -0.404146
3.847562 0.633589 -0.438983
3.762625 0.635774 -0.436098
3.763930 0.635305 -0.399806
3.768632 0.613422 -0.401605
3.767050 0.615873 -0.436442
3.847258 0.634917 -0.438520
3.848841 0.632466 -0.403683
3.853470 0.612701 -0.411911
3.852561 0.615261 -0.437191
3.767363 0.614505 -0.436910
3.768946 0.612053 -0.402073
3.773575 0.592288 -0.410301
3.772666 0.594848 -0.435581
3.838398 0.676585 -0.403672
3.838671 0.678060 -0.369830
3.845368 0.653990 -0.365935
3.844027 0.654765 -0.402066
3.758707 0.655424 -0.401623
3.758981 0.656899 -0.367780
3.765677 0.632830 -0.363886
3.764337 0.633605 -0.400016
3.844490 0.652813 -0.402284
3.845830 0.652038 -0.366153
3.850743 0.628160 -0.371106
3.849192 0.630929 -0.404083
3.763886 0.635511 -0.399799
3.765226 0.634736 -0.363669
3.770139 0.610858 -0.368621
3.768588 0.613627 -0.401598
3.849037 0.631659 -0.403727
3.850588 0.628890 -0.370750
3.854438 0.610201 -0.386618
3.853667 0.611895 -0.411955
3.768752 0.612855 -0.401969
3.770302 0.610085 -0.368993
3.774152 0.591397 -0.384861
3.773381 0.593090 -0.410197
3.812824 0.665555 -0.396144
3.800941 0.663457 -0.395404
3.805539 0.643580 -0.396247
3.817043 0.643386 -0.396967
3.807510 0.667701 -0.478422
3.795627 0.665603 -0.477682
3.800225 0.645726 -0.478525
3.811728 0.645532 -0.479245
3.818110 0.643886 -0.397040
3.806606 0.644080 -0.396320
3.811031 0.624179 -0.396664
3.822455 0.621770 -0.398055
3.810670 0.644990 -0.479174
3.799166 0.645184 -0.478453
3.803591 0.625284 -0.478798
3.815014 0.622874 -0.480189
3.829462 0.624764 -0.399378
3.818038 0.627173 -0.397987
3.823341 0.607517 -0.396659
3.833174 0.602525 -0.400544
3.808016 0.619839 -0.478867
3.796592 0.622248 -0.477475
3.801896 0.602592 -0.476147
3.811729 0.597600 -0.480032
