4.213106 0.875150 0.596045
4.213413 0.902300 0.596758
4.212899 0.903709 0.573626
4.236641 0.877190 0.572419
4.237075 0.874924 0.595535
4.237383 0.902074 0.596248
4.236869 0.903483 0.573116
4.212900 0.903746 0.573665
4.213415 0.902337 0.596798
4.213740 0.928483 0.597505
4.213139 0.929045 0.574356
4.236868 0.903499 0.573078
4.237382 0.902090 0.596210
4.237707 0.928236 0.596917
4.237107 0.928799 0.573769
4.223344 0.928609 0.585902
4.197840 0.924073 0.581992
4.198767 0.899606 0.581478
4.223105 0.903309 0.585211
4.226877 0.929232 0.562196
4.201373 0.924696 0.558286
4.202300 0.900229 0.557772
4.226638 0.903932 0.561505
4.197833 0.924054 0.581990
4.172330 0.919521 0.578125
4.174412 0.895878 0.577760
4.198759 0.899587 0.581476
4.201331 0.924706 0.558280
4.175829 0.920173 0.554414
4.177911 0.896530 0.554050
4.202258 0.900239 0.557766
4.223097 0.903294 0.585209
4.198759 0.899590 0.581476
4.199680 0.874119 0.580959
4.222869 0.877001 0.584513
4.226647 0.903897 0.561505
4.202309 0.900194 0.557772
4.203230 0.874722 0.557255
4.226419 0.877604 0.560809
4.198738 0.899573 0.581473
4.174390 0.895864 0.577756
4.176479 0.871228 0.577389
4.199659 0.874102 0.580956
4.202282 0.900204 0.557768
4.177935 0.896495 0.554052
4.180023 0.871859 0.553685
4.203203 0.874733 0.557252
4.222858 0.876971 0.584510
4.199668 0.874089 0.580957
4.200599 0.848626 0.580423
4.222619 0.850670 0.583814
4.226431 0.877582 0.560810
4.203242 0.874700 0.557257
4.204172 0.849237 0.556723
4.226193 0.851280 0.560114
4.199641 0.874071 0.580952
4.176461 0.871198 0.577386
4.178545 0.846554 0.577018
4.200571 0.848608 0.580419
4.203224 0.874713 0.557254
4.180044 0.871840 0.553688
4.182127 0.847196 0.553319
4.204154 0.849250 0.556721
4.222604 0.850646 0.583811
4.200583 0.848602 0.580420
4.201506 0.823129 0.579897
4.222377 0.824354 0.583116
4.226209 0.851252 0.560115
4.204188 0.849208 0.556725
4.205111 0.823735 0.556201
4.225982 0.824961 0.559421
4.200553 0.848584 0.580415
4.178526 0.846531 0.577014
4.180615 0.821897 0.576646
4.201475 0.823110 0.579892
4.204176 0.849223 0.556723
4.182149 0.847170 0.553322
4.184238 0.822536 0.552954
4.205099 0.823750 0.556200
4.222357 0.824324 0.583112
4.201485 0.823098 0.579893
4.202417 0.797636 0.579350
4.222120 0.798021 0.582419
4.226004 0.824939 0.559423
4.205132 0.823713 0.556204
4.206064 0.798251 0.555661
4.225767 0.798636 0.558730
4.201458 0.823080 0.579888
4.180597 0.821866 0.576642
4.182681 0.797222 0.576275
4.202389 0.797618 0.579345
4.205119 0.823730 0.556202
4.184259 0.822517 0.552957
4.186342 0.797873 0.552589
4.206051 0.798268 0.555659
4.172556 0.796537 0.564421
4.170473 0.821182 0.564789
4.170450 0.821343 0.538660
4.172525 0.796791 0.538424
4.196447 0.798557 0.564413
4.194363 0.823201 0.564781
4.194341 0.823363 0.538651
4.196416 0.798810 0.538415
4.170471 0.821206 0.564786
4.168381 0.845840 0.565154
4.168379 0.845931 0.538891
4.170448 0.821368 0.538656
4.194361 0.823225 0.564784
4.192272 0.847859 0.565152
4.192270 0.847950 0.538889
4.194339 0.823387 0.538655
4.168379 0.845865 0.565150
4.166296 0.870509 0.565519
4.166305 0.870511 0.539122
4.168377 0.845957 0.538887
4.192270 0.847883 0.565157
4.190187 0.872526 0.565525
4.190196 0.872528 0.539129
4.192268 0.847974 0.538894
4.166294 0.870533 0.565515
4.164206 0.895169 0.565882
4.164234 0.895096 0.539353
4.166303 0.870535 0.539119
4.190185 0.872552 0.565529
4.188096 0.897188 0.565896
4.188125 0.897115 0.539368
4.190194 0.872553 0.539133
4.164207 0.895152 0.565878
4.162125 0.918795 0.566243
4.162167 0.918637 0.539580
4.164235 0.895080 0.539349
4.188091 0.897252 0.565901
4.186009 0.920894 0.566265
4.186051 0.920737 0.539603
4.188119 0.897180 0.539372
4.172524 0.796796 0.538393
4.170450 0.821348 0.538629
4.170445 0.821522 0.512498
4.172496 0.797038 0.512397
4.196416 0.798806 0.538394
4.194341 0.823358 0.538630
4.194337 0.823532 0.512499
4.196388 0.799048 0.512398
4.170448 0.821374 0.538622
4.168378 0.845937 0.538857
4.168392 0.846020 0.512595
4.170443 0.821547 0.512492
4.194339 0.823382 0.538636
4.192270 0.847945 0.538871
4.192283 0.848028 0.512608
4.194335 0.823555 0.512506
4.168376 0.845961 0.538852
4.166305 0.870515 0.539087
4.166338 0.870526 0.512690
4.168390 0.846045 0.512589
4.192268 0.847970 0.538876
4.190196 0.872524 0.539112
4.190230 0.872535 0.512715
4.192281 0.848053 0.512614
4.166303 0.870541 0.539081
4.164233 0.895102 0.539316
4.164286 0.895027 0.512787
4.166336 0.870552 0.512684
4.190194 0.872548 0.539118
4.188125 0.897109 0.539352
4.188177 0.897034 0.512823
4.190228 0.872559 0.512721
4.164235 0.895084 0.539311
4.162167 0.918641 0.539542
4.162237 0.918490 0.512879
4.164287 0.895009 0.512782
4.188119 0.897175 0.539357
4.186051 0.920732 0.539588
4.186121 0.920581 0.512925
4.188172 0.897100 0.512828
4.212329 0.783026 0.571528
4.212864 0.781117 0.593940
4.211935 0.792931 0.593709
4.211979 0.797731 0.570632
4.236277 0.784177 0.571439
4.236812 0.782268 0.593851
4.235883 0.794082 0.593620
4.235927 0.798882 0.570543
4.183847 0.783299 0.576368
4.203068 0.783497 0.579819
4.202239 0.798025 0.579325
4.182531 0.797629 0.576254
4.187812 0.783096 0.552723
4.207033 0.783293 0.556174
4.206204 0.797821 0.555679
4.186495 0.797426 0.552609
4.203078 0.783877 0.579812
4.222301 0.784085 0.583282
4.221952 0.798790 0.582386
4.202250 0.798405 0.579317
4.207061 0.782913 0.556189
4.226284 0.783122 0.559658
4.225935 0.797827 0.558763
4.206233 0.797442 0.555694
4.210580 0.717853 0.568373
4.211311 0.718048 0.591280
4.212056 0.749990 0.592763
4.211451 0.750834 0.570102
4.234539 0.717292 0.567663
4.235269 0.717487 0.590570
4.236015 0.749429 0.592053
4.235410 0.750273 0.569392
4.211451 0.750879 0.570070
4.212056 0.750035 0.592731
4.212858 0.781963 0.594216
4.212322 0.783872 0.571804
4.235412 0.750293 0.569428
4.236016 0.749449 0.592089
4.236818 0.781377 0.593574
4.236283 0.783286 0.571162
4.220808 0.717071 0.579855
4.221679 0.750052 0.581584
4.204517 0.750080 0.578856
4.205703 0.717312 0.577848
4.224295 0.718074 0.556155
4.225166 0.751056 0.557885
4.208004 0.751083 0.555156
4.209189 0.718315 0.554148
4.221413 0.750088 0.581544
4.222284 0.783080 0.583278
4.203061 0.782872 0.579808
4.204251 0.750115 0.578815
4.225431 0.751086 0.557928
4.226302 0.784079 0.559662
4.207079 0.783871 0.556192
4.208270 0.751114 0.555199
4.205672 0.717459 0.577849
4.204487 0.750226 0.578857
4.187322 0.750243 0.576110
4.190576 0.717711 0.575820
4.209187 0.718169 0.554143
4.208002 0.750937 0.555150
4.190838 0.750953 0.552404
4.194091 0.718421 0.552113
4.204232 0.750246 0.578817
4.203042 0.783003 0.579809
4.183821 0.782806 0.576358
4.187067 0.750263 0.576070
4.208253 0.750982 0.555192
4.207062 0.783739 0.556184
4.187841 0.783542 0.552733
4.191088 0.750999 0.552445
4.192273 0.699162 0.575711
4.206580 0.700065 0.577783
4.205780 0.717610 0.577868
4.190683 0.717862 0.575838
4.195576 0.699519 0.551967
4.209884 0.700422 0.554038
4.209083 0.717967 0.554123
4.193987 0.718219 0.552094
4.206608 0.700163 0.577788
4.220913 0.701056 0.579843
4.220913 0.717467 0.579880
4.205808 0.717708 0.577873
4.209885 0.700324 0.554038
4.224190 0.701218 0.556093
4.224190 0.717629 0.556129
4.209085 0.717870 0.554122
4.180393 0.716921 0.564149
4.179660 0.719747 0.545550
4.181525 0.700312 0.537926
4.181983 0.698221 0.564021
4.204261 0.719162 0.563759
4.203528 0.721989 0.545161
4.205393 0.702553 0.537537
4.205851 0.700462 0.563632
4.179676 0.719581 0.545508
4.178970 0.722421 0.526906
4.181060 0.702224 0.511793
4.181542 0.700145 0.537884
4.203511 0.722161 0.545158
4.202804 0.725000 0.526556
4.204894 0.704804 0.511443
4.205376 0.702725 0.537534
4.173887 0.782050 0.564478
4.174190 0.781780 0.543494
4.176923 0.750797 0.544397
4.177134 0.749507 0.564191
4.197757 0.784298 0.564588
4.198060 0.784028 0.543605
4.200793 0.753045 0.544507
4.201004 0.751755 0.564301
4.177138 0.749477 0.564419
4.176927 0.750766 0.544625
4.179658 0.719771 0.545530
4.180391 0.716945 0.564129
4.201006 0.751722 0.564073
4.200795 0.753011 0.544279
4.203526 0.722016 0.545184
4.204259 0.719189 0.563783
4.174177 0.781923 0.543464
4.174506 0.781667 0.522478
4.176721 0.752220 0.524575
4.176910 0.750940 0.544366
4.198072 0.783886 0.543594
4.198401 0.783630 0.522609
4.200616 0.754183 0.524705
4.200806 0.752903 0.544497
4.176913 0.750922 0.544608
4.176723 0.752202 0.524817
4.178937 0.722767 0.526911
4.179644 0.719927 0.545513
4.200808 0.752860 0.544258
4.200618 0.754140 0.524466
4.202832 0.724704 0.526561
4.203539 0.721865 0.545163
4.172578 0.796302 0.564350
4.172547 0.796556 0.538352
4.174198 0.781703 0.543480
4.173895 0.781973 0.564463
4.196428 0.798752 0.564487
4.196397 0.799006 0.538489
4.198048 0.784152 0.543617
4.197745 0.784422 0.564600
4.172576 0.796302 0.538322
4.172548 0.796545 0.512326
4.174555 0.781192 0.522463
4.174227 0.781448 0.543449
4.196368 0.799260 0.538473
4.196340 0.799503 0.512477
4.198348 0.784150 0.522615
4.198019 0.784407 0.543600
4.169311 0.952905 0.577828
4.170492 0.939738 0.578595
4.196948 0.941949 0.582406
4.196045 0.955031 0.582285
4.173033 0.952400 0.554148
4.174214 0.939233 0.554915
4.200670 0.941444 0.558726
4.199767 0.954525 0.558605
4.196144 0.954536 0.582300
4.197047 0.941454 0.582421
4.223498 0.943665 0.586204
4.222907 0.956660 0.586637
4.199721 0.955024 0.558598
4.200624 0.941943 0.558719
4.227075 0.944153 0.562501
4.226484 0.957149 0.562934
4.159214 0.951637 0.565892
4.159312 0.953379 0.539294
4.160447 0.939190 0.539731
4.160395 0.938470 0.566659
4.183104 0.953667 0.566053
4.183202 0.955408 0.539455
4.184336 0.941219 0.539891
4.184284 0.940500 0.566819
4.159303 0.953488 0.539271
4.159403 0.955230 0.512673
4.160495 0.940018 0.512779
4.160438 0.939299 0.539707
4.183210 0.955302 0.539424
4.183310 0.957043 0.512826
4.184402 0.941832 0.512932
4.184345 0.941113 0.539861
4.162121 0.918842 0.566223
4.160397 0.938444 0.566708
4.160449 0.939164 0.539779
4.162163 0.918685 0.539560
4.186009 0.920890 0.566286
4.184285 0.940492 0.566771
4.184337 0.941212 0.539843
4.186051 0.920733 0.539624
4.162159 0.918726 0.539526
4.160445 0.939205 0.539745
4.160502 0.939925 0.512817
4.162230 0.918575 0.512863
4.186055 0.920692 0.539604
4.184341 0.941171 0.539823
4.184398 0.941890 0.512894
4.186125 0.920540 0.512941
4.172379 0.919459 0.578130
4.197881 0.923992 0.581995
4.197111 0.941271 0.582426
4.170655 0.939060 0.578615
4.175777 0.920277 0.554410
4.201280 0.924811 0.558276
4.200509 0.942090 0.558706
4.174053 0.939879 0.554895
4.197889 0.924104 0.582000
4.223393 0.928640 0.585910
4.223570 0.943593 0.586213
4.197119 0.941383 0.582430
4.201323 0.924706 0.558279
4.226827 0.929242 0.562189
4.227004 0.944196 0.562492
4.200553 0.941985 0.558709
4.213329 0.943257 0.574406
4.213624 0.941401 0.597322
4.212808 0.954085 0.594969
4.212739 0.956252 0.574839
4.237270 0.944561 0.574325
4.237564 0.942706 0.597241
4.236749 0.955390 0.594889
4.236679 0.957557 0.574758
4.213138 0.928959 0.574297
4.213738 0.928396 0.597445
4.213608 0.942057 0.597516
4.213314 0.943912 0.574599
4.237109 0.928925 0.573829
4.237710 0.928363 0.596977
4.237580 0.942024 0.597048
4.237286 0.943879 0.574132
4.158339 0.972089 0.560635
4.158273 0.972384 0.536706
4.159282 0.953828 0.539341
4.159184 0.952086 0.565939
4.182286 0.973253 0.560698
4.182221 0.973548 0.536768
4.183230 0.954992 0.539403
4.183132 0.953251 0.566001
4.158282 0.972228 0.536676
4.158205 0.972522 0.512747
4.159390 0.955414 0.512714
4.159291 0.953672 0.539312
4.182212 0.973706 0.536747
4.182135 0.973999 0.512817
4.183321 0.956892 0.512784
4.183221 0.955150 0.539382
4.238769 0.806792 0.458580
4.237993 0.805447 0.483503
4.235726 0.830211 0.483573
4.236288 0.831378 0.458995
4.262623 0.809080 0.459341
4.261847 0.807735 0.484265
4.259580 0.832498 0.484334
4.260143 0.833665 0.459756
4.236283 0.831402 0.459102
4.235720 0.830235 0.483680
4.233454 0.855009 0.483750
4.233805 0.855977 0.459517
4.260143 0.833690 0.459649
4.259581 0.832523 0.484227
4.257314 0.857297 0.484297
4.257666 0.858266 0.460064
4.233801 0.855999 0.459629
4.233450 0.855031 0.483862
4.231184 0.879796 0.483931
4.231317 0.880583 0.460043
4.257665 0.858293 0.459953
4.257314 0.857324 0.484186
4.255048 0.882089 0.484255
4.255181 0.882877 0.460367
4.231314 0.880605 0.460161
4.231181 0.879818 0.484049
4.228915 0.904590 0.484119
4.228825 0.905181 0.460577
4.255179 0.882904 0.460250
4.255046 0.882117 0.484138
4.252780 0.906889 0.484208
4.252690 0.907480 0.460665
4.228822 0.905211 0.460699
4.228912 0.904619 0.484242
4.226657 0.929387 0.484311
4.226346 0.929794 0.461114
4.252688 0.907500 0.460543
4.252778 0.906908 0.484086
4.250523 0.931676 0.484156
4.250212 0.932083 0.460958
4.237982 0.805554 0.483526
4.237186 0.804196 0.508449
4.235143 0.829159 0.508174
4.235715 0.830317 0.483595
4.261856 0.807626 0.484291
4.261060 0.806268 0.509214
4.259017 0.831232 0.508939
4.259589 0.832390 0.484361
4.235710 0.830342 0.483707
4.235138 0.829184 0.508285
4.233092 0.854138 0.508009
4.233444 0.855115 0.483777
4.259590 0.832415 0.484249
4.259018 0.831257 0.508828
4.256972 0.856211 0.508552
4.257324 0.857188 0.484319
4.233439 0.855141 0.483891
4.233088 0.854164 0.508123
4.231045 0.879126 0.507849
4.231174 0.879906 0.483960
4.257324 0.857212 0.484205
4.256972 0.856234 0.508437
4.254929 0.881197 0.508163
4.255058 0.881977 0.484274
4.231170 0.879931 0.484078
4.231042 0.879150 0.507966
4.228996 0.904106 0.507690
4.228904 0.904703 0.484148
4.255057 0.882002 0.484156
4.254928 0.881222 0.508045
4.252882 0.906177 0.507769
4.252790 0.906774 0.484227
4.228902 0.904732 0.484266
4.228994 0.904135 0.507808
4.226951 0.929095 0.507535
4.226647 0.929500 0.484336
4.252788 0.906795 0.484108
4.252880 0.906198 0.507650
4.250838 0.931158 0.507377
4.250534 0.931563 0.484178
4.240223 0.783250 0.518829
4.237261 0.803522 0.508529
4.238057 0.804880 0.483606
4.240670 0.783210 0.488348
4.263953 0.786624 0.519442
4.260991 0.806896 0.509141
4.261787 0.808254 0.484219
4.264400 0.786584 0.488960
4.240626 0.783565 0.488330
4.238013 0.805235 0.483588
4.238789 0.806580 0.458665
4.241081 0.783538 0.457849
4.264446 0.786230 0.488923
4.261833 0.807900 0.484181
4.262609 0.809245 0.459258
4.264901 0.786203 0.458442
4.244513 0.727988 0.521533
4.242328 0.755953 0.520231
4.242773 0.756989 0.488959
4.244942 0.730074 0.489470
4.268409 0.729898 0.521957
4.266224 0.757863 0.520655
4.266669 0.758899 0.489383
4.268838 0.731984 0.489894
4.244945 0.730046 0.489443
4.242775 0.756961 0.488932
4.243195 0.757982 0.457659
4.245369 0.732143 0.457380
4.268836 0.732015 0.489858
4.266667 0.758930 0.489347
4.267086 0.759951 0.458074
4.269260 0.734112 0.457795
4.242326 0.755979 0.520254
4.240142 0.783956 0.518952
4.240589 0.783916 0.488471
4.242770 0.757015 0.488982
4.266222 0.757892 0.520630
4.264039 0.785869 0.519327
4.264486 0.785829 0.488846
4.266667 0.758927 0.489358
4.242772 0.756991 0.488954
4.240591 0.783893 0.488442
4.241047 0.783866 0.457962
4.243192 0.758012 0.457681
4.266665 0.758952 0.489324
4.264484 0.785854 0.488813
4.264940 0.785826 0.458332
4.267085 0.759973 0.458052
4.246386 0.707273 0.507405
4.244522 0.727908 0.521417
4.244952 0.729994 0.489354
4.247379 0.706713 0.482188
4.270267 0.709294 0.508052
4.268404 0.729929 0.522064
4.268833 0.732015 0.490001
4.271261 0.708734 0.482835
4.247403 0.706466 0.482159
4.244976 0.729747 0.489325
4.245400 0.731843 0.457262
4.248375 0.705892 0.456943
4.271238 0.708982 0.482807
4.268811 0.732264 0.489973
4.269234 0.734360 0.457909
4.272209 0.708409 0.457590
4.256305 0.549394 0.504321
4.254317 0.580329 0.504910
4.257111 0.580030 0.480182
4.255445 0.549154 0.479717
4.280262 0.549503 0.505259
4.278275 0.580437 0.505848
4.281068 0.580139 0.481120
4.279402 0.549263 0.480655
4.254396 0.579604 0.504164
4.252407 0.611545 0.504745
4.254726 0.611170 0.479898
4.257190 0.579306 0.479436
4.278193 0.581225 0.506596
4.276204 0.613166 0.507178
4.278523 0.612791 0.482331
4.280987 0.580927 0.481868
4.252384 0.611583 0.504965
4.250395 0.643515 0.505554
4.252299 0.643087 0.480582
4.254703 0.611208 0.480118
4.276223 0.613192 0.506959
4.274233 0.645124 0.507548
4.276137 0.644696 0.482577
4.278542 0.612817 0.482112
4.250377 0.643532 0.505771
4.248387 0.675474 0.506355
4.249820 0.674967 0.481262
4.252281 0.643104 0.480800
4.274246 0.645171 0.507332
4.272256 0.677114 0.507916
4.273689 0.676607 0.482823
4.276150 0.644743 0.482361
4.248372 0.675507 0.506577
4.246382 0.707438 0.507164
4.247375 0.706878 0.481947
4.249806 0.675000 0.481484
4.272266 0.677144 0.507695
4.270276 0.709075 0.508282
4.271269 0.708515 0.483065
4.273700 0.676638 0.482602
4.255537 0.549771 0.478723
4.257203 0.580647 0.479188
4.259920 0.580336 0.454456
4.258763 0.549536 0.454117
4.279314 0.548645 0.481599
4.280980 0.579522 0.482064
4.283696 0.579211 0.457332
4.282540 0.548411 0.456993
4.257203 0.579136 0.479434
4.254739 0.611001 0.479897
4.257054 0.610635 0.455046
4.259919 0.578825 0.454701
4.280979 0.581095 0.481820
4.278515 0.612960 0.482283
4.280831 0.612595 0.457432
4.283696 0.580785 0.457088
4.254716 0.611038 0.480111
4.252312 0.642917 0.480575
4.254161 0.642474 0.455601
4.257032 0.610673 0.455260
4.278532 0.612986 0.482070
4.276128 0.644865 0.482534
4.277977 0.644422 0.457561
4.280848 0.612621 0.457219
4.252295 0.642935 0.480789
4.249834 0.674799 0.481251
4.251279 0.674305 0.456158
4.254144 0.642492 0.455816
4.276140 0.644911 0.482321
4.273679 0.676774 0.482783
4.275124 0.676280 0.457690
4.277989 0.644467 0.457347
4.249820 0.674826 0.481466
4.247389 0.706703 0.481929
4.248361 0.706130 0.456712
4.251265 0.674331 0.456372
4.273688 0.676811 0.482570
4.271257 0.708689 0.483033
4.272229 0.708115 0.457816
4.275133 0.676317 0.457476
4.192302 0.703780 0.499634
4.224944 0.706169 0.497699
4.227220 0.674806 0.496909
4.194864 0.673010 0.498639
4.193689 0.703201 0.523562
4.226330 0.705589 0.521628
4.228606 0.674227 0.520838
4.196251 0.672431 0.522568
4.194940 0.672985 0.498634
4.227296 0.674781 0.496904
4.229572 0.643430 0.496112
4.197500 0.642204 0.497643
4.196179 0.672394 0.522571
4.228535 0.674190 0.520841
4.230811 0.642840 0.520049
4.198739 0.641614 0.521580
4.197578 0.642181 0.497639
4.229649 0.643406 0.496108
4.231924 0.612046 0.495314
4.200139 0.611411 0.496641
4.198667 0.641575 0.521583
4.230738 0.642801 0.520052
4.233013 0.611440 0.519257
4.201228 0.610805 0.520585
4.200221 0.611382 0.496637
4.232005 0.612017 0.495310
4.234281 0.580665 0.494530
4.202780 0.580603 0.495645
4.201152 0.610772 0.520587
4.232936 0.611407 0.519260
4.235212 0.580055 0.518480
4.203711 0.579992 0.519595
4.202866 0.580590 0.495641
4.234367 0.580653 0.494526
4.236640 0.550291 0.493746
4.205425 0.550820 0.494644
4.203630 0.579943 0.519597
4.235131 0.580006 0.518482
4.237404 0.549644 0.517701
4.206190 0.550173 0.518599
4.224984 0.706095 0.497695
4.257627 0.708470 0.495770
4.259617 0.676539 0.495183
4.227260 0.674733 0.496905
4.226355 0.705667 0.521628
4.258997 0.708042 0.519703
4.260987 0.676111 0.519116
4.228631 0.674305 0.520838
4.227336 0.674706 0.496901
4.259693 0.676512 0.495179
4.261683 0.644570 0.494595
4.229612 0.643355 0.496109
4.228559 0.674268 0.520841
4.260916 0.676074 0.519119
4.262906 0.644132 0.518535
4.230835 0.642917 0.520049
4.229690 0.643330 0.496104
4.261761 0.644545 0.494590
4.263750 0.612613 0.494001
4.231964 0.611969 0.495310
4.230762 0.642879 0.520052
4.262833 0.644094 0.518538
4.264822 0.612162 0.517949
4.233036 0.611518 0.519258
4.232042 0.611939 0.495307
4.263828 0.612582 0.493998
4.265817 0.580641 0.493416
4.234317 0.580587 0.494527
4.232963 0.611486 0.519261
4.264749 0.612129 0.517952
4.266738 0.580188 0.517370
4.235238 0.580134 0.518481
4.234394 0.580570 0.494524
4.265894 0.580624 0.493413
4.267881 0.549690 0.492823
4.236667 0.550208 0.493743
4.235166 0.580088 0.518482
4.266666 0.580142 0.517372
4.268654 0.549208 0.516782
4.237439 0.549726 0.517702
4.255269 0.735661 0.511915
4.257133 0.715026 0.497903
4.224490 0.712651 0.499828
4.222513 0.733054 0.514398
4.257623 0.722173 0.531597
4.259487 0.701538 0.517585
4.226845 0.699163 0.519510
4.224868 0.719566 0.534080
4.222474 0.733271 0.514555
4.224451 0.712868 0.499985
4.191809 0.710479 0.501920
4.189719 0.730676 0.517033
4.224842 0.719344 0.533928
4.226819 0.698941 0.519358
4.194177 0.696553 0.521292
4.192087 0.716750 0.536405
4.184374 0.791747 0.502176
4.216683 0.795342 0.500409
4.219167 0.777519 0.510629
4.186382 0.776394 0.512314
4.184546 0.804303 0.522601
4.216855 0.807899 0.520834
4.219339 0.790076 0.531053
4.186554 0.788951 0.532738
4.216655 0.795922 0.500075
4.248962 0.799507 0.498305
4.251925 0.779234 0.508605
4.219139 0.778099 0.510295
4.216949 0.807324 0.521164
4.249256 0.810908 0.519394
4.252219 0.790636 0.529695
4.219433 0.789501 0.531384
4.185823 0.781819 0.510591
4.218608 0.782944 0.508906
4.220808 0.754244 0.510612
4.188038 0.752372 0.512687
4.187117 0.783480 0.534474
4.219902 0.784605 0.532789
4.222102 0.755904 0.534495
4.189332 0.754032 0.536571
4.218630 0.783091 0.508895
4.251416 0.784226 0.507206
4.253599 0.756249 0.508508
4.220830 0.754390 0.510602
4.219946 0.784461 0.532796
4.252732 0.785597 0.531106
4.254916 0.757620 0.532409
4.222146 0.755761 0.534502
4.187915 0.752337 0.512697
4.220685 0.754209 0.510622
4.222884 0.725496 0.512314
4.190128 0.722902 0.514791
4.189459 0.754009 0.536565
4.222230 0.755881 0.534490
4.224428 0.727168 0.536182
4.191673 0.724573 0.538659
4.220703 0.754356 0.510611
4.253473 0.756215 0.508518
4.255657 0.728249 0.509820
4.222902 0.725643 0.512304
4.222277 0.755739 0.534495
4.255047 0.757598 0.532402
4.257231 0.729633 0.533704
4.224476 0.727026 0.536188
4.181967 0.698397 0.563941
4.181509 0.700488 0.537846
4.183916 0.669630 0.537013
4.184283 0.667671 0.563333
4.205871 0.700236 0.563708
4.205414 0.702327 0.537612
4.207821 0.671469 0.536779
4.208188 0.669510 0.563099
4.184285 0.667639 0.563291
4.183919 0.669598 0.536971
4.186336 0.638750 0.536132
4.186598 0.636904 0.562688
4.208190 0.669479 0.563139
4.207823 0.671438 0.536820
4.210241 0.640590 0.535980
4.210503 0.638743 0.562537
4.186600 0.636870 0.562645
4.186338 0.638717 0.536089
4.188762 0.607861 0.535255
4.188924 0.606144 0.562034
4.210505 0.638715 0.562579
4.210243 0.640562 0.536022
4.212667 0.609705 0.535188
4.212829 0.607988 0.561967
4.188926 0.606118 0.561996
4.188764 0.607835 0.535217
4.191169 0.576986 0.534374
4.191245 0.575383 0.561392
4.212831 0.607952 0.562004
4.212670 0.609669 0.535225
4.215075 0.578819 0.534382
4.215150 0.577216 0.561400
4.191250 0.575316 0.561352
4.191174 0.576919 0.534335
4.193605 0.547062 0.533503
4.193580 0.545587 0.560740
4.215150 0.577223 0.561438
4.215074 0.578826 0.534420
4.217504 0.548969 0.533589
4.217480 0.547494 0.560826
4.181513 0.700443 0.537809
4.181031 0.702522 0.511718
4.183593 0.671752 0.510723
4.183920 0.669585 0.536976
4.205410 0.702376 0.537597
4.204928 0.704455 0.511506
4.207490 0.673685 0.510511
4.207817 0.671518 0.536764
4.183922 0.669554 0.536904
4.183595 0.671722 0.510651
4.186155 0.640941 0.509661
4.186339 0.638706 0.536065
4.207820 0.671486 0.536834
4.207493 0.673654 0.510581
4.210053 0.642873 0.509590
4.210237 0.640638 0.535994
4.186342 0.638676 0.535998
4.186157 0.640911 0.509594
4.188719 0.610141 0.508596
4.188766 0.607819 0.535164
4.210240 0.640607 0.536060
4.210055 0.642842 0.509656
4.212617 0.612072 0.508658
4.212664 0.609750 0.535226
4.188768 0.607794 0.535096
4.188721 0.610116 0.508527
4.191281 0.579336 0.507535
4.191173 0.576945 0.534253
4.212666 0.609714 0.535293
4.212619 0.612035 0.508724
4.215179 0.581256 0.507732
4.215071 0.578864 0.534450
4.191179 0.576880 0.534183
4.191287 0.579271 0.507466
4.193846 0.549501 0.506468
4.193609 0.547023 0.533352
4.215070 0.578869 0.534518
4.215178 0.581260 0.507800
4.217737 0.551490 0.506803
4.217500 0.549012 0.533686
4.210580 0.701048 0.568426
4.211565 0.700136 0.591485
4.211310 0.717654 0.591369
4.210580 0.717459 0.568463
4.234538 0.701225 0.567535
4.235524 0.700313 0.590594
4.235269 0.717831 0.590478
4.234539 0.717637 0.567571
4.208412 0.544734 0.566045
4.209308 0.547500 0.588447
4.209775 0.577251 0.589063
4.208836 0.575218 0.566532
4.232367 0.544398 0.565103
4.233263 0.547163 0.587505
4.233730 0.576914 0.588121
4.232791 0.574881 0.565590
4.208837 0.575242 0.566553
4.209776 0.577274 0.589085
4.210229 0.608018 0.589704
4.209268 0.606730 0.567041
4.232791 0.574919 0.565570
4.233729 0.576951 0.588101
4.234183 0.607696 0.588720
4.233222 0.606407 0.566058
4.209270 0.606770 0.567068
4.210231 0.608059 0.589730
4.210733 0.638809 0.590344
4.209702 0.638252 0.567552
4.233221 0.606429 0.566032
4.234182 0.607718 0.588695
4.234684 0.638467 0.589308
4.233654 0.637911 0.566516
4.209703 0.638268 0.567566
4.210733 0.638824 0.590358
4.211147 0.669572 0.590968
4.210143 0.669755 0.568043
4.233654 0.637958 0.566503
4.234684 0.638514 0.589295
4.235097 0.669263 0.589904
4.234093 0.669445 0.566980
4.210143 0.669788 0.568033
4.211147 0.669605 0.590958
4.211569 0.700357 0.591561
4.210583 0.701270 0.568502
4.234094 0.669474 0.566990
4.235098 0.669292 0.589915
4.235520 0.700043 0.590517
4.234534 0.700956 0.567459
4.202163 0.546136 0.572295
4.209581 0.545145 0.574685
4.208636 0.575258 0.575216
4.199833 0.575864 0.572907
4.208905 0.546944 0.549300
4.216322 0.545953 0.551691
4.215377 0.576066 0.552221
4.206575 0.576672 0.549912
4.200377 0.575929 0.573055
4.209179 0.575324 0.575364
4.208228 0.606428 0.575926
4.198058 0.606665 0.573659
4.206027 0.576668 0.549766
4.214830 0.576062 0.552075
4.213878 0.607166 0.552637
4.203708 0.607403 0.550370
4.198466 0.606718 0.573752
4.208636 0.606481 0.576019
4.207695 0.637593 0.576565
4.196142 0.637445 0.574363
4.203298 0.607412 0.550278
4.213468 0.607175 0.552545
4.212527 0.638287 0.553091
4.200974 0.638139 0.550889
4.196467 0.637492 0.574427
4.208019 0.637640 0.576628
4.207077 0.668744 0.577181
4.194154 0.668228 0.575029
4.200647 0.638153 0.550827
4.212199 0.638301 0.553029
4.211256 0.669405 0.553581
4.198334 0.668889 0.551430
4.194422 0.668276 0.575075
4.207344 0.668792 0.577227
4.206413 0.699905 0.577755
4.192105 0.699003 0.575683
4.198063 0.668903 0.551385
4.210985 0.669419 0.553537
4.210054 0.700532 0.554066
4.195747 0.699630 0.551994
4.209604 0.545326 0.574697
4.217030 0.544343 0.577068
4.217454 0.574827 0.577555
4.208659 0.575439 0.575228
4.216315 0.545771 0.551684
4.223741 0.544787 0.554055
4.224165 0.575271 0.554542
4.215370 0.575884 0.552214
4.209192 0.575473 0.575370
4.217987 0.574861 0.577698
4.218417 0.606349 0.578186
4.208240 0.606578 0.575933
4.214836 0.575911 0.552072
4.223631 0.575298 0.554400
4.224062 0.606787 0.554888
4.213885 0.607016 0.552635
4.208660 0.606616 0.576027
4.218836 0.606386 0.578280
4.219269 0.637868 0.578765
4.207719 0.637727 0.576573
4.213466 0.607041 0.552542
4.223642 0.606812 0.554795
4.224075 0.638294 0.555279
4.212525 0.638152 0.553087
4.208050 0.637760 0.576636
4.219601 0.637902 0.578828
4.220040 0.669389 0.579304
4.207107 0.668864 0.577189
4.212192 0.638182 0.553025
4.223743 0.638323 0.555216
4.224182 0.669810 0.555693
4.211250 0.669286 0.553578
4.207374 0.668903 0.577234
4.220307 0.669428 0.579349
4.220748 0.700910 0.579818
4.206443 0.700016 0.577762
4.210982 0.669309 0.553534
4.223915 0.669834 0.555649
4.224355 0.701315 0.556118
4.210051 0.700422 0.554063
4.216578 0.543628 0.576891
4.209152 0.544611 0.574520
4.209302 0.532469 0.573544
4.216043 0.531857 0.575804
4.224193 0.545460 0.554231
4.216768 0.546444 0.551859
4.216918 0.534302 0.550883
4.223659 0.533689 0.553144
4.209589 0.544827 0.574672
4.202172 0.545818 0.572282
4.200994 0.533289 0.571452
4.209739 0.532686 0.573697
4.216315 0.546229 0.551702
4.208897 0.547219 0.549312
4.207720 0.534691 0.548481
4.216465 0.534087 0.550726
4.207886 0.533305 0.564887
4.208633 0.533834 0.587276
4.209316 0.547841 0.588375
4.208420 0.545076 0.565974
4.231825 0.532242 0.564086
4.232572 0.532771 0.586476
4.233255 0.546779 0.587575
4.232359 0.544013 0.565173
4.253920 0.527469 0.478034
4.253902 0.508276 0.479381
4.230259 0.507654 0.479920
4.230169 0.526551 0.479468
4.254879 0.528601 0.501964
4.254862 0.509408 0.503311
4.231218 0.508786 0.503850
4.231129 0.527684 0.503398
4.230113 0.527108 0.479457
4.230203 0.508210 0.479909
4.206561 0.507581 0.480478
4.206363 0.526182 0.480915
4.231138 0.527125 0.503411
4.231227 0.508228 0.503863
4.207585 0.507599 0.504432
4.207387 0.526200 0.504870
4.244928 0.527527 0.482683
4.258181 0.528500 0.465383
4.260411 0.511751 0.463671
4.244910 0.508333 0.484030
4.263909 0.528547 0.497295
4.277163 0.529520 0.479995
4.279392 0.512771 0.478283
4.263892 0.509353 0.498642
4.192451 0.532555 0.559901
4.193690 0.528676 0.524395
4.195851 0.505171 0.518032
4.196525 0.504145 0.547589
4.216259 0.535384 0.559984
4.217498 0.531505 0.524478
4.219659 0.508000 0.518114
4.220333 0.506974 0.547671
4.193625 0.529433 0.524318
4.194894 0.525535 0.492820
4.195091 0.506934 0.492383
4.195785 0.505928 0.517955
4.217564 0.530745 0.524493
4.218833 0.526848 0.492995
4.219030 0.508247 0.492557
4.219725 0.507240 0.518130
4.205322 0.556633 0.496343
4.236537 0.556104 0.495445
4.230142 0.533301 0.481170
4.206392 0.532376 0.482629
4.206292 0.544306 0.516885
4.237507 0.543777 0.515986
4.231112 0.520974 0.501712
4.207361 0.520049 0.503170
4.236576 0.556676 0.495809
4.267790 0.556158 0.494889
4.253931 0.534791 0.480100
4.230181 0.533873 0.481534
4.237522 0.543206 0.515620
4.268737 0.542687 0.514701
4.254877 0.521321 0.499912
4.231127 0.520403 0.501346
4.193558 0.547053 0.560518
4.193582 0.548527 0.533281
4.193620 0.530645 0.524182
4.192380 0.534524 0.559688
4.217504 0.545984 0.561042
4.217529 0.547459 0.533805
4.217566 0.529577 0.524705
4.216327 0.533456 0.560211
4.193573 0.547843 0.533207
4.193810 0.550320 0.506324
4.194879 0.526063 0.492609
4.193610 0.529961 0.524108
4.217539 0.548141 0.533818
4.217776 0.550619 0.506935
4.218846 0.526362 0.493220
4.217577 0.530259 0.524718
4.255518 0.549970 0.479008
4.258744 0.549736 0.454402
4.257099 0.531866 0.450252
4.255773 0.529817 0.471523
4.279331 0.548396 0.481309
4.282557 0.548161 0.456703
4.280913 0.530292 0.452553
4.279586 0.528243 0.473823
4.261090 0.557577 0.499738
4.260485 0.537183 0.467649
4.247231 0.536210 0.484948
4.275468 0.541262 0.509835
4.274863 0.520869 0.477746
4.261609 0.519895 0.495046
4.255791 0.527667 0.471926
4.257118 0.529716 0.450655
4.258998 0.510573 0.451563
4.258020 0.510918 0.470214
4.279569 0.530356 0.473413
4.280896 0.532405 0.452143
4.282776 0.513262 0.453050
4.281798 0.513607 0.471701
4.224886 0.945289 0.491774
4.224520 0.963282 0.488983
4.224840 0.963268 0.474539
4.225148 0.946056 0.476155
4.248851 0.945808 0.492252
4.248485 0.963800 0.489461
4.248806 0.963786 0.475017
4.249114 0.946574 0.476633
4.225147 0.946111 0.476141
4.224840 0.963323 0.474526
4.225172 0.963309 0.460083
4.225398 0.946876 0.460521
4.249115 0.946520 0.476616
4.248807 0.963732 0.475001
4.249140 0.963718 0.460558
4.249366 0.947286 0.460996
4.212185 0.944815 0.502835
4.210916 0.962714 0.502157
4.227249 0.962391 0.481695
4.227615 0.944398 0.484486
4.230675 0.947115 0.517924
4.229407 0.965014 0.517246
4.245739 0.964691 0.496784
4.246106 0.946698 0.499574
4.226981 0.928795 0.507422
4.224958 0.944179 0.491992
4.225221 0.944946 0.476373
4.226677 0.929199 0.484223
4.250804 0.931499 0.507478
4.248781 0.946884 0.492048
4.249043 0.947651 0.476429
4.250500 0.931904 0.484279
4.226633 0.929668 0.484224
4.225177 0.945414 0.476373
4.225427 0.946180 0.460753
4.226322 0.930074 0.461026
4.250544 0.931437 0.484240
4.249087 0.947184 0.476389
4.249338 0.947949 0.460769
4.250233 0.931843 0.461042
4.231423 0.923035 0.501348
4.213970 0.938836 0.504268
4.229401 0.938420 0.485918
4.246351 0.937264 0.513578
4.228897 0.953065 0.516498
4.244328 0.952648 0.498148
4.224563 0.962664 0.488601
4.223029 0.978345 0.487258
4.224128 0.977723 0.475284
4.224884 0.962650 0.474157
4.248440 0.964451 0.489841
4.246906 0.980132 0.488498
4.248005 0.979510 0.476524
4.248761 0.964437 0.475397
4.224854 0.963328 0.474135
4.224098 0.978402 0.475262
4.225164 0.977777 0.463287
4.225186 0.963314 0.459692
4.248793 0.963758 0.475392
4.248037 0.978831 0.476519
4.249103 0.978207 0.464544
4.249125 0.963744 0.460949
4.210770 0.962524 0.502372
4.208722 0.975557 0.502992
4.225569 0.977882 0.480567
4.227103 0.962201 0.481910
4.229550 0.965237 0.517028
4.227502 0.978269 0.517648
4.244349 0.980594 0.495223
4.245883 0.964913 0.496566
4.255702 0.528725 0.473116
4.256307 0.549119 0.505205
4.255447 0.548878 0.480601
4.279655 0.529341 0.472272
4.280260 0.549734 0.504361
4.279400 0.549494 0.479757
4.168965 0.967237 -0.498724
4.193366 0.971036 -0.497545
4.191769 0.986111 -0.497503
4.167803 0.984342 -0.498331
4.169912 0.967642 -0.522678
4.194314 0.971441 -0.521498
4.192716 0.986516 -0.521457
4.168751 0.984747 -0.522285
4.193344 0.971274 -0.497544
4.217745 0.975070 -0.496341
4.215709 0.988116 -0.496618
4.191746 0.986349 -0.497502
4.194385 0.971208 -0.521497
4.218786 0.975004 -0.520294
4.216750 0.988050 -0.520571
4.192788 0.986284 -0.521456
4.170076 0.951706 -0.499214
4.194559 0.954164 -0.498355
4.193408 0.970708 -0.497553
4.169007 0.966910 -0.498733
4.170943 0.952734 -0.523152
4.195426 0.955193 -0.522293
4.194275 0.971736 -0.521491
4.169873 0.967938 -0.522671
4.194597 0.953983 -0.498363
4.219080 0.956444 -0.497483
4.217847 0.974322 -0.496358
4.193446 0.970526 -0.497561
4.195437 0.955381 -0.522283
4.219920 0.957841 -0.521404
4.218687 0.975720 -0.520278
4.194286 0.971924 -0.521481
4.171566 0.930746 -0.499790
4.203941 0.935437 -0.497541
4.194355 0.954552 -0.498354
4.169872 0.952093 -0.499213
4.172847 0.930964 -0.523731
4.205222 0.935655 -0.521482
4.195637 0.954769 -0.522294
4.171153 0.952311 -0.523154
4.203879 0.936018 -0.497553
4.236248 0.940707 -0.495235
4.218776 0.957593 -0.497487
4.194293 0.955132 -0.498366
4.205341 0.935081 -0.521466
4.237711 0.939771 -0.519148
4.220239 0.956657 -0.521400
4.195756 0.954196 -0.522279
4.181818 0.810023 -0.502322
4.214156 0.813534 -0.501014
4.212148 0.838246 -0.500319
4.179800 0.834499 -0.501813
4.182781 0.810688 -0.526270
4.215119 0.814199 -0.524962
4.213111 0.838911 -0.524267
4.180763 0.835164 -0.525761
4.179731 0.834516 -0.501816
4.212079 0.838263 -0.500322
4.210069 0.862974 -0.499615
4.177716 0.858992 -0.501309
4.180829 0.835196 -0.525757
4.213177 0.838943 -0.524263
4.211167 0.863654 -0.523556
4.178814 0.859672 -0.525250
4.177647 0.859016 -0.501312
4.210000 0.862998 -0.499618
4.207992 0.887711 -0.498934
4.175631 0.883491 -0.500803
4.178879 0.859697 -0.525246
4.211232 0.863679 -0.523553
4.209224 0.888392 -0.522869
4.176863 0.884172 -0.524738
4.175565 0.883506 -0.500806
4.207926 0.887726 -0.498937
4.205917 0.912437 -0.498234
4.173549 0.907982 -0.500299
4.176925 0.884207 -0.524734
4.209286 0.888426 -0.522864
4.207277 0.913137 -0.522161
4.174909 0.908683 -0.524226
4.173484 0.907976 -0.500303
4.205852 0.912431 -0.498238
4.203842 0.935144 -0.497553
4.171467 0.930454 -0.499802
4.174970 0.908736 -0.524220
4.207338 0.913191 -0.522156
4.205329 0.935904 -0.521470
4.172953 0.931214 -0.523720
4.214194 0.813448 -0.501015
4.246533 0.816958 -0.499704
4.244531 0.841905 -0.498807
4.212187 0.838160 -0.500320
4.215145 0.814293 -0.524958
4.247484 0.817803 -0.523646
4.245482 0.842750 -0.522749
4.213138 0.839004 -0.524263
4.212116 0.838177 -0.500323
4.244461 0.841922 -0.498809
4.242459 0.866870 -0.497912
4.210107 0.862887 -0.499616
4.213204 0.839037 -0.524259
4.245549 0.842783 -0.522745
4.243547 0.867731 -0.521848
4.211194 0.863748 -0.523552
4.210033 0.862912 -0.499619
4.242386 0.866894 -0.497915
4.240383 0.891841 -0.497016
4.208025 0.887624 -0.498935
4.211264 0.863773 -0.523548
4.243616 0.867756 -0.521843
4.241614 0.892702 -0.520945
4.209255 0.888486 -0.522864
4.207953 0.887640 -0.498938
4.240311 0.891856 -0.497020
4.238308 0.916804 -0.496125
4.205944 0.912351 -0.498235
4.209324 0.888520 -0.522859
4.241682 0.892737 -0.520940
4.239680 0.917684 -0.520045
4.207315 0.913232 -0.522156
4.205877 0.912336 -0.498240
4.238242 0.916788 -0.496129
4.236237 0.939739 -0.495236
4.203868 0.935050 -0.497554
4.207378 0.913295 -0.522150
4.239742 0.917747 -0.520039
4.237737 0.940698 -0.519146
4.205368 0.936008 -0.521464
4.208766 0.812107 -0.573001
4.209037 0.838412 -0.573081
4.208721 0.834997 -0.596256
4.208273 0.807844 -0.596179
4.232737 0.811783 -0.573366
4.233008 0.838089 -0.573446
4.232692 0.834674 -0.596621
4.232244 0.807521 -0.596544
4.209036 0.838438 -0.573166
4.209307 0.864743 -0.573248
4.209164 0.862177 -0.596419
4.208720 0.835023 -0.596341
4.233009 0.838117 -0.573362
4.233280 0.864423 -0.573443
4.233137 0.861856 -0.596614
4.232693 0.834702 -0.596537
4.209307 0.864757 -0.573315
4.209578 0.891062 -0.573395
4.209550 0.889348 -0.596563
4.209164 0.862191 -0.596486
4.233281 0.864462 -0.573376
4.233552 0.890767 -0.573456
4.233525 0.889052 -0.596624
4.233138 0.861896 -0.596547
4.209579 0.891095 -0.573457
4.209850 0.917402 -0.573539
4.209967 0.916534 -0.596703
4.209551 0.889381 -0.596625
4.233553 0.890787 -0.573394
4.233824 0.917094 -0.573476
4.233941 0.916226 -0.596639
4.233525 0.889073 -0.596561
4.209851 0.917445 -0.573614
4.210121 0.941749 -0.573701
4.210404 0.941737 -0.596862
4.209968 0.916576 -0.596778
4.233823 0.917103 -0.573401
4.234094 0.941408 -0.573487
4.234377 0.941396 -0.596648
4.233941 0.916235 -0.596564
4.220122 0.941548 -0.585405
4.219852 0.917244 -0.585318
4.195573 0.913485 -0.581242
4.194684 0.936963 -0.581168
4.224067 0.941605 -0.561756
4.223797 0.917301 -0.561669
4.199518 0.913542 -0.557593
4.198629 0.937020 -0.557519
4.194667 0.936942 -0.581165
4.195556 0.913464 -0.581239
4.171275 0.909709 -0.577175
4.169229 0.932354 -0.576937
4.198596 0.937032 -0.557513
4.199486 0.913554 -0.557587
4.175204 0.909799 -0.553523
4.173159 0.932444 -0.553285
4.219838 0.917226 -0.585316
4.219566 0.890918 -0.585234
4.196444 0.887994 -0.581330
4.195559 0.913467 -0.581240
4.223812 0.917269 -0.561672
4.223541 0.890962 -0.561590
4.200418 0.888037 -0.557686
4.199533 0.913510 -0.557595
4.195539 0.913448 -0.581236
4.196424 0.887975 -0.581327
4.173302 0.885049 -0.577418
4.171258 0.909693 -0.577172
4.199506 0.913521 -0.557591
4.200390 0.888048 -0.557681
4.177269 0.885122 -0.553773
4.175224 0.909766 -0.553527
4.219553 0.890891 -0.585232
4.219281 0.864587 -0.585152
4.197317 0.862491 -0.581412
4.196430 0.887967 -0.581328
4.223555 0.890937 -0.561592
4.223284 0.864632 -0.561512
4.201319 0.862537 -0.557772
4.200432 0.888012 -0.557688
4.196406 0.887948 -0.581324
4.197293 0.862472 -0.581408
4.175330 0.860378 -0.577661
4.173285 0.885021 -0.577415
4.200411 0.888026 -0.557685
4.201298 0.862551 -0.557769
4.179335 0.860456 -0.554022
4.177290 0.885099 -0.553776
4.219265 0.864561 -0.585149
4.218994 0.838255 -0.585067
4.198187 0.836991 -0.581497
4.197300 0.862465 -0.581409
4.223301 0.864606 -0.561515
4.223030 0.838301 -0.561433
4.202223 0.837036 -0.557863
4.201336 0.862511 -0.557775
4.197274 0.862447 -0.581404
4.198160 0.836972 -0.581492
4.177355 0.835708 -0.577904
4.175311 0.860352 -0.577658
4.201320 0.862526 -0.557772
4.202206 0.837051 -0.557860
4.181401 0.835788 -0.554272
4.179357 0.860431 -0.554026
4.218975 0.838228 -0.585064
4.218704 0.811922 -0.584983
4.199054 0.811489 -0.581574
4.198168 0.836963 -0.581493
4.223050 0.838277 -0.561437
4.222779 0.811971 -0.561356
4.203129 0.811538 -0.557946
4.202242 0.837012 -0.557866
4.198139 0.836944 -0.581488
4.199026 0.811470 -0.581569
4.179381 0.811035 -0.578146
4.177334 0.835680 -0.577901
4.202230 0.837030 -0.557864
4.203117 0.811556 -0.557944
4.183471 0.811121 -0.554522
4.181425 0.835766 -0.554276
4.169471 0.810082 -0.566132
4.169913 0.809723 -0.540140
4.167868 0.834280 -0.539763
4.167424 0.834726 -0.565886
4.193361 0.812073 -0.566507
4.193803 0.811714 -0.540515
4.191758 0.836272 -0.540138
4.191315 0.836718 -0.566261
4.167422 0.834755 -0.565887
4.167865 0.834309 -0.539764
4.165834 0.858868 -0.539386
4.165378 0.859399 -0.565640
4.191313 0.836739 -0.566260
4.191756 0.836292 -0.540137
4.189725 0.860852 -0.539760
4.189269 0.861382 -0.566014
4.165376 0.859424 -0.565637
4.165832 0.858893 -0.539383
4.163804 0.883454 -0.539007
4.163331 0.884067 -0.565391
4.189267 0.861407 -0.566016
4.189723 0.860876 -0.539762
4.187695 0.885436 -0.539385
4.187222 0.886050 -0.565770
4.163329 0.884091 -0.565389
4.163802 0.883477 -0.539004
4.161769 0.908036 -0.538626
4.161284 0.908735 -0.565142
4.187219 0.886076 -0.565772
4.187693 0.885462 -0.539388
4.185659 0.910021 -0.539010
4.185175 0.910720 -0.565526
4.161290 0.908670 -0.565145
4.161774 0.907971 -0.538629
4.159735 0.930533 -0.538259
4.159244 0.931315 -0.564906
4.185165 0.910833 -0.565523
4.185650 0.910133 -0.539007
4.183610 0.932695 -0.538637
4.183120 0.933478 -0.565284
4.169913 0.809725 -0.540116
4.170338 0.809361 -0.514124
4.168320 0.833837 -0.513615
4.167868 0.834282 -0.539739
4.193804 0.811711 -0.540487
4.194229 0.811347 -0.514495
4.192211 0.835823 -0.513986
4.191759 0.836269 -0.540110
4.167866 0.834311 -0.539733
4.168318 0.833865 -0.513609
4.166303 0.858341 -0.513102
4.165834 0.858870 -0.539355
4.191757 0.836289 -0.540116
4.192209 0.835844 -0.513992
4.190194 0.860320 -0.513485
4.189726 0.860848 -0.539738
4.165832 0.858895 -0.539352
4.166301 0.858366 -0.513099
4.164285 0.882841 -0.512591
4.163805 0.883456 -0.538976
4.189724 0.860873 -0.539740
4.190192 0.860344 -0.513487
4.188176 0.884819 -0.512979
4.187696 0.885433 -0.539364
4.163803 0.883479 -0.538973
4.164283 0.882864 -0.512588
4.162267 0.907340 -0.512080
4.161769 0.908038 -0.538595
4.187694 0.885459 -0.539366
4.188174 0.884845 -0.512981
4.186158 0.909321 -0.512473
4.185660 0.910018 -0.538988
4.161775 0.907972 -0.538593
4.162273 0.907275 -0.512077
4.160256 0.929753 -0.511577
4.159735 0.930534 -0.538223
4.185650 0.910130 -0.538990
4.186148 0.909433 -0.512475
4.184131 0.931911 -0.511974
4.183611 0.932692 -0.538620
4.209079 0.796667 -0.574268
4.208778 0.811351 -0.573023
4.208285 0.807089 -0.596201
4.209230 0.795287 -0.596725
4.233026 0.797815 -0.574590
4.232725 0.812499 -0.573344
4.232232 0.808237 -0.596522
4.233176 0.796435 -0.597047
4.180509 0.797112 -0.578585
4.179226 0.811442 -0.578112
4.198872 0.811877 -0.581535
4.199667 0.797368 -0.582391
4.184911 0.796344 -0.555029
4.183629 0.810674 -0.554557
4.203274 0.811109 -0.557979
4.204069 0.796600 -0.558836
4.199689 0.797748 -0.582377
4.198894 0.812258 -0.581521
4.218544 0.812690 -0.584930
4.218845 0.798007 -0.586176
4.204085 0.796220 -0.558857
4.203290 0.810729 -0.558001
4.222940 0.811162 -0.561410
4.223241 0.796478 -0.562656
4.207275 0.731465 -0.572603
4.208174 0.764480 -0.573585
4.208393 0.764156 -0.596266
4.207589 0.732194 -0.595509
4.231242 0.730845 -0.572329
4.232140 0.763859 -0.573310
4.232360 0.763535 -0.595992
4.231555 0.731573 -0.595234
4.208174 0.764516 -0.573559
4.209069 0.797533 -0.574539
4.209220 0.796153 -0.596996
4.208394 0.764192 -0.596240
4.232141 0.763888 -0.573338
4.233036 0.796904 -0.574319
4.233186 0.795524 -0.596776
4.232361 0.763564 -0.596020
4.217291 0.730931 -0.584278
4.202229 0.731148 -0.581995
4.201076 0.763927 -0.582215
4.218189 0.763946 -0.585260
4.221210 0.731378 -0.560629
4.206148 0.731595 -0.558345
4.204995 0.764374 -0.558565
4.222108 0.764393 -0.561610
4.217928 0.763978 -0.585214
4.200815 0.763959 -0.582169
4.199667 0.796736 -0.582396
4.218822 0.796994 -0.586194
4.222369 0.764427 -0.561657
4.205256 0.764408 -0.558612
4.204108 0.797185 -0.558839
4.223264 0.797443 -0.562638
4.202202 0.731296 -0.581992
4.187140 0.731513 -0.579684
4.183941 0.764053 -0.579161
4.201049 0.764074 -0.582212
4.206142 0.731448 -0.558343
4.191080 0.731666 -0.556035
4.187882 0.764206 -0.555511
4.204990 0.764227 -0.558563
4.200790 0.764089 -0.582166
4.183682 0.764069 -0.579115
4.180485 0.796611 -0.578586
4.199643 0.796867 -0.582393
4.205244 0.764277 -0.558608
4.188136 0.764256 -0.555557
4.184939 0.796798 -0.555028
4.204096 0.797054 -0.558835
4.188813 0.712967 -0.580034
4.187245 0.731662 -0.579701
4.202308 0.731444 -0.582009
4.203077 0.713896 -0.582342
4.192545 0.712772 -0.556352
4.190978 0.731467 -0.556018
4.206040 0.731249 -0.558326
4.206809 0.713701 -0.558659
4.203106 0.713993 -0.582346
4.202337 0.731541 -0.582012
4.217399 0.731324 -0.584296
4.217378 0.714922 -0.584637
4.206809 0.713604 -0.558661
4.206040 0.731152 -0.558327
4.221102 0.730935 -0.560611
4.221081 0.714533 -0.560952
4.177166 0.730472 -0.567843
4.178734 0.711777 -0.568176
4.178752 0.713257 -0.542037
4.176808 0.732874 -0.549173
4.201042 0.732659 -0.567851
4.202610 0.713964 -0.568185
4.202628 0.715444 -0.542045
4.200684 0.735061 -0.549181
4.176824 0.732709 -0.549146
4.178768 0.713092 -0.542010
4.178767 0.714572 -0.515871
4.176449 0.735111 -0.530474
4.200667 0.735230 -0.549164
4.202611 0.715613 -0.542028
4.202610 0.717093 -0.515889
4.200292 0.737632 -0.530492
4.170769 0.795596 -0.566540
4.173967 0.763054 -0.567069
4.174127 0.763879 -0.547251
4.171472 0.794842 -0.545578
4.194637 0.797813 -0.567050
4.197834 0.765271 -0.567579
4.197995 0.766096 -0.547760
4.195340 0.797059 -0.546087
4.173967 0.763025 -0.567294
4.177165 0.730485 -0.567817
4.176806 0.732887 -0.549147
4.174127 0.763850 -0.547475
4.197840 0.765237 -0.567356
4.201039 0.732696 -0.567880
4.200680 0.735099 -0.549210
4.198001 0.766062 -0.547538
4.171461 0.794983 -0.545556
4.174115 0.764020 -0.547230
4.174290 0.764844 -0.527412
4.172153 0.794229 -0.524592
4.195353 0.796918 -0.546067
4.198008 0.765955 -0.547741
4.198182 0.766779 -0.527923
4.196045 0.796164 -0.525103
4.174114 0.764004 -0.547470
4.176793 0.733041 -0.549142
4.176418 0.735443 -0.530470
4.174288 0.764827 -0.527652
4.198014 0.765911 -0.547505
4.200693 0.734948 -0.549177
4.200318 0.737351 -0.530505
4.198188 0.766735 -0.527688
4.169494 0.809844 -0.566059
4.170777 0.795514 -0.566531
4.171481 0.794759 -0.545568
4.169936 0.809485 -0.540067
4.193341 0.812272 -0.566583
4.194624 0.797942 -0.567055
4.195328 0.797187 -0.546092
4.193783 0.811913 -0.540591
4.169966 0.809227 -0.540058
4.171510 0.794502 -0.545559
4.172202 0.793749 -0.524595
4.170390 0.808863 -0.514066
4.193755 0.812169 -0.540553
4.195300 0.797444 -0.546055
4.195992 0.796690 -0.525090
4.194180 0.811805 -0.514562
4.160441 0.965051 -0.575836
4.189109 0.967235 -0.580627
4.193968 0.954156 -0.581135
4.167576 0.951896 -0.576938
4.164280 0.965353 -0.552171
4.192947 0.967537 -0.556962
4.197807 0.954458 -0.557470
4.171415 0.952199 -0.553273
4.189082 0.966856 -0.580611
4.215750 0.969048 -0.585450
4.220325 0.956038 -0.585343
4.193941 0.953777 -0.581120
4.193028 0.967920 -0.556986
4.219696 0.970111 -0.561825
4.224271 0.957101 -0.561718
4.197888 0.954841 -0.557495
4.151445 0.960271 -0.563259
4.158580 0.947116 -0.564361
4.159083 0.947200 -0.537428
4.153982 0.961382 -0.536635
4.173250 0.970132 -0.564717
4.180385 0.956977 -0.565819
4.180889 0.957062 -0.538886
4.175787 0.971243 -0.538093
4.153219 0.963813 -0.536181
4.158321 0.949632 -0.536975
4.158828 0.949718 -0.510042
4.157759 0.964922 -0.509560
4.176554 0.968813 -0.538492
4.181655 0.954632 -0.539286
4.182163 0.954718 -0.512352
4.181094 0.969922 -0.511871
4.159236 0.931411 -0.564887
4.159727 0.930628 -0.538240
4.158046 0.951107 -0.537949
4.157543 0.951023 -0.564882
4.183124 0.933425 -0.565304
4.183615 0.932642 -0.538657
4.181934 0.953121 -0.538366
4.181430 0.953037 -0.565299
4.159724 0.930666 -0.538205
4.160245 0.929885 -0.511558
4.158551 0.951232 -0.510981
4.158044 0.951145 -0.537914
4.183618 0.932603 -0.538638
4.184139 0.931822 -0.511991
4.182445 0.953168 -0.511414
4.181937 0.953082 -0.538348
4.169284 0.932307 -0.576945
4.167590 0.951919 -0.576941
4.193982 0.954178 -0.581138
4.194721 0.936895 -0.581174
4.173102 0.932532 -0.553276
4.171408 0.952144 -0.553272
4.197800 0.954404 -0.557469
4.198539 0.937121 -0.557504
4.194725 0.937011 -0.581175
4.193986 0.954294 -0.581139
4.220369 0.956555 -0.585362
4.220163 0.941596 -0.585412
4.198588 0.937012 -0.557512
4.197849 0.954295 -0.557476
4.224232 0.956556 -0.561699
4.224026 0.941597 -0.561749
4.211081 0.952396 -0.573129
4.206506 0.965406 -0.573236
4.206127 0.963709 -0.593408
4.210985 0.951083 -0.596085
4.233541 0.960744 -0.573958
4.228966 0.973754 -0.574065
4.228588 0.972057 -0.594238
4.233446 0.959430 -0.596915
4.210120 0.941612 -0.573643
4.210326 0.956571 -0.573593
4.210230 0.955257 -0.596550
4.210403 0.941601 -0.596804
4.234095 0.941583 -0.573545
4.234301 0.956542 -0.573495
4.234206 0.955228 -0.596451
4.234378 0.941572 -0.596706
4.149678 0.984443 -0.561121
4.150423 0.964555 -0.562913
4.152960 0.965666 -0.536288
