3.803817 0.916271 -0.792100
3.712983 0.928368 -0.812301
3.701403 0.935299 -0.812904
3.717638 0.942529 -0.811798
3.741126 0.930759 -0.810628
3.712095 0.928126 -0.797285
3.700515 0.935057 -0.797887
3.716750 0.942287 -0.796781
3.740238 0.930518 -0.795611
3.741154 0.930792 -0.810625
3.717666 0.942561 -0.811796
3.733900 0.949790 -0.810685
3.769293 0.933187 -0.808889
3.740255 0.930495 -0.795610
3.716767 0.942265 -0.796781
3.733001 0.949494 -0.795670
3.768393 0.932890 -0.793874
3.804453 0.910870 -0.810123
3.763057 0.914286 -0.812522
3.763486 0.921986 -0.808857
3.804894 0.919454 -0.806457
3.803221 0.904770 -0.796426
3.761825 0.908186 -0.798825
3.762254 0.915885 -0.795160
3.803662 0.913353 -0.792760
3.763028 0.914608 -0.812373
3.721631 0.918036 -0.814778
3.722046 0.924832 -0.811072
3.763456 0.922307 -0.808708
3.761772 0.907870 -0.798979
3.720376 0.911298 -0.801385
3.720790 0.918095 -0.797678
3.762201 0.915570 -0.795314
3.721567 0.918381 -0.814599
3.680155 0.921356 -0.816953
3.680561 0.927405 -0.813267
3.721981 0.925177 -0.810893
3.720357 0.910959 -0.801568
3.678945 0.913934 -0.803922
3.679351 0.919983 -0.800236
3.720771 0.917755 -0.797862
3.679782 0.921511 -0.816888
3.638225 0.921037 -0.818891
3.638694 0.927000 -0.815340
3.680188 0.927559 -0.813201
3.679235 0.913782 -0.803991
3.637678 0.913308 -0.805994
3.638147 0.919271 -0.802444
3.679641 0.919830 -0.800305
3.638185 0.920975 -0.818929
3.596632 0.920512 -0.820934
3.597156 0.926375 -0.817505
3.638655 0.926939 -0.815379
3.637634 0.913368 -0.805960
3.596081 0.912905 -0.807965
3.596605 0.918768 -0.804536
3.638104 0.919332 -0.802410
3.596590 0.920474 -0.820958
3.555045 0.920016 -0.822964
3.555618 0.925767 -0.819626
3.597114 0.926336 -0.817529
3.596041 0.912943 -0.807945
3.554495 0.912485 -0.809951
3.555068 0.918236 -0.806613
3.596564 0.918805 -0.804516
3.633643 0.952028 -0.816332
3.650766 0.944037 -0.815501
3.624708 0.933374 -0.817036
3.594708 0.937077 -0.818483
3.632868 0.951833 -0.801309
3.649991 0.943841 -0.800477
3.623933 0.933179 -0.802012
3.593934 0.936882 -0.803459
3.650793 0.944044 -0.815499
3.667921 0.936052 -0.814748
3.654727 0.929676 -0.815507
3.624735 0.933382 -0.817035
3.650011 0.943822 -0.800476
3.667139 0.935829 -0.799725
3.653946 0.929454 -0.800484
3.623954 0.933160 -0.802012
3.594665 0.937059 -0.818485
3.624664 0.933356 -0.817039
3.597233 0.922672 -0.818532
3.555737 0.922102 -0.820629
3.593912 0.936875 -0.803460
3.623912 0.933172 -0.802014
3.596480 0.922488 -0.803507
3.554984 0.921919 -0.805604
3.624711 0.933331 -0.817036
3.654703 0.929625 -0.815509
3.638777 0.923211 -0.816404
3.597279 0.922647 -0.818530
3.623937 0.933194 -0.802012
3.653929 0.929488 -0.800485
3.638004 0.923074 -0.801380
3.596505 0.922510 -0.803506
3.654721 0.929579 -0.815509
3.680944 0.927908 -0.814309
3.680290 0.923723 -0.814265
3.638796 0.923165 -0.816404
3.653980 0.929532 -0.800482
3.680203 0.927862 -0.799282
3.679548 0.923677 -0.799238
3.638055 0.923118 -0.801377
3.555724 0.922030 -0.820630
3.557343 0.965566 -0.820391
3.591232 0.973043 -0.818833
3.594652 0.936986 -0.818486
3.554959 0.922033 -0.805605
3.556579 0.965569 -0.805366
3.590467 0.973046 -0.803808
3.593887 0.936989 -0.803461
3.557296 0.965565 -0.820394
3.558963 1.009123 -0.820473
3.590371 1.007743 -0.819150
3.591185 0.973043 -0.818835
3.556625 0.965648 -0.805364
3.558292 1.009206 -0.805443
3.589700 1.007826 -0.804120
3.590514 0.973126 -0.803806
3.594711 0.936922 -0.818483
3.591290 0.972979 -0.818830
3.624287 0.978508 -0.817313
3.633645 0.951873 -0.816333
3.593901 0.937075 -0.803460
3.590481 0.973132 -0.803807
3.623477 0.978661 -0.802290
3.632836 0.952026 -0.801310
3.591226 0.973014 -0.818833
3.590412 1.007714 -0.819148
3.621823 1.006333 -0.817755
3.624222 0.978543 -0.817316
3.590537 0.973160 -0.803805
3.589723 1.007860 -0.804119
3.621135 1.006479 -0.802726
3.623534 0.978689 -0.802288
3.558837 1.011359 -0.820157
3.519203 1.011548 -0.822105
3.513858 1.021102 -0.818783
3.545260 1.024659 -0.817252
3.558338 1.007023 -0.805760
3.518704 1.007211 -0.807707
3.513358 1.016766 -0.804385
3.544761 1.020323 -0.802854
3.519344 1.012104 -0.821906
3.479748 1.013285 -0.823931
3.482636 1.022151 -0.820230
3.513999 1.021659 -0.818584
3.518492 1.006654 -0.807909
3.478895 1.007835 -0.809934
3.481783 1.016701 -0.806233
3.513146 1.016208 -0.804587
3.479933 1.012813 -0.824083
3.440374 1.014922 -0.826351
3.451530 1.025897 -0.822533
3.482821 1.021679 -0.820382
3.478639 1.008311 -0.809786
3.439080 1.010420 -0.812053
3.450236 1.021395 -0.808236
3.481527 1.017177 -0.806085
3.814612 0.928856 -0.812071
3.821177 0.911494 -0.805901
3.804283 0.913883 -0.806692
3.814663 0.933911 -0.797901
3.821228 0.916549 -0.791731
3.804334 0.918938 -0.792522
3.821932 0.916928 -0.805711
3.821147 0.908542 -0.809352
3.804597 0.910734 -0.810168
3.805038 0.919317 -0.806503
3.820470 0.911095 -0.791920
3.819685 0.902709 -0.795561
3.803136 0.904901 -0.796377
3.803577 0.913484 -0.792712
3.810103 1.083653 -0.806372
3.769839 1.073897 -0.808492
3.744482 1.079497 -0.809665
3.771693 1.089139 -0.808108
3.809367 1.083364 -0.791348
3.769103 1.073608 -0.793468
3.743746 1.079208 -0.794641
3.770958 1.088850 -0.793084
3.769818 1.073832 -0.808494
3.729557 1.064080 -0.810606
3.717246 1.069781 -0.811210
3.744461 1.079432 -0.809667
3.769056 1.073654 -0.793469
3.728794 1.063902 -0.795581
3.716483 1.069603 -0.796186
3.743699 1.079253 -0.794643
3.771670 1.089190 -0.808108
3.744458 1.079548 -0.809665
3.719100 1.085139 -0.810845
3.733262 1.094680 -0.809843
3.770917 1.088810 -0.793087
3.743706 1.079168 -0.794644
3.718347 1.084759 -0.795824
3.732510 1.094300 -0.794822
3.744460 1.079479 -0.809667
3.717245 1.069828 -0.811210
3.704938 1.075542 -0.811836
3.719102 1.085070 -0.810846
3.743662 1.079218 -0.794645
3.716447 1.069567 -0.796188
3.704139 1.075281 -0.796814
3.718303 1.084809 -0.795825
3.733241 1.094750 -0.809842
3.719078 1.085209 -0.810844
3.693721 1.090814 -0.812013
3.694836 1.100235 -0.811586
3.732467 1.094242 -0.794826
3.718304 1.084701 -0.795828
3.692946 1.090306 -0.796997
3.694061 1.099726 -0.796569
3.719104 1.085167 -0.810844
3.704940 1.075639 -0.811833
3.692631 1.081338 -0.812440
3.693746 1.090772 -0.812013
3.718263 1.084723 -0.795829
3.704099 1.075195 -0.796818
3.691790 1.080894 -0.797425
3.692905 1.090328 -0.796998
3.810751 1.090911 -0.799790
3.772342 1.096397 -0.801526
3.772534 1.098080 -0.783994
3.811109 1.093684 -0.781668
3.808753 1.076118 -0.797911
3.770344 1.081604 -0.799646
3.770536 1.083288 -0.782115
3.809111 1.078891 -0.779788
3.772290 1.096446 -0.801093
3.733882 1.101936 -0.802828
3.733911 1.102563 -0.785894
3.772482 1.098129 -0.783561
3.770318 1.081565 -0.800083
3.731911 1.087055 -0.801818
3.731939 1.087682 -0.784884
3.770510 1.083248 -0.782552
3.733889 1.101950 -0.802509
3.695483 1.107435 -0.804253
3.695533 1.107624 -0.787756
3.733917 1.102577 -0.785575
3.731827 1.087051 -0.802141
3.693421 1.092536 -0.803884
3.693471 1.092725 -0.787388
3.731855 1.087678 -0.785207
3.695294 1.107460 -0.804211
3.651012 1.112533 -0.806738
3.651022 1.112963 -0.789960
3.695344 1.107649 -0.787714
3.693528 1.092522 -0.803930
3.649246 1.097594 -0.806457
3.649256 1.098024 -0.789679
3.693577 1.092711 -0.787433
3.650973 1.112534 -0.806848
3.606691 1.117593 -0.809377
3.606662 1.118292 -0.792317
3.650983 1.112964 -0.790071
3.649196 1.097603 -0.806352
3.604914 1.102662 -0.808880
3.604885 1.103361 -0.791820
3.649206 1.098033 -0.789574
3.606638 1.117593 -0.809529
3.561786 1.122528 -0.812146
3.562289 1.123614 -0.794714
3.606609 1.118292 -0.792469
3.604878 1.102673 -0.808733
3.560026 1.107608 -0.811350
3.560529 1.108694 -0.793918
3.604849 1.103371 -0.791673
3.692638 1.081385 -0.812438
3.678090 1.077820 -0.813409
3.664339 1.091560 -0.813764
3.693753 1.090820 -0.812011
3.691743 1.080851 -0.797429
3.677194 1.077285 -0.798400
3.663443 1.091026 -0.798756
3.692857 1.090285 -0.797002
3.678072 1.077797 -0.813410
3.663525 1.074217 -0.814382
3.634907 1.092291 -0.815532
3.664321 1.091538 -0.813766
3.677169 1.077305 -0.798401
3.662622 1.073725 -0.799373
3.634004 1.091799 -0.800522
3.663418 1.091045 -0.798756
3.663503 1.074211 -0.814384
3.648956 1.070645 -0.815383
3.605471 1.093024 -0.817269
3.634885 1.092285 -0.815533
3.662600 1.073728 -0.799374
3.648053 1.070162 -0.800372
3.604568 1.092541 -0.802259
3.633982 1.091802 -0.800523
3.693757 1.090840 -0.812010
3.664342 1.091581 -0.813763
3.650590 1.105334 -0.814109
3.694872 1.100261 -0.811583
3.692841 1.090288 -0.797003
3.663427 1.091029 -0.798756
3.649675 1.104782 -0.799103
3.693957 1.099709 -0.796576
3.664306 1.091575 -0.813766
3.634892 1.092328 -0.815531
3.606271 1.110387 -0.816640
3.650554 1.105328 -0.814112
3.663390 1.091040 -0.798758
3.633976 1.091793 -0.800524
3.605355 1.109852 -0.801633
3.649637 1.104793 -0.799104
3.634856 1.092314 -0.815534
3.605442 1.093053 -0.817270
3.561384 1.115309 -0.819260
3.606235 1.110373 -0.816643
3.633938 1.091813 -0.800525
3.604524 1.092552 -0.802262
3.560465 1.114807 -0.804251
3.605317 1.109872 -0.801634
3.542462 1.096570 -0.817942
3.513316 1.101941 -0.818944
3.521411 1.118219 -0.821481
3.561072 1.114055 -0.819209
3.542033 1.098589 -0.803039
3.512887 1.103960 -0.804042
3.520981 1.120238 -0.806578
3.560643 1.116073 -0.804307
3.513364 1.101673 -0.818901
3.483955 1.102439 -0.820261
3.481783 1.121648 -0.823624
3.521459 1.117951 -0.821438
3.512769 1.104235 -0.804088
3.483360 1.105001 -0.805447
3.481189 1.124210 -0.808811
3.520864 1.120513 -0.806624
3.483979 1.102585 -0.820283
3.454443 1.100497 -0.821697
3.442046 1.125114 -0.825738
3.481807 1.121793 -0.823647
3.483268 1.104858 -0.805428
3.453732 1.102770 -0.806842
3.441335 1.127388 -0.810883
3.481096 1.124067 -0.808791
3.561710 1.122527 -0.812309
3.522049 1.126691 -0.814581
3.523299 1.128013 -0.797245
3.562213 1.123613 -0.794877
3.560019 1.107619 -0.811191
3.520358 1.111783 -0.813463
3.521608 1.113106 -0.796127
3.560522 1.108705 -0.793759
3.521920 1.126695 -0.814702
3.482244 1.130392 -0.816888
3.484211 1.131854 -0.800008
3.523170 1.128017 -0.797366
3.520408 1.111788 -0.813346
3.480732 1.115484 -0.815533
3.482699 1.116947 -0.798653
3.521659 1.113110 -0.796010
3.482118 1.130397 -0.816955
3.442358 1.133719 -0.819046
3.445102 1.135117 -0.802934
3.484085 1.131859 -0.800075
3.480779 1.115486 -0.815471
3.441019 1.118807 -0.817562
3.443763 1.120205 -0.801450
3.482746 1.116948 -0.798591
3.818743 1.063220 -0.811589
3.810442 1.085532 -0.806073
3.829859 1.082434 -0.805162
3.817418 1.059161 -0.797163
3.809118 1.081473 -0.791647
3.828534 1.078375 -0.790735
3.830632 1.087740 -0.798847
3.811216 1.090839 -0.799759
3.811574 1.093611 -0.781636
3.828711 1.089678 -0.781494
3.827761 1.073085 -0.797028
3.808344 1.076183 -0.797939
3.808703 1.078955 -0.779817
3.825839 1.075022 -0.779675
4.170031 0.792233 -0.792745
4.172547 0.830536 -0.792934
4.184762 0.830129 -0.793064
4.182134 0.791759 -0.792795
4.170145 0.792315 -0.777701
4.172662 0.830618 -0.777889
4.184876 0.830211 -0.778019
4.182249 0.791841 -0.777751
4.172523 0.830611 -0.792934
4.174796 0.868935 -0.792976
4.187245 0.868582 -0.793121
4.184738 0.830204 -0.793064
4.172691 0.830620 -0.777890
4.174964 0.868945 -0.777932
4.187413 0.868591 -0.778077
4.184906 0.830213 -0.778020
4.174783 0.868915 -0.792975
4.172815 0.907236 -0.793259
4.187431 0.906939 -0.793458
4.187232 0.868562 -0.793121
4.174978 0.869041 -0.777932
4.173009 0.907362 -0.778216
4.187625 0.907065 -0.778415
4.187427 0.868688 -0.778078
4.182143 0.791751 -0.792795
4.184771 0.830121 -0.793064
4.196987 0.829712 -0.793159
4.194247 0.791279 -0.792889
4.182264 0.791848 -0.777751
4.184892 0.830218 -0.778019
4.197107 0.829809 -0.778115
4.194367 0.791377 -0.777845
4.184732 0.830190 -0.793064
4.187240 0.868568 -0.793121
4.199689 0.868216 -0.793357
4.196948 0.829781 -0.793159
4.184936 0.830226 -0.778020
4.187443 0.868605 -0.778078
4.199893 0.868252 -0.778314
4.197151 0.829817 -0.778116
4.187238 0.868572 -0.793121
4.187436 0.906949 -0.793458
4.202097 0.906645 -0.793597
4.199687 0.868219 -0.793357
4.187449 0.868678 -0.778078
4.187647 0.907055 -0.778415
4.202308 0.906751 -0.778554
4.199898 0.868325 -0.778314
4.216538 0.742242 -0.836450
4.220543 0.790627 -0.837726
4.233182 0.789566 -0.832539
4.232718 0.740402 -0.830982
4.211382 0.742888 -0.822331
4.215387 0.791273 -0.823607
4.228027 0.790213 -0.818419
4.227562 0.741048 -0.816862
4.211292 0.791439 -0.834120
4.187667 0.791772 -0.788863
4.190407 0.830205 -0.789133
4.212519 0.829523 -0.831657
4.224607 0.790550 -0.827173
4.200982 0.790883 -0.781915
4.203722 0.829315 -0.782185
4.225834 0.828634 -0.824709
4.212514 0.829560 -0.831642
4.190402 0.830242 -0.789118
4.193143 0.868677 -0.789317
4.214068 0.867646 -0.829904
4.225843 0.828673 -0.824722
4.203731 0.829354 -0.782198
4.206472 0.867789 -0.782396
4.227398 0.866758 -0.822984
4.214053 0.867618 -0.829879
4.193128 0.868649 -0.789291
4.195538 0.907075 -0.789531
4.214868 0.905681 -0.827500
4.227416 0.866863 -0.823008
4.206491 0.867894 -0.782420
4.208901 0.906319 -0.782660
4.228231 0.904925 -0.820629
4.214851 0.905709 -0.827465
4.195521 0.907103 -0.789496
4.197356 0.936730 -0.789616
4.214860 0.934889 -0.824540
4.228250 0.904965 -0.820662
4.208920 0.906359 -0.782693
4.210754 0.935985 -0.782813
4.228258 0.934145 -0.817737
4.220522 0.791246 -0.837737
4.221749 0.829330 -0.835274
4.234279 0.828188 -0.831446
4.233161 0.790186 -0.832550
4.215412 0.790741 -0.823595
4.216639 0.828825 -0.821132
4.229169 0.827683 -0.817305
4.228051 0.789680 -0.818408
4.221258 0.829307 -0.835433
4.222812 0.867393 -0.833695
4.234930 0.866177 -0.830557
4.233787 0.828165 -0.831606
4.217133 0.828924 -0.820969
4.218688 0.867009 -0.819231
4.230806 0.865794 -0.816093
4.229663 0.827782 -0.817142
4.222802 0.867690 -0.833685
4.223617 0.905752 -0.831306
4.235281 0.904414 -0.827849
4.234920 0.866474 -0.830546
4.218699 0.866788 -0.819238
4.219514 0.904851 -0.816860
4.231178 0.903512 -0.813402
4.230817 0.865573 -0.816100
4.223762 0.906050 -0.831239
4.223770 0.935229 -0.828314
4.235188 0.933789 -0.824966
4.235427 0.904711 -0.827782
4.219369 0.904621 -0.816921
4.219377 0.933801 -0.813996
4.230794 0.932361 -0.810648
4.231033 0.903283 -0.813464
4.202909 0.667906 -0.832779
4.178089 0.669765 -0.788686
4.181168 0.706260 -0.789093
4.205356 0.705423 -0.832955
4.216015 0.666985 -0.825448
4.191195 0.668844 -0.781355
4.194274 0.705339 -0.781763
4.218462 0.704502 -0.825625
4.205327 0.705371 -0.832908
4.181139 0.706209 -0.789046
4.183074 0.742781 -0.788560
4.207353 0.742895 -0.832988
4.218497 0.704628 -0.825672
4.194308 0.705465 -0.781810
4.196244 0.742037 -0.781324
4.220522 0.742151 -0.825752
4.216498 0.742295 -0.836467
4.232678 0.740455 -0.830998
4.232564 0.704213 -0.829481
4.214472 0.704772 -0.836386
4.211419 0.742749 -0.822312
4.227599 0.740909 -0.816844
4.227486 0.704667 -0.815326
4.209393 0.705226 -0.822232
4.214735 0.704673 -0.836283
4.232828 0.704115 -0.829377
4.230721 0.667883 -0.828333
4.212287 0.667157 -0.836106
4.209127 0.705250 -0.822334
4.227219 0.704692 -0.815429
4.225113 0.668460 -0.814384
4.206679 0.667734 -0.822158
4.170087 0.792222 -0.792746
4.182191 0.791748 -0.792795
4.176153 0.759851 -0.792651
4.162671 0.777257 -0.792765
4.170079 0.792265 -0.777701
4.182183 0.791791 -0.777751
4.176145 0.759894 -0.777606
4.162663 0.777300 -0.777720
4.182195 0.791706 -0.792795
4.194298 0.791234 -0.792889
4.189640 0.742402 -0.792442
4.176157 0.759809 -0.792650
4.182204 0.791815 -0.777751
4.194307 0.791343 -0.777844
4.189648 0.742511 -0.777397
4.176166 0.759918 -0.777606
4.245179 1.007123 -0.787372
4.209267 1.018109 -0.786241
4.211061 1.019400 -0.755326
4.244521 1.009331 -0.758696
4.240873 0.992738 -0.786445
4.204961 1.003723 -0.785314
4.206755 1.005014 -0.754400
4.240215 0.994945 -0.757769
4.249806 0.978235 -0.821361
4.270510 0.981249 -0.818101
4.264352 0.960823 -0.820298
4.248363 0.962414 -0.820251
4.248500 0.978060 -0.806374
4.269204 0.981073 -0.803114
4.263045 0.960647 -0.805311
4.247057 0.962239 -0.805264
3.188696 0.809481 -0.880846
3.191806 0.848445 -0.872202
3.210790 0.855269 -0.874718
3.208249 0.822028 -0.881869
3.191710 0.806107 -0.866498
3.194820 0.845071 -0.857854
3.213803 0.851895 -0.860369
3.211263 0.818654 -0.867520
3.191722 0.848488 -0.872174
3.194875 0.887443 -0.863554
3.213233 0.888553 -0.867478
3.210706 0.855312 -0.874689
3.194910 0.845100 -0.857866
3.198063 0.884054 -0.849246
3.216421 0.885165 -0.853171
3.213893 0.851924 -0.860382
3.194812 0.887485 -0.863529
3.197936 0.926444 -0.854893
3.215741 0.921821 -0.860213
3.213170 0.888596 -0.867454
3.198131 0.884084 -0.849255
3.201255 0.923042 -0.840618
3.219060 0.918419 -0.845939
3.216489 0.885195 -0.853179
3.197890 0.926483 -0.854873
3.201062 0.965445 -0.846262
3.218251 0.955077 -0.852916
3.215695 0.921860 -0.860193
3.201307 0.923075 -0.840623
3.204479 0.962037 -0.832012
3.221667 0.951669 -0.838666
3.219112 0.918452 -0.845943
3.200994 0.965470 -0.846239
3.204143 1.004434 -0.837635
3.220759 0.988345 -0.845739
3.218183 0.955102 -0.852894
3.204553 0.962084 -0.832019
3.207702 1.001048 -0.823414
3.224318 0.984959 -0.831519
3.221741 0.951717 -0.838673
3.196570 0.808154 -0.877646
3.189555 0.809777 -0.888699
3.192741 0.849429 -0.880012
3.199679 0.847118 -0.869002
3.183811 0.807426 -0.869707
3.176796 0.809049 -0.880760
3.179982 0.848700 -0.872073
3.186920 0.846390 -0.861063
3.199693 0.847151 -0.868977
3.192755 0.849462 -0.879987
3.195908 0.889125 -0.871297
3.202846 0.886106 -0.860357
3.186913 0.846436 -0.861071
3.179975 0.848746 -0.872081
3.183127 0.888409 -0.863391
3.190066 0.885390 -0.852451
3.202865 0.886134 -0.860323
3.195927 0.889152 -0.871264
3.199160 0.928811 -0.862602
3.205989 0.925092 -0.851687
3.190053 0.885441 -0.852467
3.183115 0.888460 -0.863407
3.186348 0.928118 -0.854746
3.193177 0.924399 -0.843830
3.206010 0.925123 -0.851650
3.199181 0.928842 -0.862565
3.202366 0.968500 -0.853896
3.209182 0.964084 -0.843039
3.193162 0.924448 -0.843851
3.186333 0.928166 -0.854766
3.189519 0.967825 -0.846097
3.196334 0.963409 -0.835240
3.209191 0.964123 -0.843021
3.202375 0.968539 -0.853879
3.205560 1.008202 -0.845203
3.212340 1.003087 -0.834417
3.196332 0.963449 -0.835240
3.189516 0.967865 -0.846098
3.192701 1.007527 -0.837422
3.199481 1.002413 -0.826636
3.190322 0.809404 -0.887075
3.182156 0.812631 -0.913104
3.184191 0.853768 -0.906145
3.193507 0.849056 -0.878388
3.176015 0.809428 -0.882421
3.167848 0.812654 -0.908450
3.169884 0.853791 -0.901491
3.179200 0.849079 -0.873734
3.181543 0.812934 -0.914486
3.169496 0.816018 -0.935540
3.170597 0.858180 -0.930419
3.183579 0.854071 -0.907527
3.168439 0.812359 -0.907117
3.156392 0.815443 -0.928171
3.157493 0.857605 -0.923050
3.170475 0.853496 -0.900158
3.163391 0.816629 -0.939321
3.136069 0.819112 -0.940753
3.135093 0.860344 -0.935841
3.164492 0.858791 -0.934201
3.162456 0.814837 -0.924413
3.135134 0.817320 -0.925844
3.134158 0.858552 -0.920933
3.163557 0.856999 -0.919292
3.193469 0.849123 -0.878502
3.184153 0.853835 -0.906259
3.186222 0.894936 -0.899266
3.196622 0.888786 -0.869812
3.179243 0.849092 -0.873605
3.169927 0.853804 -0.901362
3.171996 0.894905 -0.894370
3.182396 0.888755 -0.864916
3.183599 0.854102 -0.907489
3.170617 0.858211 -0.930381
3.171767 0.900412 -0.925270
3.185668 0.895203 -0.900496
3.170457 0.853548 -0.900185
3.157476 0.857658 -0.923077
3.158625 0.899858 -0.917966
3.172526 0.894649 -0.893192
3.164483 0.858831 -0.934197
3.135084 0.860384 -0.935837
3.134114 0.901610 -0.930933
3.165632 0.901032 -0.929086
3.163566 0.857043 -0.919286
3.134167 0.858596 -0.920927
3.133198 0.899822 -0.916023
3.164716 0.899244 -0.914176
3.196587 0.888838 -0.869911
3.186187 0.894988 -0.899365
3.188303 0.936070 -0.892361
3.199821 0.928497 -0.861249
3.182436 0.888784 -0.864802
3.172036 0.894935 -0.894256
3.174152 0.936016 -0.887252
3.185670 0.928443 -0.856140
3.185688 0.895232 -0.900458
3.171787 0.900441 -0.925232
3.172990 0.942663 -0.920106
3.187804 0.936314 -0.893455
3.172510 0.894703 -0.893218
3.158608 0.899912 -0.917992
3.159812 0.942134 -0.912867
3.174626 0.935785 -0.886215
3.165625 0.901074 -0.929081
3.134107 0.901652 -0.930929
3.133134 0.942886 -0.926030
3.166829 0.943296 -0.923956
3.164723 0.899285 -0.914170
3.133206 0.899863 -0.916018
3.132233 0.941097 -0.911119
3.165927 0.941507 -0.909045
3.199790 0.928562 -0.861331
3.188272 0.936135 -0.892444
3.190396 0.977190 -0.885392
3.202975 0.968221 -0.852663
3.185706 0.928458 -0.856042
3.174188 0.936032 -0.887154
3.176312 0.977086 -0.880103
3.188891 0.968117 -0.847374
3.187826 0.936346 -0.893412
3.173012 0.942695 -0.920064
3.174271 0.984948 -0.914960
3.189949 0.977400 -0.886361
3.174607 0.935837 -0.886245
3.159794 0.942186 -0.912897
3.161053 0.984439 -0.907793
3.176731 0.976891 -0.879194
3.166819 0.943337 -0.923951
3.133124 0.942926 -0.926026
3.132166 0.984159 -0.921110
3.168078 0.985590 -0.918848
3.165937 0.941550 -0.909039
3.132243 0.941140 -0.911113
3.131284 0.982373 -0.906197
3.167196 0.983804 -0.903935
3.202948 0.968278 -0.852732
3.190369 0.977248 -0.885461
3.192500 1.018271 -0.878383
3.206133 1.007941 -0.844056
3.188923 0.968140 -0.847289
3.176344 0.977109 -0.880018
3.178475 1.018132 -0.872941
3.192108 1.007802 -0.838613
3.189975 0.977431 -0.886311
3.174297 0.984979 -0.914910
3.175613 1.027268 -0.909790
3.192106 1.018454 -0.879234
3.176709 0.976943 -0.879231
3.161031 0.984492 -0.907831
3.162347 1.026780 -0.902710
3.178840 1.017966 -0.872154
3.168066 0.985633 -0.918843
3.132154 0.984202 -0.921106
3.131191 1.025427 -0.916193
3.169382 1.027921 -0.913722
3.167208 0.983845 -0.903930
3.131297 0.982414 -0.906192
3.130333 1.023639 -0.901280
3.168525 1.026133 -0.898809
3.128171 0.818213 -0.934560
3.125244 0.816584 -0.918137
3.124519 0.857512 -0.913337
3.127195 0.859445 -0.929649
3.143001 0.818220 -0.932021
3.140073 0.816591 -0.915597
3.139348 0.857519 -0.910798
3.142024 0.859452 -0.927110
3.127176 0.859477 -0.929534
3.124500 0.857544 -0.913222
3.123821 0.898479 -0.908421
3.126207 0.900703 -0.924630
3.142042 0.859502 -0.927216
3.139365 0.857568 -0.910904
3.138686 0.898503 -0.906103
3.141072 0.900728 -0.922312
3.126192 0.900722 -0.924529
3.123806 0.898498 -0.908321
3.123016 0.939425 -0.903543
3.125219 0.941956 -0.919631
3.141086 0.900791 -0.922403
3.138699 0.898567 -0.906194
3.137910 0.939494 -0.901416
3.140113 0.942025 -0.917504
3.125204 0.941999 -0.919519
3.123001 0.939469 -0.903431
3.122360 0.980394 -0.898616
3.124246 0.983232 -0.914603
3.140126 0.942063 -0.917606
3.137923 0.939533 -0.901518
3.137283 0.980458 -0.896704
3.139168 0.983296 -0.912690
3.124229 0.983254 -0.914467
3.122344 0.980416 -0.898481
3.121673 1.021350 -0.893672
3.123266 1.024479 -0.909555
3.139183 0.983356 -0.912816
3.137298 0.980518 -0.896830
3.136627 1.021452 -0.892022
3.138219 1.024582 -0.907904
3.177153 0.708386 -0.899752
3.170496 0.710506 -0.903377
3.176198 0.743514 -0.899185
3.182975 0.741558 -0.893083
3.168247 0.707948 -0.887635
3.161589 0.710069 -0.891259
3.167292 0.743076 -0.887067
3.174069 0.741120 -0.880965
3.184014 0.741260 -0.892163
3.177238 0.743216 -0.898266
3.182943 0.776220 -0.894071
3.189841 0.774437 -0.885507
3.173041 0.741485 -0.881874
3.166264 0.743441 -0.887976
3.171969 0.776445 -0.883781
3.178868 0.774662 -0.875217
3.190461 0.774239 -0.884744
3.183563 0.776022 -0.893308
3.189273 0.809033 -0.889123
3.196287 0.807410 -0.878071
3.178259 0.774926 -0.875970
3.171360 0.776710 -0.884534
3.177070 0.809720 -0.880350
3.184085 0.808098 -0.869297
3.117917 0.716802 -0.932441
3.114969 0.715159 -0.916022
3.118432 0.749171 -0.916707
3.121343 0.750812 -0.933133
3.132684 0.715356 -0.929951
3.129736 0.713714 -0.913533
3.133199 0.747726 -0.914218
3.136110 0.749367 -0.930643
3.121346 0.750839 -0.933131
3.118435 0.749198 -0.916706
3.121836 0.783213 -0.917406
3.124771 0.784853 -0.933827
3.136115 0.749408 -0.930646
3.133204 0.747767 -0.914220
3.136605 0.781782 -0.914920
3.139540 0.783422 -0.931342
3.124775 0.784890 -0.933832
3.121840 0.783251 -0.917410
3.125274 0.817269 -0.918115
3.128201 0.818897 -0.934539
3.139543 0.783453 -0.931339
3.136608 0.781813 -0.914918
3.140041 0.815832 -0.915623
3.142968 0.817460 -0.932047
3.367650 1.141829 -0.821746
3.328447 1.145019 -0.824469
3.328351 1.146549 -0.809349
3.367425 1.143288 -0.806598
3.366318 1.126914 -0.820287
3.327116 1.130104 -0.823010
3.327020 1.131634 -0.807890
3.366094 1.128373 -0.805139
3.328414 1.145017 -0.824520
3.289221 1.148212 -0.827221
3.289239 1.149843 -0.812134
3.328318 1.146547 -0.809401
3.327070 1.130113 -0.822964
3.287877 1.133308 -0.825664
3.287895 1.134939 -0.810578
3.326974 1.131643 -0.807844
3.289178 1.148210 -0.827268
3.249978 1.151398 -0.829959
3.250113 1.153082 -0.814900
3.289196 1.149842 -0.812181
3.287842 1.133316 -0.825623
3.248641 1.136503 -0.828313
3.248777 1.138187 -0.813255
3.287859 1.134947 -0.810536
3.249939 1.151398 -0.829985
3.210746 1.154596 -0.832667
3.210984 1.156299 -0.817633
3.250074 1.153083 -0.814926
3.248602 1.136509 -0.828292
3.209409 1.139707 -0.830975
3.209647 1.141409 -0.815941
3.248737 1.138193 -0.813234
3.210706 1.154597 -0.832690
3.171498 1.157780 -0.835349
3.171864 1.159520 -0.820342
3.210944 1.156300 -0.817656
3.209371 1.139712 -0.830958
3.170163 1.142895 -0.833617
3.170528 1.144635 -0.818609
3.209609 1.141415 -0.815924
3.212493 1.004230 -0.833860
3.205713 1.009345 -0.844647
3.197302 1.045263 -0.846096
3.203730 1.041092 -0.834838
3.199323 1.001345 -0.827185
3.192542 1.006460 -0.837971
3.184132 1.042378 -0.839420
3.190559 1.038207 -0.828162
3.203803 1.041155 -0.834660
3.197376 1.045326 -0.845918
3.188954 1.081242 -0.847356
3.195032 1.078010 -0.835661
3.190469 1.038217 -0.828342
3.184041 1.042388 -0.839600
3.175620 1.078303 -0.841038
3.181698 1.075071 -0.829343
3.195086 1.078071 -0.835514
3.189008 1.081303 -0.847209
3.180527 1.117201 -0.848638
3.186328 1.114930 -0.836510
3.181627 1.075083 -0.829493
3.175548 1.078314 -0.841188
3.167067 1.114213 -0.842616
3.172868 1.111942 -0.830488
3.186371 1.114984 -0.836384
3.180569 1.117255 -0.848512
3.172099 1.153162 -0.849929
3.177594 1.151833 -0.837381
3.172808 1.111961 -0.830617
3.167007 1.114232 -0.842744
3.158536 1.150138 -0.844162
3.164031 1.148809 -0.831614
3.206103 1.009462 -0.843649
3.192471 1.019792 -0.877977
3.183868 1.055231 -0.880020
3.197693 1.045380 -0.845098
3.192131 1.006358 -0.839014
3.178498 1.016687 -0.873341
3.169896 1.052127 -0.875384
3.183721 1.042276 -0.840463
3.197680 1.045415 -0.845116
3.183854 1.055266 -0.880037
3.176674 1.089362 -0.878712
3.189258 1.081330 -0.846554
3.183718 1.042311 -0.840447
3.169893 1.052163 -0.875368
3.162713 1.086258 -0.874043
3.175296 1.078227 -0.841885
3.189242 1.081379 -0.846570
3.176658 1.089411 -0.878727
3.170817 1.122207 -0.874011
3.180760 1.117278 -0.847998
3.175298 1.078247 -0.841868
3.162714 1.086279 -0.874025
3.156874 1.119075 -0.869309
3.166816 1.114146 -0.843297
3.180488 1.117662 -0.848460
3.170545 1.122592 -0.874473
3.162912 1.154311 -0.865383
3.172017 1.153569 -0.849877
3.167073 1.113829 -0.842829
3.157131 1.118759 -0.868842
3.149498 1.150477 -0.859753
3.158603 1.149736 -0.844247
3.191719 1.020302 -0.879336
3.175227 1.029116 -0.909892
3.167027 1.060244 -0.899148
3.183117 1.055742 -0.881379
3.179220 1.016193 -0.872041
3.162727 1.025007 -0.902597
3.154527 1.056135 -0.891852
3.170617 1.051633 -0.874084
3.181605 1.055808 -0.883176
3.165515 1.060310 -0.900945
3.157427 1.091840 -0.890430
3.174425 1.089904 -0.881851
3.172113 1.051633 -0.872276
3.156023 1.056135 -0.890045
3.147935 1.087664 -0.879530
3.164932 1.085729 -0.870950
3.171986 1.089958 -0.883233
3.154989 1.091894 -0.891813
3.146882 1.123752 -0.881308
3.166146 1.122755 -0.878517
3.167356 1.085739 -0.869554
3.150358 1.087675 -0.878134
3.142251 1.119533 -0.867629
3.161516 1.118536 -0.864838
3.164740 1.123066 -0.878743
3.145476 1.124063 -0.881534
3.137369 1.156291 -0.871074
3.157107 1.154784 -0.869654
3.162906 1.118289 -0.864595
3.143642 1.119286 -0.867386
3.135534 1.151514 -0.856926
3.155273 1.150008 -0.855505
3.169301 1.029540 -0.913352
3.131109 1.027046 -0.915823
3.127597 1.059524 -0.904944
3.161101 1.060668 -0.902608
3.168601 1.024588 -0.899163
3.130409 1.022093 -0.901634
3.126896 1.054571 -0.890755
3.160401 1.055715 -0.888419
3.161201 1.060662 -0.902604
3.127696 1.059519 -0.904941
3.124175 1.092259 -0.894130
3.153113 1.092192 -0.892089
3.160290 1.055785 -0.888401
3.126785 1.054641 -0.890737
3.123264 1.087381 -0.879926
3.152201 1.087315 -0.877886
3.153200 1.092225 -0.892072
3.124263 1.092292 -0.894112
3.120756 1.125045 -0.883297
3.145093 1.124083 -0.881567
3.152102 1.087346 -0.877882
3.123164 1.087413 -0.879923
3.119658 1.120166 -0.869108
3.143995 1.119203 -0.867378
3.145174 1.124110 -0.881551
3.120837 1.125072 -0.883281
3.117317 1.157809 -0.872479
3.137066 1.156338 -0.871091
3.143903 1.119242 -0.867372
3.119565 1.120204 -0.869102
3.116045 1.152941 -0.858301
3.135795 1.151470 -0.856912
3.123294 1.024035 -0.909652
3.121702 1.020905 -0.893769
3.117729 1.054125 -0.882312
3.119782 1.056513 -0.898773
3.138186 1.025100 -0.907792
3.136594 1.021970 -0.891909
3.132620 1.055190 -0.880452
3.134673 1.057578 -0.896913
3.119791 1.056598 -0.898888
3.117738 1.054210 -0.882427
3.113798 1.087763 -0.870891
3.116270 1.089338 -0.888077
3.134656 1.057559 -0.896775
3.132603 1.055171 -0.880315
3.128663 1.088724 -0.868779
3.131135 1.090299 -0.885964
3.116281 1.089411 -0.888180
3.113809 1.087836 -0.870995
3.109849 1.121374 -0.859462
3.112774 1.122164 -0.877365
3.131117 1.090293 -0.885839
3.128644 1.088717 -0.868653
3.124684 1.122256 -0.857121
3.127610 1.123046 -0.875024
3.112784 1.122239 -0.877449
3.109858 1.121449 -0.859545
3.105986 1.155015 -0.848008
3.109264 1.154976 -0.866647
3.127593 1.123038 -0.874918
3.124668 1.122248 -0.857015
3.120795 1.155813 -0.845478
3.124073 1.155774 -0.864116
3.160000 0.624185 -0.891852
3.154019 0.623431 -0.914795
3.154857 0.635714 -0.913712
3.162036 0.637257 -0.893020
3.145658 0.625824 -0.887614
3.139677 0.625071 -0.910556
3.140515 0.637354 -0.909474
3.147694 0.638897 -0.888782
3.152626 0.625224 -0.917401
3.141091 0.624809 -0.934157
3.140765 0.636162 -0.929718
3.153464 0.637507 -0.916318
3.141053 0.623276 -0.907987
3.129518 0.622861 -0.924743
3.129192 0.634214 -0.920304
3.141891 0.635559 -0.906905
3.135913 0.627243 -0.936135
3.112434 0.627545 -0.939509
3.113691 0.637575 -0.932944
3.135587 0.638596 -0.931697
3.134661 0.620426 -0.922782
3.111182 0.620727 -0.926156
3.112439 0.630758 -0.919590
3.134335 0.631778 -0.918343
3.159899 0.623158 -0.891522
3.151897 0.585857 -0.885288
3.145646 0.585113 -0.909124
3.153919 0.622404 -0.914464
3.145749 0.626801 -0.887938
3.137747 0.589501 -0.881705
3.131495 0.588757 -0.905540
3.139768 0.626048 -0.910881
3.153150 0.622549 -0.916422
3.144876 0.585258 -0.911082
3.135067 0.585190 -0.930248
3.141615 0.622134 -0.933178
3.140521 0.625901 -0.908964
3.132248 0.588611 -0.903624
3.122438 0.588542 -0.922789
3.128987 0.625486 -0.925720
3.136168 0.622957 -0.936881
3.129620 0.586013 -0.933950
3.105392 0.588550 -0.936589
3.112689 0.623259 -0.940255
3.134399 0.624665 -0.922038
3.127851 0.587721 -0.919108
3.103623 0.590258 -0.921746
3.110920 0.624967 -0.925412
3.151887 0.585820 -0.885290
3.143872 0.548524 -0.879056
3.137450 0.547784 -0.903538
3.145636 0.585076 -0.909126
3.137740 0.589464 -0.881691
3.129725 0.552167 -0.875457
3.123303 0.551427 -0.899939
3.131489 0.588719 -0.905527
3.145262 0.585219 -0.910312
3.137076 0.547927 -0.904724
3.128657 0.547829 -0.926736
3.135453 0.585151 -0.929477
3.131847 0.588575 -0.904386
3.123661 0.551283 -0.898798
3.115241 0.551184 -0.920810
3.122037 0.588507 -0.923552
3.129271 0.586061 -0.933989
3.122475 0.548739 -0.931248
3.097743 0.553887 -0.932965
3.105043 0.588598 -0.936627
3.128185 0.587601 -0.919063
3.121389 0.550278 -0.916321
3.096656 0.555427 -0.918039
3.103957 0.590137 -0.921701
3.111637 0.450808 -0.878354
3.108612 0.448486 -0.887270
3.118298 0.481333 -0.892057
3.122325 0.483187 -0.878568
3.097752 0.455415 -0.874843
3.094727 0.453093 -0.883758
3.104413 0.485940 -0.888546
3.108440 0.487793 -0.875056
3.122335 0.483218 -0.878569
3.118308 0.481365 -0.892059
3.127870 0.514217 -0.897377
3.133028 0.515596 -0.878785
3.108450 0.487827 -0.875059
3.104424 0.485974 -0.888549
3.113986 0.518826 -0.893867
3.119143 0.520205 -0.875275
3.133038 0.515628 -0.878786
3.127880 0.514248 -0.897377
3.137310 0.547264 -0.903487
3.143732 0.548004 -0.879005
3.119153 0.520240 -0.875280
3.113996 0.518860 -0.893872
3.123425 0.551876 -0.899981
3.129847 0.552616 -0.875499
3.079003 0.419114 -0.885525
3.087749 0.450454 -0.896518
3.103056 0.447971 -0.892358
3.076190 0.424699 -0.871841
3.084936 0.456039 -0.882834
3.100243 0.453556 -0.878674
3.104484 0.448330 -0.892047
3.089177 0.450813 -0.896207
3.098965 0.482493 -0.907317
3.114171 0.481177 -0.896835
3.098835 0.453249 -0.878999
3.083528 0.455733 -0.883159
3.093316 0.487412 -0.894270
3.108522 0.486096 -0.883787
3.116008 0.480869 -0.895526
3.100802 0.482185 -0.906009
3.111684 0.514142 -0.917280
3.125569 0.513721 -0.900844
3.106705 0.486469 -0.885112
3.091500 0.487785 -0.895594
3.102382 0.519743 -0.906865
3.116267 0.519321 -0.890429
3.126835 0.513423 -0.899097
3.112950 0.513845 -0.915533
3.127844 0.546341 -0.927219
3.136264 0.546440 -0.905207
3.115024 0.519683 -0.892193
3.101139 0.520105 -0.908629
3.116034 0.552602 -0.920315
3.124454 0.552700 -0.898302
3.078292 0.419288 -0.885701
3.061907 0.420480 -0.888003
3.070895 0.453336 -0.899135
3.087037 0.450629 -0.896694
3.076872 0.424518 -0.871666
3.060487 0.425710 -0.873967
3.069475 0.458565 -0.885100
3.085618 0.455858 -0.882659
3.086865 0.450695 -0.896734
3.070722 0.453402 -0.899175
3.079714 0.486257 -0.910295
3.096653 0.482374 -0.907844
3.085809 0.455856 -0.882642
3.069666 0.458564 -0.885083
3.078658 0.491418 -0.896203
3.095597 0.487536 -0.893752
3.096457 0.482445 -0.907882
3.079519 0.486328 -0.910333
3.088507 0.519185 -0.921450
3.107340 0.514403 -0.919153
3.095811 0.487529 -0.893737
3.078872 0.491412 -0.896188
3.087861 0.524269 -0.907305
3.106694 0.519487 -0.905008
3.107111 0.514474 -0.919185
3.088278 0.519256 -0.921482
3.097273 0.552119 -0.932588
3.122005 0.546970 -0.930870
3.106945 0.519481 -0.904999
3.088112 0.524264 -0.907296
3.097107 0.557126 -0.918402
3.121840 0.551978 -0.916684
3.142732 0.548464 -0.881472
3.146988 0.548415 -0.874386
3.136516 0.516071 -0.876061
3.132038 0.516088 -0.881253
3.130857 0.552157 -0.873004
3.135114 0.552108 -0.865918
3.124642 0.519764 -0.867593
3.120163 0.519781 -0.872785
3.165815 0.546124 -0.875155
3.161059 0.513580 -0.875861
3.146242 0.515775 -0.877561
3.153866 0.548217 -0.876410
3.164146 0.546015 -0.860203
3.159390 0.513470 -0.860909
3.144574 0.515666 -0.862610
3.152197 0.548107 -0.861458
3.161125 0.513543 -0.875853
3.156360 0.481000 -0.876571
3.138698 0.483295 -0.878783
3.146309 0.515739 -0.877554
3.159311 0.513441 -0.860919
3.154547 0.480898 -0.861636
3.136885 0.483193 -0.863849
3.144495 0.515637 -0.862619
3.156406 0.480951 -0.876565
3.151650 0.448407 -0.877281
3.131120 0.450804 -0.879954
3.138744 0.483246 -0.878778
3.154489 0.480882 -0.861643
3.149732 0.448338 -0.862359
3.129203 0.450735 -0.865031
3.136827 0.483177 -0.863856
3.153857 0.548256 -0.876410
3.146233 0.515814 -0.877562
3.131426 0.518008 -0.879299
3.141899 0.550352 -0.877623
3.152180 0.548072 -0.861460
3.144556 0.515630 -0.862612
3.129749 0.517824 -0.864349
3.140222 0.550168 -0.862673
3.146295 0.515770 -0.877555
3.138685 0.483326 -0.878785
3.121011 0.485622 -0.880957
3.131488 0.517963 -0.879292
3.144476 0.515610 -0.862622
3.136866 0.483166 -0.863851
3.119192 0.485463 -0.866024
3.129669 0.517804 -0.864358
3.138720 0.483276 -0.878781
3.131097 0.450834 -0.879956
3.110574 0.453228 -0.882630
3.121047 0.485572 -0.880953
3.136812 0.483152 -0.863858
3.129188 0.450710 -0.865033
3.108666 0.453104 -0.867707
3.119138 0.485448 -0.866030
3.161158 0.546768 -0.874116
3.169261 0.545075 -0.879121
3.161802 0.513094 -0.878164
3.156402 0.514223 -0.874822
3.168823 0.545367 -0.861245
3.176926 0.543675 -0.866251
3.169466 0.511693 -0.865294
3.164067 0.512823 -0.861951
3.131099 0.516384 -0.882423
3.135577 0.516367 -0.877231
3.125100 0.484026 -0.878897
3.120406 0.484006 -0.882207
3.121081 0.519419 -0.871617
3.125559 0.519402 -0.866425
3.115082 0.487061 -0.868090
3.110388 0.487041 -0.871401
3.118692 0.484562 -0.883498
3.123386 0.484582 -0.880188
3.112913 0.452238 -0.881864
3.108004 0.452183 -0.883285
3.112082 0.486420 -0.870112
3.116776 0.486440 -0.866801
3.106303 0.454097 -0.868477
3.101393 0.454042 -0.869898
3.106778 0.452349 -0.883781
3.111687 0.452404 -0.882360
3.096087 0.419970 -0.883572
3.102600 0.453822 -0.869403
3.107509 0.453877 -0.867982
3.091909 0.421443 -0.869194
3.168233 0.418605 -0.878364
3.142686 0.415509 -0.878719
3.159495 0.433527 -0.877789
3.168104 0.417950 -0.863334
3.142557 0.414854 -0.863689
3.159365 0.432872 -0.862759
3.159532 0.433498 -0.877790
3.142723 0.415479 -0.878720
3.150806 0.448627 -0.877336
3.159317 0.432922 -0.862757
3.142508 0.414904 -0.863687
3.150591 0.448051 -0.862303
3.155066 0.581712 -0.878965
3.150878 0.585687 -0.887482
3.158881 0.622988 -0.893715
3.163004 0.615084 -0.883758
3.142963 0.585690 -0.870962
3.138776 0.589666 -0.879478
3.146778 0.626966 -0.885712
3.150902 0.619062 -0.875755
3.163057 0.615527 -0.883874
3.158933 0.623431 -0.893832
3.160969 0.636503 -0.895000
3.168303 0.645849 -0.888524
3.150861 0.618676 -0.875647
3.146737 0.626580 -0.885604
3.148773 0.639653 -0.886772
3.156107 0.648998 -0.880297
3.444028 1.126190 -0.825456
3.456424 1.101572 -0.821414
3.452625 1.082196 -0.822314
3.443534 1.097814 -0.825639
3.439317 1.126289 -0.811168
3.451713 1.101672 -0.807127
3.447913 1.082296 -0.808026
3.438823 1.097914 -0.811351
3.443842 1.097791 -0.825530
3.452932 1.082174 -0.822205
3.449214 1.062785 -0.823253
3.443349 1.069424 -0.825748
3.438512 1.097888 -0.811461
3.447602 1.082271 -0.808136
3.443884 1.062882 -0.809185
3.438019 1.069521 -0.811679
3.443496 1.069487 -0.825690
3.449361 1.062848 -0.823196
3.450935 1.043297 -0.822834
3.443003 1.041118 -0.825879
3.437870 1.069411 -0.811737
3.443735 1.062771 -0.809243
3.445309 1.043220 -0.808881
3.437377 1.041041 -0.811926
3.442679 1.041148 -0.826001
3.450611 1.043327 -0.822956
3.453353 1.023752 -0.822484
3.442197 1.012776 -0.826302
3.437702 1.040964 -0.811804
3.445634 1.043142 -0.808759
3.448377 1.023568 -0.808287
3.437220 1.012592 -0.812105
3.558989 1.009160 -0.820472
3.557322 0.965601 -0.820392
3.520266 0.964270 -0.822500
3.519355 1.009348 -0.822419
3.558195 1.009166 -0.805448
3.556528 0.965608 -0.805368
3.519471 0.964277 -0.807476
3.518561 1.009355 -0.807395
3.519317 1.009383 -0.822421
3.520228 0.964305 -0.822501
3.483305 0.962820 -0.824525
3.479720 1.010565 -0.824446
3.518523 1.009319 -0.807397
3.519433 0.964241 -0.807478
3.482510 0.962756 -0.809501
3.478926 1.010500 -0.809422
3.479716 1.010576 -0.824446
3.483301 0.962832 -0.824525
3.446244 0.961164 -0.826658
3.440157 1.012685 -0.826714
3.478853 1.010489 -0.809426
3.482438 0.962744 -0.809505
3.445381 0.961076 -0.811638
3.439294 1.012597 -0.811694
3.557349 0.965584 -0.820391
3.555730 0.922048 -0.820630
3.521147 0.919292 -0.822581
3.520292 0.964253 -0.822498
3.556501 0.965537 -0.805370
3.554882 0.922001 -0.805609
3.520298 0.919245 -0.807560
3.519444 0.964205 -0.807477
3.520248 0.964253 -0.822501
3.521103 0.919292 -0.822584
3.486624 0.915634 -0.824531
3.483325 0.962768 -0.824524
3.519417 0.964201 -0.807479
3.520271 0.919240 -0.807562
3.485792 0.915582 -0.809509
3.482494 0.962716 -0.809502
3.483300 0.962766 -0.824525
3.486599 0.915632 -0.824532
3.452265 0.910668 -0.826478
3.446244 0.961098 -0.826658
3.482447 0.962711 -0.809505
3.485746 0.915577 -0.809511
3.451412 0.910613 -0.811458
3.445391 0.961043 -0.811637
3.440147 1.012681 -0.826714
3.446234 0.961160 -0.826658
3.413140 0.963906 -0.828614
3.405322 1.011570 -0.828885
3.439232 1.012602 -0.811698
3.445319 0.961081 -0.811641
3.412226 0.963828 -0.813597
3.404408 1.011491 -0.813868
3.405303 1.011573 -0.828886
3.413121 0.963910 -0.828615
3.380064 0.966111 -0.830729
3.370481 1.010464 -0.831037
3.404359 1.011489 -0.813871
3.412176 0.963826 -0.813600
3.379119 0.966027 -0.815714
3.369536 1.010380 -0.816022
3.446245 0.961109 -0.826658
3.452266 0.910679 -0.826478
3.420973 0.916190 -0.828441
3.413152 0.963856 -0.828613
3.445322 0.961033 -0.811641
3.451342 0.910603 -0.811462
3.420049 0.916114 -0.813425
3.412228 0.963780 -0.813597
3.413142 0.963874 -0.828614
3.420963 0.916209 -0.828441
3.389670 0.921723 -0.830423
3.380084 0.966075 -0.830728
3.412173 0.963769 -0.813600
3.419995 0.916103 -0.813428
3.388702 0.921618 -0.815410
3.379116 0.965970 -0.815714
3.388027 0.885590 -0.843584
3.367169 0.880577 -0.859638
3.369543 0.924205 -0.849598
3.383603 0.927252 -0.838957
3.379332 0.883307 -0.831521
3.358473 0.878294 -0.847575
3.360848 0.921922 -0.837535
3.374907 0.924969 -0.826893
3.383585 0.927302 -0.838960
3.369525 0.924256 -0.849601
3.371923 0.967895 -0.839599
3.378943 0.969414 -0.834263
3.374923 0.925004 -0.826875
3.360863 0.921957 -0.837517
3.363261 0.965597 -0.827514
3.370281 0.967115 -0.822178
3.378951 0.969447 -0.834250
3.371932 0.967929 -0.839586
3.374328 1.011563 -0.829572
3.370270 0.967153 -0.822178
3.363251 0.965635 -0.827514
3.365647 1.009269 -0.817500
3.389220 0.885595 -0.842513
3.384796 0.927257 -0.837886
3.394699 0.922779 -0.827897
3.378161 0.883317 -0.832571
3.373737 0.924978 -0.827943
3.383640 0.920500 -0.817954
3.385098 0.967221 -0.828198
3.380138 0.969459 -0.833184
3.375515 1.011575 -0.828506
3.374051 0.964903 -0.818250
3.369091 0.967141 -0.823237
3.364468 1.009257 -0.818559
3.394695 0.922836 -0.827888
3.384792 0.927315 -0.837876
3.380150 0.969426 -0.833179
3.385110 0.967188 -0.828192
3.383637 0.920512 -0.817955
3.373734 0.924990 -0.827943
3.369091 0.967102 -0.823246
3.374051 0.964864 -0.818259
4.187456 0.907018 -0.793459
4.188183 0.936640 -0.793507
4.203952 0.936341 -0.793718
4.202117 0.906714 -0.793598
4.187630 0.907054 -0.778415
4.188356 0.936675 -0.778463
4.204125 0.936376 -0.778674
4.202291 0.906750 -0.778554
4.188233 0.936730 -0.793507
4.188475 0.957496 -0.793508
4.205844 0.957151 -0.793469
4.204001 0.936431 -0.793718
4.188309 0.936636 -0.778463
4.188551 0.957402 -0.778464
4.205920 0.957057 -0.778425
4.204078 0.936337 -0.778674
4.172826 0.907314 -0.793259
4.172459 0.936978 -0.793361
4.188168 0.936639 -0.793507
4.187442 0.907018 -0.793458
4.172998 0.907351 -0.778215
4.172631 0.937015 -0.778317
4.188340 0.936676 -0.778463
4.187613 0.907055 -0.778414
4.172537 0.936974 -0.793361
4.171121 0.957748 -0.793623
4.188488 0.957402 -0.793508
4.188246 0.936635 -0.793507
4.172553 0.937069 -0.778317
4.171137 0.957844 -0.778579
4.188505 0.957497 -0.778464
4.188262 0.936731 -0.778463
4.079934 0.804488 -0.792855
4.086089 0.795318 -0.789826
4.079820 0.791527 -0.796276
4.070213 0.801637 -0.781731
4.076368 0.792467 -0.778702
4.070100 0.788676 -0.785152
4.089755 0.654100 -0.874630
4.072747 0.691813 -0.860194
4.075485 0.693779 -0.877922
4.103607 0.659307 -0.871913
4.086599 0.697020 -0.857478
4.089336 0.698986 -0.875206
4.075619 0.693470 -0.877966
4.072881 0.691504 -0.860238
4.055995 0.731903 -0.863854
4.059312 0.732416 -0.880585
4.089175 0.699361 -0.875161
4.086437 0.697395 -0.857433
4.069551 0.737795 -0.861048
4.072868 0.738308 -0.877779
4.186325 1.001101 -0.793658
4.207162 1.010952 -0.793314
4.206186 0.984086 -0.793567
4.188153 0.979357 -0.793714
4.186171 1.001003 -0.778615
4.207009 1.010854 -0.778270
4.206033 0.983988 -0.778523
4.188000 0.979259 -0.778670
4.188122 0.979237 -0.793714
4.206155 0.983966 -0.793567
4.205928 0.957080 -0.793469
4.188559 0.957425 -0.793508
4.188031 0.979331 -0.778669
4.206064 0.984060 -0.778523
4.205837 0.957173 -0.778425
4.188468 0.957519 -0.778464
4.165509 0.991169 -0.794097
4.186344 1.001022 -0.793658
4.188172 0.979279 -0.793713
4.170478 0.974856 -0.793824
4.165279 0.991214 -0.779054
4.186113 1.001067 -0.778615
4.187941 0.979324 -0.778670
4.170247 0.974901 -0.778781
4.170421 0.974782 -0.793824
4.188116 0.979205 -0.793714
4.188553 0.957393 -0.793508
4.171186 0.957739 -0.793623
4.170307 0.974936 -0.778780
4.188002 0.979359 -0.778670
4.188439 0.957547 -0.778464
4.171071 0.957893 -0.778579
4.206963 1.010832 -0.793313
4.242876 0.999846 -0.794444
4.234533 0.981869 -0.793577
4.205987 0.983966 -0.793566
4.207259 1.010976 -0.778272
4.243171 0.999991 -0.779402
4.234828 0.982013 -0.778536
4.206283 0.984110 -0.778524
4.206239 0.983858 -0.793565
4.234784 0.981761 -0.793576
4.232732 0.962046 -0.792733
4.206012 0.956971 -0.793467
4.206026 0.984172 -0.778525
4.234571 0.982075 -0.778536
4.232518 0.962361 -0.777693
4.205798 0.957285 -0.778427
4.228085 0.982373 -0.789626
4.242524 0.978603 -0.817411
4.241080 0.962782 -0.816301
4.226033 0.962659 -0.788783
4.241312 0.981463 -0.782514
4.255750 0.977693 -0.810299
4.254306 0.961872 -0.809189
4.239259 0.961748 -0.781671
4.043077 0.756419 -0.882878
4.040546 0.755379 -0.866452
4.019135 0.774971 -0.868236
4.022583 0.777535 -0.885111
4.053205 0.767138 -0.879899
4.050674 0.766099 -0.863474
4.029262 0.785690 -0.865257
4.032711 0.788255 -0.882133
4.023571 0.776751 -0.885100
4.020122 0.774186 -0.868224
3.996772 0.791181 -0.871737
3.998991 0.792780 -0.887834
4.031679 0.789076 -0.882150
4.028230 0.786512 -0.865274
4.004880 0.803507 -0.868787
4.007099 0.805105 -0.884884
4.000218 0.792037 -0.887290
3.997999 0.790438 -0.871193
3.971224 0.801776 -0.872390
3.972970 0.803078 -0.889868
4.005821 0.805875 -0.885433
4.003602 0.804277 -0.869336
3.976827 0.815615 -0.870533
3.978573 0.816917 -0.888011
3.954734 0.808667 -0.891494
3.953262 0.806919 -0.874098
3.920056 0.813936 -0.877813
3.921124 0.815828 -0.894583
3.957661 0.823317 -0.889716
3.956189 0.821569 -0.872319
3.922983 0.828586 -0.876035
3.924052 0.830478 -0.892805
3.921094 0.815841 -0.894643
3.920025 0.813949 -0.877873
3.886826 0.820994 -0.881585
3.887483 0.823011 -0.897731
3.924015 0.830478 -0.892752
3.922947 0.828586 -0.875982
3.889748 0.835631 -0.879693
3.890405 0.837648 -0.895840
3.888003 0.822927 -0.897728
3.887346 0.820910 -0.881581
3.853663 0.825488 -0.884743
3.853922 0.827413 -0.900570
3.889818 0.837743 -0.895850
3.889161 0.835727 -0.879703
3.855479 0.840304 -0.882865
3.855737 0.842229 -0.898692
3.853982 0.827401 -0.900535
3.853724 0.825476 -0.884708
3.819964 0.829579 -0.887759
3.819831 0.831450 -0.903335
3.855609 0.842249 -0.898734
3.855351 0.840324 -0.882907
3.821591 0.844427 -0.885958
3.821458 0.846297 -0.901534
3.985123 0.861359 -0.797986
3.965902 0.870359 -0.798802
3.976354 0.884073 -0.804278
3.986642 0.865896 -0.783722
3.967420 0.874897 -0.784538
3.977873 0.888610 -0.790014
3.992476 1.057745 -0.798562
3.982077 1.038188 -0.804145
3.971608 1.062890 -0.798966
3.991319 1.054199 -0.783987
3.980921 1.034642 -0.789570
3.970452 1.059344 -0.784391
3.701408 0.935305 -0.812903
3.712988 0.928374 -0.812301
3.681077 0.928020 -0.814300
3.700471 0.935043 -0.797890
3.712050 0.928112 -0.797288
3.680139 0.927758 -0.799287
3.680932 0.928052 -0.814308
3.654709 0.929723 -0.815507
3.667903 0.936098 -0.814748
3.680224 0.927728 -0.799283
3.654001 0.929398 -0.800483
3.667195 0.935774 -0.799723
3.359757 0.806196 -0.935342
3.358592 0.802672 -0.919374
3.341152 0.788270 -0.919156
3.340610 0.790664 -0.935416
3.350314 0.817747 -0.933402
3.349149 0.814223 -0.917434
3.331709 0.799820 -0.917217
3.331167 0.802215 -0.933476
3.340666 0.790711 -0.935417
3.341209 0.788317 -0.919157
3.323861 0.773805 -0.918951
3.321634 0.774737 -0.935952
3.331074 0.802138 -0.933475
3.331616 0.799743 -0.917216
3.314268 0.785231 -0.917010
3.312041 0.786163 -0.934011
4.187703 0.791811 -0.788925
4.211328 0.791478 -0.834183
4.207322 0.743093 -0.832907
4.183044 0.742979 -0.788478
4.200940 0.790757 -0.781852
4.224564 0.790424 -0.827110
4.220559 0.742039 -0.825834
4.196281 0.741924 -0.781406
3.806121 0.972144 -0.807359
3.776766 0.976382 -0.808676
3.777609 1.003759 -0.808611
3.807105 0.999961 -0.807339
3.805459 0.972143 -0.792328
3.776104 0.976381 -0.793645
3.776948 1.003757 -0.793580
3.806444 0.999959 -0.792309
3.807093 0.999990 -0.807339
3.777598 1.003788 -0.808611
3.778439 1.031164 -0.808543
3.808098 1.027815 -0.807312
3.806457 0.999985 -0.792308
3.776961 1.003783 -0.793580
3.777803 1.031159 -0.793511
3.807462 1.027811 -0.792281
3.776738 0.976398 -0.808677
3.747329 0.978559 -0.809996
3.748004 1.005350 -0.809894
3.777581 1.003775 -0.808612
3.776073 0.976370 -0.793647
3.746665 0.978531 -0.794966
3.747339 1.005322 -0.794863
