3.139040 0.570753 0.799684
3.117130 0.550148 0.802533
3.136851 0.525744 0.804617
3.159108 0.557217 0.802422
3.139769 0.565712 0.754013
3.117858 0.545107 0.756862
3.137579 0.520702 0.758946
3.159837 0.552176 0.756751
3.116972 0.548544 0.802651
3.093461 0.529791 0.803564
3.112668 0.493924 0.804797
3.136694 0.524139 0.804735
3.117969 0.546661 0.756746
3.094458 0.527909 0.757660
3.113665 0.492042 0.758893
3.137691 0.522256 0.758831
3.093789 0.529490 0.803580
3.067168 0.516210 0.803879
3.079515 0.483352 0.804813
3.112996 0.493623 0.804813
3.094076 0.528174 0.757645
3.067456 0.514893 0.757944
3.079802 0.482035 0.758879
3.113283 0.492307 0.758878
3.067705 0.516324 0.803872
3.037874 0.513167 0.804579
3.041492 0.483719 0.805464
3.080052 0.483466 0.804806
3.066855 0.514765 0.757952
3.037024 0.511608 0.758659
3.040641 0.482160 0.759544
3.079201 0.481907 0.758886
2.999180 0.539154 0.692030
3.002146 0.538631 0.666946
2.980881 0.538961 0.660294
2.980489 0.539734 0.691452
2.997956 0.493227 0.693016
3.000922 0.492704 0.667932
2.979657 0.493033 0.661280
2.979265 0.493807 0.692438
3.002406 0.538454 0.664605
3.012678 0.535590 0.641752
2.997918 0.534559 0.631613
2.981142 0.538783 0.657953
3.000676 0.492877 0.670221
3.010949 0.490013 0.647368
2.996188 0.488982 0.637229
2.979412 0.493207 0.663569
3.014812 0.535413 0.641786
3.029244 0.529398 0.622334
3.021652 0.530805 0.611338
3.000052 0.534382 0.631647
3.008846 0.490182 0.647291
3.023278 0.484166 0.627839
3.015686 0.485574 0.616843
2.994086 0.489151 0.637152
3.027717 0.529467 0.628411
3.050994 0.528747 0.618619
3.049555 0.531248 0.606936
3.020125 0.530875 0.617414
3.024849 0.484092 0.621733
3.048127 0.483371 0.611941
3.046688 0.485872 0.600258
3.017257 0.485499 0.610737
3.027493 0.519872 0.693553
3.026328 0.521421 0.672897
3.018339 0.531314 0.668454
3.015373 0.531838 0.693538
2.993913 0.488567 0.691529
2.992747 0.490116 0.670873
2.984758 0.500009 0.666430
2.981793 0.500532 0.691514
3.023981 0.522748 0.677445
3.032854 0.522696 0.659641
3.026264 0.529778 0.650149
3.015992 0.532641 0.673002
2.995104 0.488788 0.666283
3.003977 0.488735 0.648479
2.997388 0.495817 0.638987
2.987116 0.498681 0.661840
3.028209 0.526223 0.657447
3.040205 0.525673 0.640533
3.036052 0.527289 0.628504
3.021620 0.533305 0.647956
3.008644 0.485203 0.650634
3.020641 0.484654 0.633720
3.016487 0.486270 0.621691
3.002055 0.492286 0.641142
3.032615 0.527859 0.639951
3.052106 0.526503 0.633570
3.051739 0.528754 0.618130
3.028461 0.529475 0.627922
3.028265 0.482464 0.634275
3.047756 0.481109 0.627894
3.047389 0.483360 0.612455
3.024112 0.484081 0.622247
3.016888 0.533476 0.757251
3.024170 0.525871 0.725287
3.014944 0.533100 0.724471
2.988461 0.497430 0.759350
2.995743 0.489826 0.727386
2.986517 0.497055 0.726570
3.003670 0.538411 0.758302
3.001726 0.538035 0.725523
2.979643 0.539465 0.723257
2.979445 0.539017 0.754183
3.001651 0.492501 0.758305
2.999706 0.492126 0.725526
2.977624 0.493556 0.723260
2.977426 0.493107 0.754186
3.005373 0.537709 0.778697
3.002444 0.538380 0.759863
2.978220 0.538986 0.755744
2.980902 0.536927 0.778526
3.005809 0.491860 0.775631
3.002880 0.492530 0.756797
2.978655 0.493137 0.752678
2.981337 0.491078 0.775460
3.036006 0.514639 0.804441
3.004213 0.517019 0.800002
3.005089 0.487059 0.805253
3.039624 0.485191 0.805326
3.038824 0.510137 0.758795
3.007030 0.512517 0.754355
3.007906 0.482558 0.759607
3.042442 0.480689 0.759680
3.039362 0.535215 0.779682
3.040140 0.533694 0.761936
3.015943 0.535314 0.757193
3.007569 0.537595 0.775242
3.035470 0.489589 0.783534
3.036249 0.488067 0.765788
3.012051 0.489688 0.761045
3.003677 0.491969 0.779094
3.040467 0.533241 0.759083
3.041446 0.529615 0.741687
3.027826 0.530186 0.738714
3.016269 0.534862 0.754340
3.035933 0.488514 0.768607
3.036913 0.484888 0.751211
3.023292 0.485458 0.748238
3.011735 0.490135 0.763864
3.041295 0.529621 0.741645
3.045541 0.525573 0.724960
3.034208 0.525444 0.718994
3.027674 0.530191 0.738672
3.037076 0.484874 0.751218
3.041322 0.480826 0.734533
3.029989 0.480696 0.728567
3.023455 0.485444 0.748245
3.125814 0.588569 0.610748
3.095907 0.563779 0.609201
3.084865 0.547690 0.625751
3.108087 0.568286 0.632562
3.155886 0.555064 0.601534
3.125978 0.530274 0.599986
3.114937 0.514185 0.616537
3.138158 0.534781 0.623347
3.097366 0.563227 0.613600
3.067471 0.541435 0.612066
3.063395 0.529736 0.622806
3.086324 0.547138 0.630151
3.124466 0.530784 0.595578
3.094572 0.508992 0.594044
3.090495 0.497293 0.604784
3.113425 0.514695 0.612129
3.073839 0.544015 0.614129
3.040995 0.527383 0.614667
3.042435 0.524883 0.626350
3.069762 0.532317 0.624869
3.088148 0.506380 0.591979
3.055304 0.489749 0.592517
3.056744 0.487248 0.604199
3.084071 0.494682 0.602718
3.108303 0.567857 0.634429
3.085081 0.547260 0.627618
3.077055 0.537074 0.640670
3.095943 0.547437 0.652081
3.137917 0.535177 0.621515
3.114696 0.514581 0.614705
3.106670 0.504394 0.627756
3.125558 0.514758 0.639167
3.086965 0.549715 0.623927
3.064036 0.532314 0.616583
3.060397 0.530918 0.627809
3.078939 0.539529 0.636979
3.112770 0.512097 0.618378
3.089841 0.494696 0.611034
3.086202 0.493300 0.622261
3.104744 0.501911 0.631430
3.096292 0.543993 0.657983
3.077404 0.533629 0.646572
3.072255 0.516166 0.658959
3.083763 0.515811 0.672654
3.125190 0.518164 0.633293
3.106302 0.507801 0.621882
3.101153 0.490338 0.634269
3.112660 0.489982 0.647965
3.080629 0.535835 0.647390
3.062087 0.527224 0.638221
3.059060 0.518712 0.648699
3.075480 0.518372 0.659777
3.103044 0.505585 0.621041
3.084502 0.496974 0.611872
3.081476 0.488462 0.622350
3.097895 0.488123 0.633428
3.067852 0.532908 0.633125
3.044163 0.526870 0.623379
3.044530 0.524619 0.638818
3.064826 0.524396 0.643603
3.078697 0.491283 0.616952
3.055008 0.485246 0.607206
3.055375 0.482995 0.622645
3.075671 0.482772 0.627430
3.123153 0.584383 0.774941
3.107890 0.566959 0.747925
3.090001 0.548639 0.754345
3.101242 0.563778 0.777790
3.155623 0.552085 0.778727
3.140360 0.534662 0.751712
3.122470 0.516341 0.758131
3.133712 0.531480 0.781577
3.103538 0.565361 0.775309
3.092296 0.550222 0.751864
3.073022 0.536909 0.756975
3.080027 0.546609 0.776223
3.131375 0.529862 0.784065
3.120134 0.514723 0.760619
3.100859 0.501410 0.765731
3.107864 0.511110 0.784978
3.084574 0.549052 0.774923
3.077569 0.539352 0.755675
3.058441 0.532496 0.759046
3.057953 0.535771 0.775222
3.103272 0.508640 0.786284
3.096268 0.498941 0.767036
3.077139 0.492085 0.770407
3.076652 0.495360 0.786583
3.065543 0.538236 0.777632
3.066030 0.534961 0.761457
3.036490 0.533558 0.760594
3.035712 0.535079 0.778339
3.069009 0.492882 0.784174
3.069497 0.489608 0.767998
3.039957 0.488204 0.767135
3.039178 0.489725 0.784881
3.107826 0.566213 0.744802
3.094331 0.542973 0.721694
3.079678 0.532127 0.731343
3.089937 0.547893 0.751222
3.140398 0.535373 0.754788
3.126903 0.512133 0.731680
3.112250 0.501286 0.741328
3.122509 0.517052 0.761207
3.093562 0.550568 0.749883
3.083303 0.534802 0.730004
3.068455 0.528428 0.736722
3.074288 0.537254 0.754994
3.118851 0.514353 0.762560
3.108592 0.498587 0.742682
3.093743 0.492213 0.749400
3.099576 0.501039 0.767672
3.079716 0.540023 0.755014
3.073883 0.531197 0.736742
3.058791 0.528076 0.739379
3.060588 0.533168 0.758385
3.094114 0.498256 0.767661
3.088280 0.489430 0.749389
3.073189 0.486309 0.752026
3.074985 0.491400 0.771032
3.067242 0.534623 0.759371
3.065446 0.529532 0.740365
3.038682 0.529594 0.741113
3.037702 0.533219 0.758509
3.068285 0.489939 0.770048
3.066489 0.484848 0.751042
3.039725 0.484910 0.751790
3.038745 0.488535 0.769185
3.087672 0.536778 0.728856
3.073828 0.522820 0.714056
3.061694 0.522871 0.720187
3.072823 0.530405 0.735574
3.104203 0.496587 0.743795
3.090360 0.482629 0.728995
3.078225 0.482680 0.735126
3.089354 0.490214 0.750513
3.077227 0.532100 0.736867
3.066098 0.524566 0.721480
3.053110 0.524730 0.725899
3.062135 0.528979 0.739504
3.084923 0.488514 0.749230
3.073793 0.480980 0.733843
3.060805 0.481145 0.738262
3.069831 0.485393 0.751867
3.066386 0.529326 0.739556
3.057360 0.525077 0.725951
3.043867 0.525339 0.723618
3.039621 0.529387 0.740304
3.065546 0.485045 0.751818
3.056521 0.480797 0.738213
3.043028 0.481059 0.735880
3.038782 0.485107 0.752565
3.165563 0.593285 0.678816
3.165137 0.601771 0.660055
3.154061 0.601455 0.669212
3.155451 0.589613 0.681881
3.158704 0.554951 0.654420
3.158278 0.563436 0.635659
3.147203 0.563121 0.644816
3.148593 0.551278 0.657485
3.147910 0.600139 0.603641
3.149212 0.605092 0.654524
3.160287 0.605407 0.645367
3.154013 0.599543 0.600286
3.150746 0.554537 0.608558
3.152048 0.559489 0.659440
3.163123 0.559805 0.650283
3.156850 0.553941 0.605203
3.125122 0.592599 0.651471
3.138032 0.601448 0.655460
3.136730 0.596495 0.604578
3.128288 0.591004 0.604633
3.150300 0.554277 0.654519
3.163209 0.563126 0.658508
3.161907 0.558173 0.607626
3.153465 0.552681 0.607681
3.154771 0.595494 0.692936
3.154731 0.595864 0.666782
3.144619 0.592192 0.669847
3.145072 0.592414 0.691357
3.169578 0.551992 0.692649
3.169538 0.552362 0.666494
3.159426 0.548690 0.669559
3.159879 0.548912 0.691069
3.148668 0.599605 0.689668
3.160026 0.599470 0.688999
3.160329 0.591434 0.678259
3.150630 0.588354 0.676679
3.152358 0.564232 0.718771
3.163717 0.564098 0.718102
3.164019 0.556062 0.707362
3.154320 0.552982 0.705782
3.124573 0.586467 0.666645
3.138872 0.583473 0.683303
3.137482 0.595315 0.670634
3.150853 0.560408 0.639404
3.165152 0.557414 0.656062
3.163762 0.569257 0.643393
3.127866 0.588560 0.693937
3.137057 0.594947 0.690905
3.139019 0.583696 0.677916
3.154761 0.562502 0.720572
3.163952 0.568888 0.717540
3.165914 0.557637 0.704551
3.151234 0.604885 0.704656
3.152146 0.604471 0.737705
3.162445 0.603928 0.738176
3.162593 0.604751 0.703987
3.149791 0.558961 0.703828
3.150703 0.558547 0.736877
3.161002 0.558004 0.737347
3.161150 0.558827 0.703159
3.152076 0.604463 0.738081
3.153049 0.603114 0.771076
3.162051 0.603039 0.772735
3.162375 0.603921 0.738551
3.150774 0.558553 0.736569
3.151747 0.557203 0.769564
3.160749 0.557128 0.771223
3.161072 0.558010 0.737039
3.121610 0.587357 0.707003
3.108961 0.563385 0.702966
3.106708 0.563014 0.726258
3.120660 0.583725 0.741761
3.160990 0.563678 0.707543
3.148340 0.539705 0.703506
3.146088 0.539334 0.726798
3.160039 0.560045 0.742301
3.108788 0.562758 0.700453
3.096839 0.538455 0.696185
3.093989 0.538807 0.709340
3.106536 0.562387 0.723745
3.148487 0.540285 0.706000
3.136537 0.515982 0.701732
3.133687 0.516335 0.714886
3.146234 0.539915 0.729292
3.098049 0.539374 0.693233
3.086525 0.515468 0.682963
3.081667 0.515494 0.695732
3.095200 0.539726 0.706387
3.135302 0.515015 0.704664
3.123778 0.491109 0.694394
3.118920 0.491135 0.707164
3.132452 0.515367 0.717819
3.122132 0.585888 0.742015
3.108181 0.565177 0.726513
3.105920 0.564826 0.749757
3.121183 0.582249 0.776773
3.158563 0.557878 0.742105
3.144612 0.537167 0.726602
3.142351 0.536816 0.749846
3.157614 0.554239 0.776862
3.107394 0.563818 0.723910
3.094847 0.540238 0.709504
3.091637 0.540228 0.724046
3.105133 0.563467 0.747154
3.145371 0.538484 0.729165
3.132824 0.514904 0.714759
3.129615 0.514893 0.729301
3.143110 0.538133 0.752409
3.118951 0.586691 0.652311
3.122116 0.585095 0.605472
3.104388 0.564812 0.627286
3.104995 0.563443 0.654355
3.156445 0.560157 0.653689
3.159610 0.558561 0.606851
3.141882 0.538278 0.628664
3.142490 0.536909 0.655734
3.104184 0.561699 0.658613
3.103577 0.563069 0.631543
3.091218 0.542649 0.649195
3.094404 0.537185 0.665171
3.143274 0.538608 0.651501
3.142666 0.539977 0.624431
3.130307 0.519558 0.642083
3.133494 0.514093 0.658059
3.095924 0.537637 0.669304
3.092737 0.543101 0.653327
3.080207 0.514919 0.667999
3.085781 0.514635 0.681588
3.131952 0.513593 0.653953
3.128765 0.519058 0.637976
3.116235 0.490876 0.652648
3.121809 0.490592 0.666237
3.137307 0.580421 0.684249
3.123008 0.583414 0.667591
3.109053 0.560166 0.669636
3.121885 0.557448 0.684271
3.166699 0.560437 0.655120
3.152400 0.563430 0.638462
3.138445 0.540182 0.640506
3.151277 0.537464 0.655142
3.121383 0.558192 0.683186
3.108550 0.560909 0.668551
3.098770 0.536395 0.675109
3.105770 0.535548 0.685664
3.151752 0.536675 0.656232
3.138919 0.539392 0.641597
3.129139 0.514878 0.648155
3.136139 0.514031 0.658711
3.133453 0.583556 0.691326
3.133001 0.583334 0.669816
3.117578 0.560361 0.669838
3.117924 0.560936 0.691698
3.171472 0.557743 0.691100
3.171020 0.557521 0.669590
3.155597 0.534549 0.669612
3.155943 0.535123 0.691472
3.117994 0.561039 0.691554
3.117648 0.560465 0.669695
3.102036 0.537821 0.672173
3.102410 0.538387 0.690998
3.155841 0.534975 0.691616
3.155496 0.534400 0.669757
3.139884 0.511757 0.672235
3.140257 0.512323 0.691060
3.102967 0.539153 0.691462
3.102593 0.538587 0.672637
3.085451 0.516432 0.674366
3.086805 0.517108 0.689093
3.139668 0.511512 0.690596
3.139295 0.510946 0.671771
3.122152 0.488791 0.673500
3.123506 0.489466 0.688227
3.126094 0.585803 0.693441
3.137247 0.580938 0.677420
3.121717 0.558318 0.677791
3.113445 0.561830 0.689403
3.156517 0.565230 0.721063
3.167670 0.560366 0.705042
3.152140 0.537745 0.705414
3.143868 0.541257 0.717026
3.113048 0.562022 0.690004
3.121320 0.558510 0.678391
3.105736 0.535859 0.677835
3.101098 0.537719 0.685736
3.144237 0.541019 0.716421
3.152509 0.537507 0.704809
3.136925 0.514855 0.704253
3.132287 0.516715 0.712153
3.136532 0.600129 0.705323
3.127341 0.593743 0.708355
3.126391 0.590110 0.743113
3.137444 0.599715 0.738372
3.164473 0.563709 0.703165
3.155282 0.557323 0.706198
3.154332 0.553690 0.740955
3.165385 0.563295 0.736214
3.136454 0.598895 0.738613
3.125401 0.589290 0.743354
3.124452 0.585652 0.778111
3.137427 0.597545 0.771608
3.166374 0.564110 0.736041
3.155321 0.554506 0.740782
3.154372 0.550867 0.775540
3.167347 0.562761 0.769037
3.012195 0.527141 0.692747
3.016565 0.526334 0.704756
3.031743 0.525829 0.699183
3.028014 0.525732 0.688619
3.009243 0.481284 0.692365
3.013613 0.480476 0.704373
3.028792 0.479972 0.698800
3.025062 0.479874 0.688237
3.014957 0.526381 0.704383
3.022582 0.525963 0.714686
3.037267 0.526555 0.709169
3.030135 0.525876 0.698811
3.015233 0.480429 0.704767
3.022858 0.480012 0.715070
3.037543 0.480603 0.709552
3.030411 0.479925 0.699194
3.022460 0.525952 0.715604
3.031830 0.526032 0.724478
3.046204 0.526069 0.720735
3.037145 0.526543 0.710087
3.022996 0.480023 0.714172
3.032367 0.480103 0.723045
3.046741 0.480141 0.719303
3.037681 0.480614 0.708654
3.028070 0.525715 0.687644
3.031799 0.525813 0.698208
3.043698 0.524865 0.693082
3.038353 0.524970 0.686202
3.025032 0.479888 0.689204
3.028762 0.479986 0.699768
3.040661 0.479038 0.694642
3.035315 0.479143 0.687762
3.031992 0.525737 0.697123
3.039123 0.526415 0.707480
3.051750 0.524632 0.701643
3.043890 0.524788 0.691997
3.028582 0.480063 0.700872
3.035713 0.480741 0.711229
3.048340 0.478959 0.705392
3.040480 0.479114 0.695745
3.038508 0.526475 0.707782
3.047567 0.526002 0.718430
3.060619 0.525805 0.713187
3.051135 0.524693 0.701944
3.036345 0.480682 0.710949
3.045405 0.480208 0.721598
3.058456 0.480011 0.716354
3.048972 0.478899 0.705112
3.046820 0.526080 0.720039
3.057271 0.525909 0.732080
3.070259 0.525745 0.727661
3.059871 0.525883 0.714796
3.046172 0.480130 0.720012
3.056623 0.479960 0.732054
3.069612 0.479795 0.727635
3.059224 0.479933 0.714769
3.013982 0.526946 0.693255
3.029801 0.525536 0.689127
3.031800 0.524940 0.675623
3.012817 0.528494 0.672599
3.007452 0.481480 0.691828
3.023271 0.480071 0.687700
3.025269 0.479474 0.674196
3.006286 0.483029 0.671173
3.028207 0.525703 0.687560
3.038490 0.524958 0.686118
3.043595 0.524225 0.677783
3.030205 0.525107 0.674056
3.024894 0.479900 0.689268
3.035177 0.479155 0.687826
3.040283 0.478423 0.679492
3.026893 0.479304 0.675764
3.038663 0.524940 0.686005
3.044008 0.524835 0.692884
3.053724 0.523696 0.684922
3.043768 0.524208 0.677670
3.035023 0.479171 0.687948
3.040369 0.479066 0.694828
3.050084 0.477928 0.686865
3.040129 0.478439 0.679614
3.044042 0.524827 0.692782
3.051901 0.524672 0.702429
3.063391 0.523358 0.694707
3.053757 0.523689 0.684820
3.040352 0.479073 0.694946
3.048212 0.478917 0.704593
3.059701 0.477603 0.696871
3.050067 0.477935 0.686984
3.049782 0.524581 0.700577
3.059266 0.525693 0.711820
3.071348 0.525382 0.704699
3.061272 0.523267 0.692856
3.050350 0.479009 0.706466
3.059834 0.480121 0.717709
3.071916 0.479811 0.710588
3.061839 0.477696 0.698745
3.059805 0.525883 0.714599
3.070193 0.525745 0.727465
3.082328 0.525694 0.721333
3.071887 0.525572 0.707478
3.059315 0.479933 0.714955
3.069702 0.479795 0.727820
3.081837 0.479744 0.721689
3.071396 0.479622 0.707834
3.011564 0.528474 0.674713
3.030548 0.524920 0.677737
3.038727 0.527504 0.663273
3.020437 0.528422 0.656910
3.007547 0.483051 0.669026
3.026530 0.479496 0.672049
3.034710 0.482081 0.657585
3.016419 0.482998 0.651222
3.032033 0.524679 0.678184
3.045423 0.523797 0.681912
3.054318 0.522390 0.670249
3.040213 0.527263 0.663720
3.025077 0.479732 0.671612
3.038467 0.478851 0.675340
3.047362 0.477443 0.663677
3.033257 0.482317 0.657148
3.043946 0.524182 0.677438
3.053901 0.523671 0.684690
3.064516 0.522219 0.674123
3.052841 0.522775 0.665775
3.039969 0.478463 0.679827
3.049924 0.477951 0.687078
3.060539 0.476500 0.676512
3.048864 0.477055 0.668164
3.053873 0.523675 0.684735
3.063507 0.523344 0.694622
3.074914 0.521879 0.684707
3.064488 0.522224 0.674168
3.049973 0.477946 0.687052
3.059607 0.477615 0.696939
3.071014 0.476150 0.687024
3.060588 0.476494 0.676485
3.063762 0.523069 0.692209
3.073838 0.525184 0.704052
3.084750 0.521444 0.694822
3.075169 0.521604 0.682294
3.059372 0.477890 0.699374
3.069448 0.480005 0.711217
3.080360 0.476265 0.701987
3.070779 0.476425 0.689459
3.072209 0.525253 0.703869
3.082650 0.525376 0.717724
3.092840 0.525568 0.708789
3.083121 0.521513 0.694638
3.071097 0.479939 0.711427
3.081538 0.480061 0.725283
3.091729 0.480254 0.716347
3.082010 0.476199 0.702197
3.023246 0.528158 0.653105
3.041536 0.527240 0.659468
3.053078 0.521450 0.645533
3.035242 0.527608 0.636190
3.013631 0.483260 0.654995
3.031921 0.482343 0.661358
3.043463 0.476553 0.647423
3.025627 0.482711 0.638081
3.041985 0.527099 0.658764
3.056090 0.522225 0.665294
3.068219 0.520422 0.651812
3.053527 0.521309 0.644830
3.031505 0.482478 0.662076
3.045610 0.477605 0.668605
3.057739 0.475801 0.655124
3.043047 0.476688 0.648141
3.052865 0.522768 0.665692
3.064540 0.522213 0.674040
3.076641 0.520460 0.661627
3.064994 0.520964 0.652211
3.048861 0.477059 0.668223
3.060537 0.476503 0.676571
3.072638 0.474751 0.664158
3.060990 0.475255 0.654742
3.064559 0.522212 0.674060
3.074984 0.521867 0.684599
3.086774 0.520190 0.672791
3.076660 0.520460 0.661647
3.060540 0.476503 0.676570
3.070966 0.476158 0.687109
3.082756 0.474481 0.675301
3.072641 0.474751 0.664157
3.069350 0.521635 0.684125
3.078931 0.521475 0.696653
3.089676 0.524972 0.685052
3.081139 0.519957 0.672318
3.076620 0.476393 0.687606
3.086202 0.476233 0.700134
3.096946 0.479731 0.688533
3.088409 0.474715 0.675799
3.077096 0.521159 0.697707
3.086815 0.525214 0.711857
3.094797 0.525604 0.700747
3.087840 0.524657 0.686106
3.088055 0.476553 0.699108
3.097774 0.480608 0.713258
3.105756 0.480998 0.702148
3.098799 0.480051 0.687507
3.046860 0.521036 0.652816
3.061552 0.520149 0.659799
3.068810 0.525615 0.641877
3.048515 0.525838 0.637092
3.049730 0.476962 0.640124
3.064422 0.476075 0.647107
3.071680 0.481542 0.629185
3.051385 0.481765 0.624401
3.059762 0.520221 0.658810
3.071409 0.519717 0.668226
3.083439 0.525348 0.651965
3.067020 0.525687 0.640888
3.066244 0.476002 0.648112
3.077891 0.475498 0.657528
3.089922 0.481129 0.641268
3.073502 0.481469 0.630190
3.070195 0.519703 0.667334
3.080309 0.519433 0.678478
3.093733 0.524978 0.664769
3.082225 0.525334 0.651073
3.079130 0.475511 0.658443
3.089244 0.475241 0.669587
3.102668 0.480787 0.655878
3.091161 0.481142 0.642183
3.078653 0.519471 0.673356
3.087189 0.524486 0.686090
3.097650 0.524732 0.673236
3.092076 0.525016 0.659647
3.090919 0.475206 0.674735
3.099456 0.480221 0.687470
3.109917 0.480466 0.674616
3.104343 0.480751 0.661026
3.002119 0.538011 0.725934
3.001037 0.538424 0.709459
2.980608 0.539665 0.708091
2.980037 0.539441 0.723668
2.999312 0.492151 0.725066
2.998230 0.492564 0.708592
2.977801 0.493805 0.707223
2.977230 0.493581 0.722800
3.000676 0.538442 0.709519
2.999610 0.539138 0.693055
2.980919 0.539718 0.692477
2.980247 0.539683 0.708151
2.998591 0.492547 0.708500
2.997525 0.493243 0.692035
2.978833 0.493823 0.691457
2.978162 0.493788 0.707132
3.025004 0.525161 0.724999
3.025739 0.522520 0.708245
3.014696 0.532804 0.707709
3.015778 0.532390 0.724184
2.994910 0.490532 0.727635
2.995645 0.487891 0.710880
2.984602 0.498174 0.710344
2.985684 0.497761 0.726819
3.026610 0.521762 0.708901
3.026621 0.520776 0.691915
3.014501 0.532742 0.691900
3.015567 0.532045 0.708365
2.994774 0.488648 0.710191
2.994785 0.487663 0.693206
2.982664 0.499628 0.693191
2.983731 0.498931 0.709656
3.018165 0.525911 0.691308
3.018154 0.526897 0.708293
3.022536 0.525104 0.703316
3.003255 0.482516 0.693817
3.003244 0.483502 0.710802
3.007626 0.481708 0.705825
3.020573 0.525486 0.701369
3.016192 0.527279 0.706346
3.015457 0.529920 0.723101
3.028198 0.525068 0.711672
3.009593 0.481328 0.707794
3.005212 0.483121 0.712771
3.004476 0.485762 0.729526
3.017218 0.480910 0.718097
3.030490 0.529946 0.739719
3.014912 0.529969 0.722596
3.007630 0.537573 0.754560
3.018933 0.534622 0.755345
3.020595 0.485701 0.747220
3.005018 0.485724 0.730097
2.997736 0.493328 0.762061
3.009039 0.490377 0.762846
3.011419 0.537013 0.777050
3.019793 0.534732 0.759001
3.008490 0.537684 0.758216
2.999794 0.492554 0.777275
3.008168 0.490273 0.759226
2.996865 0.493225 0.758441
3.088390 0.515418 0.685170
3.105533 0.537573 0.683440
3.098533 0.538420 0.672885
3.119213 0.489813 0.662673
3.136355 0.511967 0.660944
3.129355 0.512814 0.650389
3.089922 0.515736 0.676798
3.101446 0.539642 0.687068
3.106084 0.537782 0.679167
3.120392 0.490847 0.700544
3.131916 0.514753 0.710814
3.136554 0.512893 0.702914
3.091650 0.525261 0.686114
3.098607 0.526207 0.700755
3.103465 0.526182 0.687986
3.095004 0.479450 0.687483
3.101961 0.480396 0.702124
3.106819 0.480371 0.689355
3.091686 0.525255 0.685890
3.103501 0.526176 0.687762
3.102147 0.525501 0.673036
3.094971 0.479454 0.687689
3.106786 0.480375 0.689561
3.105432 0.479700 0.674834
3.034230 0.526719 0.644108
3.052066 0.520561 0.653451
3.053720 0.525363 0.637727
3.026658 0.483599 0.630140
3.044494 0.477440 0.639483
3.046149 0.482243 0.623759
3.043606 0.528231 0.616101
3.067294 0.534268 0.625847
3.070933 0.535665 0.614620
3.055578 0.483894 0.614466
3.079267 0.489931 0.624212
3.082906 0.491328 0.612986
3.083744 0.517642 0.694466
3.075761 0.517252 0.705577
3.094067 0.541864 0.719663
3.097276 0.541874 0.705122
3.116834 0.488987 0.708455
3.108852 0.488597 0.719566
3.127157 0.513209 0.733652
3.130366 0.513220 0.719111
3.078924 0.519904 0.704792
3.068733 0.519711 0.713727
3.082576 0.533669 0.728527
3.097229 0.544516 0.718878
3.105671 0.485940 0.720373
3.095481 0.485747 0.729308
3.109324 0.499705 0.744109
3.123977 0.510551 0.734460
3.036390 0.525250 0.719593
3.027019 0.525170 0.710720
3.014278 0.530022 0.722149
3.029855 0.529998 0.739272
3.027783 0.480890 0.727949
3.018413 0.480809 0.719076
3.005671 0.485661 0.730505
3.021248 0.485637 0.747628
3.139887 0.576216 0.798392
3.159955 0.562681 0.801130
3.161864 0.588035 0.793548
3.152862 0.588110 0.791889
3.138951 0.560293 0.755295
3.159019 0.546758 0.758033
3.160928 0.572112 0.750451
3.151926 0.572187 0.748792
3.031977 0.526043 0.723511
3.043310 0.526172 0.729477
3.046351 0.526080 0.719769
3.032231 0.480092 0.724026
3.043564 0.480222 0.729993
3.046605 0.480130 0.720284
3.057397 0.525907 0.731997
3.046946 0.526077 0.719955
3.043904 0.526169 0.729664
3.056479 0.479963 0.732145
3.046027 0.480133 0.720103
3.042986 0.480225 0.729812
