3.143113 0.541372 0.873342
3.155064 0.539302 0.872025
3.162707 0.575490 0.862669
3.150060 0.577273 0.863683
3.142116 0.543953 0.858554
3.154067 0.541883 0.857237
3.181746 0.606208 0.881511
3.172409 0.572318 0.875742
3.179895 0.571003 0.879866
3.188583 0.605331 0.884819
3.188704 0.606465 0.868175
3.179367 0.572575 0.862406
3.186853 0.571261 0.866529
3.195542 0.605588 0.871482
3.172099 0.572390 0.875572
3.162756 0.538496 0.869806
3.170888 0.536754 0.874749
3.179585 0.571076 0.879696
3.179658 0.572434 0.862565
3.170316 0.538540 0.856798
3.178448 0.536798 0.861741
3.187145 0.571120 0.866688
3.091662 0.547757 0.922644
3.098954 0.582428 0.926676
3.096536 0.582669 0.912477
3.089600 0.549847 0.905463
3.106283 0.545049 0.920355
3.113575 0.579720 0.924387
3.111158 0.579962 0.910189
3.104221 0.547139 0.903175
3.098999 0.582413 0.926949
3.106300 0.617080 0.930986
3.103536 0.615473 0.919770
3.096582 0.582654 0.912751
3.113544 0.579803 0.924124
3.120845 0.614470 0.928161
3.118081 0.612863 0.916945
3.111127 0.580044 0.909926
3.106401 0.617849 0.930512
3.107609 0.627961 0.924047
3.106831 0.628352 0.910862
3.103637 0.616242 0.919296
3.120754 0.613747 0.928633
3.121961 0.623859 0.922168
3.121183 0.624250 0.908983
3.117989 0.612139 0.917417
3.374075 1.004305 0.829787
3.353077 0.990229 0.843130
3.346388 0.956522 0.849283
3.371762 0.960570 0.839377
3.368051 1.002235 0.816157
3.347053 0.988159 0.829500
3.340364 0.954452 0.835654
3.365738 0.958500 0.825747
3.370892 0.960680 0.839682
3.345518 0.956632 0.849588
3.338805 0.922909 0.855652
3.368561 0.916937 0.849241
3.366599 0.958312 0.825458
3.341225 0.954265 0.835364
3.334512 0.920542 0.841428
3.364268 0.914570 0.835017
3.367933 0.917018 0.849387
3.338176 0.922990 0.855798
3.331225 0.889426 0.862055
3.365612 0.873285 0.858971
3.364887 0.914412 0.834886
3.335131 0.920384 0.841297
3.328179 0.886820 0.847554
3.362567 0.870679 0.844470
3.365460 0.872523 0.859099
3.331073 0.888664 0.862183
3.320987 0.855906 0.868750
3.329884 0.846486 0.865698
3.362691 0.871373 0.844356
3.328303 0.887514 0.847440
3.318218 0.854756 0.854007
3.327114 0.845336 0.850955
3.274298 0.797280 0.876489
3.268756 0.807685 0.879084
3.240026 0.809433 0.879671
3.233021 0.797934 0.877837
3.273994 0.800281 0.861750
3.268452 0.810685 0.864345
3.239721 0.812433 0.864931
3.232716 0.800934 0.863098
3.233025 0.798309 0.877904
3.240030 0.809809 0.879737
3.211303 0.811518 0.880464
3.191749 0.798973 0.879344
3.232641 0.800560 0.863033
3.239646 0.812060 0.864866
3.210919 0.813769 0.865594
3.191365 0.801224 0.864474
3.207050 0.999007 0.837239
3.223702 0.982845 0.845106
3.248947 0.984896 0.844795
3.239825 1.000565 0.835746
3.207075 0.991963 0.823945
3.223727 0.975801 0.831812
3.248972 0.977851 0.831501
3.239850 0.993520 0.822452
3.239875 1.000972 0.835514
3.248997 0.985303 0.844562
3.274239 0.987141 0.843938
3.272652 1.002535 0.833982
3.239859 0.993116 0.822683
3.248980 0.977448 0.831731
3.274222 0.979285 0.831107
3.272636 0.994679 0.821151
3.272595 1.002923 0.833728
3.274182 0.987529 0.843683
3.299430 0.989606 0.843392
3.305365 1.004482 0.832207
3.272751 0.994294 0.821404
3.274337 0.978900 0.831360
3.299585 0.980977 0.831069
3.305521 0.995853 0.819883
3.305407 1.004870 0.831917
3.299471 0.989994 0.843102
3.324712 0.991867 0.842540
3.338185 1.006427 0.830379
3.305538 0.995468 0.820172
3.299602 0.980592 0.831357
3.324843 0.982465 0.830795
3.338316 0.997026 0.818634
3.338144 1.006821 0.830040
3.324671 0.992261 0.842201
3.349917 0.994306 0.841846
3.370915 1.008381 0.828503
3.338416 0.996636 0.818971
3.324943 0.982075 0.831132
3.350189 0.984120 0.830777
3.371187 0.998196 0.817434
3.274394 0.800176 0.876505
3.233116 0.800829 0.877853
3.221422 0.768529 0.884412
3.256770 0.768810 0.883177
3.273883 0.797342 0.861738
3.232605 0.797996 0.863086
3.220910 0.765696 0.869645
3.256258 0.765977 0.868410
3.256732 0.768785 0.883184
3.221384 0.768503 0.884418
3.209693 0.736199 0.890946
3.239112 0.737413 0.889850
3.256266 0.765939 0.868418
3.220918 0.765658 0.869652
3.209227 0.733354 0.876180
3.238647 0.734568 0.875084
3.239055 0.737402 0.889854
3.209636 0.736188 0.890950
3.197940 0.703883 0.897469
3.221120 0.706170 0.896526
3.238675 0.734515 0.875094
3.209256 0.733301 0.876190
3.197560 0.700996 0.882709
3.220740 0.703283 0.881766
3.233089 0.800799 0.877860
3.191813 0.801462 0.879300
3.186050 0.768222 0.885669
3.221394 0.768499 0.884418
3.232556 0.798026 0.863082
3.191280 0.798690 0.864523
3.185517 0.765449 0.870891
3.220861 0.765726 0.869641
3.221354 0.768471 0.884425
3.186010 0.768194 0.885676
3.180241 0.734953 0.892045
3.209663 0.736167 0.890953
3.220884 0.765689 0.869647
3.185539 0.765412 0.870898
3.179771 0.732171 0.877267
3.209193 0.733385 0.876176
3.209614 0.736144 0.890959
3.180192 0.734930 0.892051
3.174429 0.701692 0.898416
3.197918 0.703838 0.897478
3.209225 0.733342 0.876183
3.179803 0.732129 0.877274
3.174040 0.698891 0.883639
3.197530 0.701037 0.882701
3.441406 1.005435 0.825792
3.441879 1.033807 0.825745
3.406359 1.033967 0.829498
3.406598 1.004288 0.828157
3.440097 1.005774 0.810808
3.440571 1.034146 0.810760
3.405051 1.034307 0.814514
3.405289 1.004627 0.813172
3.406222 1.004337 0.828182
3.405983 1.034017 0.829523
3.370648 1.034144 0.830142
3.371407 1.003192 0.830476
3.405595 1.004577 0.813152
3.405356 1.034256 0.814493
3.370021 1.034384 0.815112
3.370779 1.003432 0.815446
3.441836 1.034224 0.825747
3.442305 1.062595 0.825743
3.406266 1.064030 0.827777
3.406316 1.034385 0.829500
3.440614 1.033787 0.810758
3.441083 1.062158 0.810754
3.405044 1.063593 0.812789
3.405094 1.033947 0.814511
3.405955 1.034421 0.829521
3.405905 1.064066 0.827798
3.369855 1.065504 0.829843
3.370620 1.034549 0.830140
3.405383 1.033913 0.814495
3.405333 1.063558 0.812772
3.369283 1.064995 0.814818
3.370048 1.034040 0.815114
3.442104 1.062440 0.825759
3.442581 1.090810 0.825679
3.405913 1.093539 0.827590
3.406064 1.063875 0.827794
3.441285 1.062371 0.810737
3.441761 1.090741 0.810656
3.405093 1.093470 0.812568
3.405245 1.063806 0.812771
3.406019 1.063932 0.827796
3.405867 1.093595 0.827592
3.369205 1.096320 0.829373
3.369969 1.065369 0.829841
3.405218 1.063753 0.812773
3.405066 1.093417 0.812570
3.368404 1.096141 0.814351
3.369168 1.065191 0.814818
3.442533 1.090863 0.825681
3.442997 1.119236 0.825605
3.405714 1.123251 0.827198
3.405864 1.093592 0.827593
3.441810 1.090745 0.810654
3.442274 1.119118 0.810578
3.404991 1.123133 0.812171
3.405142 1.093474 0.812566
3.405819 1.093665 0.827594
3.405668 1.123323 0.827199
3.368372 1.127340 0.828779
3.369157 1.096389 0.829375
3.405113 1.093408 0.812568
3.404962 1.123067 0.812173
3.367666 1.127084 0.813753
3.368451 1.096133 0.814348
3.371439 1.003369 0.830475
3.370681 1.034320 0.830142
3.336300 1.033940 0.832025
3.338669 1.001808 0.832012
3.370678 1.003254 0.815450
3.369919 1.034206 0.815116
3.335538 1.033826 0.816999
3.337907 1.001694 0.816986
3.338634 1.001748 0.832014
3.336265 1.033880 0.832027
3.301892 1.033499 0.833881
3.305855 1.000190 0.833551
3.337875 1.001753 0.816988
3.335506 1.033885 0.817001
3.301133 1.033504 0.818856
3.305096 1.000196 0.818525
3.305821 1.000136 0.833553
3.301857 1.033444 0.833883
3.267475 1.033062 0.835732
3.273050 0.998577 0.835074
3.305063 1.000248 0.818527
3.301100 1.033557 0.818858
3.266717 1.033174 0.820706
3.272293 0.998689 0.820048
3.273022 0.998525 0.835074
3.267446 1.033010 0.835733
3.233073 1.032628 0.837603
3.240245 0.996962 0.836606
3.272254 0.998740 0.820051
3.266679 1.033225 0.820709
3.232305 1.032843 0.822579
3.239477 0.997177 0.821582
3.240208 0.996907 0.836607
3.233037 1.032573 0.837603
3.198659 1.032188 0.839476
3.207433 0.995349 0.838099
3.239446 0.997231 0.821585
3.232274 1.032897 0.822581
3.197897 1.032512 0.824454
3.206671 0.995673 0.823077
3.370737 1.034348 0.830138
3.369971 1.065303 0.829842
3.333997 1.066098 0.832058
3.336355 1.033968 0.832021
3.369861 1.034242 0.815119
3.369095 1.065197 0.814823
3.333121 1.065993 0.817039
3.335479 1.033862 0.817002
3.336310 1.033914 0.832024
3.333952 1.066045 0.832061
3.297964 1.066841 0.834214
3.301937 1.033533 0.833879
3.335454 1.033916 0.817004
3.333096 1.066047 0.817040
3.297108 1.066843 0.819194
3.301081 1.033535 0.818859
3.301907 1.033481 0.833881
3.297934 1.066789 0.834216
3.261957 1.067585 0.836426
3.267524 1.033099 0.835729
3.301041 1.033588 0.818861
3.297068 1.066896 0.819196
3.261091 1.067692 0.821407
3.266658 1.033205 0.820710
3.267487 1.033049 0.835731
3.261920 1.067535 0.836428
3.225936 1.068330 0.838605
3.233114 1.032667 0.837601
3.266625 1.033256 0.820712
3.261058 1.067742 0.821409
3.225073 1.068538 0.823586
3.232251 1.032875 0.822582
3.233084 1.032623 0.837602
3.225906 1.068286 0.838606
3.189925 1.069079 0.840830
3.198707 1.032238 0.839474
3.232211 1.032920 0.822585
3.225033 1.068582 0.823590
3.189052 1.069375 0.825813
3.197834 1.032534 0.824457
3.370026 1.065373 0.829838
3.369262 1.096323 0.829370
3.331676 1.098300 0.831963
3.334052 1.066168 0.832054
3.369038 1.065190 0.814826
3.368273 1.096141 0.814358
3.330688 1.098117 0.816951
3.333064 1.065986 0.817042
3.333997 1.066106 0.832058
3.331621 1.098237 0.831967
3.294040 1.100210 0.834466
3.298009 1.066902 0.834211
3.333045 1.066051 0.817043
3.330669 1.098183 0.816952
3.293088 1.100155 0.819452
3.297057 1.066847 0.819197
3.297977 1.066854 0.834214
3.294008 1.100162 0.834469
3.256419 1.102137 0.836977
3.262000 1.067650 0.836424
3.297015 1.066898 0.819199
3.293046 1.100205 0.819454
3.255457 1.102181 0.821963
3.261039 1.067694 0.821410
3.261968 1.067597 0.836426
3.256387 1.102084 0.836979
3.218809 1.104054 0.839585
3.225983 1.068393 0.838603
3.260997 1.067750 0.821413
3.255416 1.102237 0.821966
3.217838 1.104206 0.824572
3.225013 1.068545 0.823590
3.225951 1.068333 0.838604
3.218776 1.103995 0.839586
3.181200 1.105970 0.842209
3.189970 1.069126 0.840828
3.224972 1.068607 0.823594
3.217797 1.104269 0.824576
3.180222 1.106244 0.827198
3.188991 1.069400 0.825817
3.369317 1.096390 0.829365
3.368532 1.127341 0.828769
3.329357 1.130493 0.831728
3.331731 1.098366 0.831958
3.368215 1.096138 0.814363
3.367430 1.127089 0.813767
3.328255 1.130242 0.816726
3.330629 1.098114 0.816955
3.331679 1.098295 0.831963
3.329304 1.130422 0.831733
3.290118 1.133578 0.834691
3.294098 1.100267 0.834462
3.330605 1.098190 0.816956
3.328230 1.130318 0.816727
3.289044 1.133474 0.819685
3.293024 1.100163 0.819456
3.294054 1.100193 0.834465
3.290075 1.133505 0.834695
3.250895 1.136651 0.837641
3.256465 1.102169 0.836974
3.292991 1.100242 0.819458
3.289011 1.133553 0.819687
3.249832 1.136700 0.822634
3.255402 1.102217 0.821967
3.256433 1.102113 0.836976
3.250863 1.136595 0.837643
3.211683 1.139751 0.840599
3.218855 1.104083 0.839582
3.255357 1.102278 0.821971
3.249787 1.136760 0.822638
3.210606 1.139915 0.825594
3.217779 1.104248 0.824577
3.218815 1.104041 0.839585
3.211643 1.139709 0.840602
3.172460 1.142852 0.843555
3.181240 1.106016 0.842207
3.217742 1.104295 0.824580
3.210569 1.139962 0.825597
3.171386 1.143105 0.828551
3.180166 1.106270 0.827202
3.174720 0.701428 0.896837
3.180364 0.734480 0.892936
3.173582 0.735803 0.915912
3.168682 0.701799 0.917812
3.160410 0.703310 0.892590
3.166054 0.736363 0.888689
3.159272 0.737686 0.911666
3.154372 0.703682 0.913566
3.180345 0.734520 0.893015
3.186028 0.767565 0.889140
3.178542 0.769763 0.913794
3.173563 0.735843 0.915991
3.166084 0.736391 0.888604
3.171767 0.769436 0.884729
3.164280 0.771633 0.909384
3.159301 0.737714 0.911581
3.186015 0.767605 0.889197
3.191657 0.800658 0.885289
3.183641 0.803625 0.911407
3.178529 0.769803 0.913852
3.171790 0.769462 0.884665
3.177431 0.802515 0.880757
3.169416 0.805481 0.906874
3.164304 0.771660 0.909320
3.166913 0.702020 0.920899
3.171812 0.736024 0.918999
3.159247 0.737959 0.933860
3.153991 0.703701 0.933023
3.156122 0.703464 0.910514
3.161022 0.737468 0.908614
3.148457 0.739402 0.923475
3.143201 0.705144 0.922638
3.172334 0.735981 0.918388
3.177313 0.769900 0.916191
3.165086 0.772223 0.934064
3.159769 0.737915 0.933249
3.160510 0.737580 0.909224
3.165489 0.771499 0.907027
3.153261 0.773822 0.924900
3.147945 0.739514 0.924085
3.177701 0.769866 0.915635
3.182813 0.803688 0.913189
3.170822 0.806557 0.934297
3.165473 0.772189 0.933508
3.165112 0.771602 0.907582
3.170224 0.805423 0.905137
3.158233 0.808293 0.926244
3.152884 0.773925 0.925455
3.148895 0.704182 0.935350
3.154150 0.738440 0.936187
3.130734 0.741536 0.937320
3.127329 0.707536 0.936317
3.148263 0.704667 0.920326
3.153518 0.738925 0.921163
3.130102 0.742021 0.922296
3.126697 0.708021 0.921293
3.154189 0.738471 0.936186
3.159505 0.772779 0.937001
3.134148 0.775578 0.938335
3.130772 0.741567 0.937319
3.153488 0.738963 0.921165
3.158805 0.773271 0.921981
3.133447 0.776070 0.923314
3.130072 0.742059 0.922298
3.159545 0.772813 0.937001
3.164894 0.807182 0.937790
3.137585 0.809622 0.939334
3.134188 0.775612 0.938334
3.158774 0.773305 0.921983
3.164123 0.807674 0.922773
3.136813 0.810114 0.924317
3.133416 0.776104 0.923317
3.443451 1.126630 0.818855
3.446105 1.128107 0.802735
3.407322 1.132044 0.804805
3.406168 1.130645 0.820447
3.441822 1.111754 0.817313
3.444475 1.113230 0.801193
3.405692 1.117167 0.803264
3.404539 1.115769 0.818905
3.406149 1.130651 0.820409
3.407303 1.132050 0.804767
3.368555 1.136197 0.806849
3.368853 1.134668 0.821989
3.404481 1.115771 0.818947
3.405635 1.117169 0.803306
3.366887 1.121316 0.805388
3.367185 1.119788 0.820527
4.109766 0.740327 0.786361
4.150279 0.738980 0.786758
4.149149 0.752925 0.787029
4.122629 0.756667 0.786711
4.109945 0.740566 0.771319
4.150457 0.739219 0.771716
4.149328 0.753164 0.771987
4.122808 0.756906 0.771669
4.150334 0.738948 0.786758
4.190747 0.736067 0.787068
4.177240 0.753458 0.787289
4.149205 0.752893 0.787029
4.150469 0.739248 0.771717
4.190882 0.736366 0.772026
4.177375 0.753758 0.772248
4.149340 0.753192 0.771988
4.122545 0.756686 0.786709
4.149066 0.752944 0.787028
4.149262 0.767116 0.787506
4.135376 0.773005 0.787009
4.122904 0.756917 0.771671
4.149424 0.753175 0.771989
4.149620 0.767347 0.772467
4.135735 0.773236 0.771970
4.149259 0.752924 0.787030
4.177294 0.753489 0.787290
4.163784 0.770863 0.787364
4.149455 0.767096 0.787508
4.149272 0.753192 0.771987
4.177307 0.753758 0.772247
4.163798 0.771132 0.772321
4.149469 0.767365 0.772465
4.087545 1.032628 0.789066
4.107629 1.007909 0.789074
4.134623 1.005077 0.789257
4.127872 1.023905 0.789257
4.087637 1.032682 0.774022
4.107722 1.007964 0.774029
4.134716 1.005131 0.774212
4.127965 1.023960 0.774212
4.127906 1.023996 0.789257
4.134656 1.005167 0.789257
4.159334 1.002276 0.789648
4.167955 1.014796 0.789371
4.127998 1.023857 0.774213
4.134748 1.005029 0.774212
4.159426 1.002138 0.774604
4.168046 1.014658 0.774327
4.168040 1.015007 0.789366
4.159419 1.002487 0.789643
4.187171 0.995107 0.790110
4.207994 1.004983 0.789505
4.168027 1.014432 0.774332
4.159406 1.001912 0.774609
4.187158 0.994532 0.775077
4.207981 1.004408 0.774471
4.107566 1.007922 0.789073
4.127663 0.983197 0.789165
4.139447 0.987790 0.789615
4.134559 1.005090 0.789256
4.107812 1.007908 0.774030
4.127909 0.983183 0.774122
4.139693 0.987775 0.774572
4.134805 1.005075 0.774213
4.134624 1.005173 0.789256
4.139512 0.987872 0.789615
4.153177 0.988037 0.789653
4.159301 1.002281 0.789647
4.134779 1.004992 0.774213
4.139667 0.987692 0.774572
4.153333 0.987857 0.774610
4.159457 1.002101 0.774604
4.159216 1.002583 0.789636
4.153092 0.988340 0.789642
4.166144 0.985331 0.790714
4.186968 0.995204 0.790104
4.159581 1.001792 0.774616
4.153458 0.987548 0.774622
4.166509 0.984540 0.775694
4.187333 0.994412 0.775084
4.190745 0.736238 0.787069
4.150333 0.739119 0.786760
4.157781 0.698908 0.786981
4.188860 0.699662 0.787392
4.190894 0.736142 0.772025
4.150481 0.739023 0.771716
4.157930 0.698813 0.771937
4.189009 0.699566 0.772348
4.188900 0.699495 0.787392
4.157821 0.698742 0.786981
4.163466 0.651064 0.786763
4.185883 0.663004 0.786745
4.188973 0.699652 0.772348
4.157894 0.698899 0.771937
4.163540 0.651221 0.771719
4.185957 0.663161 0.771702
4.150330 0.739136 0.786759
4.109818 0.740482 0.786362
4.127324 0.696597 0.786999
4.157779 0.698925 0.786981
4.150412 0.739006 0.771715
4.109900 0.740353 0.771318
4.127406 0.696468 0.771955
4.157861 0.698796 0.771937
4.157926 0.698853 0.786981
4.127471 0.696525 0.786999
4.138337 0.650570 0.787469
4.163572 0.651176 0.786762
4.157734 0.698779 0.771937
4.127279 0.696451 0.771956
4.138145 0.650496 0.772425
4.163380 0.651102 0.771719
4.113266 0.741960 0.785357
4.106450 0.739914 0.788881
4.122743 0.696822 0.791064
4.130772 0.698075 0.785995
4.106409 0.738873 0.772326
4.099593 0.736827 0.775850
4.115886 0.693734 0.778033
4.123915 0.694988 0.772964
4.131541 0.697622 0.785628
4.123512 0.696369 0.790698
4.135247 0.651793 0.791572
4.142407 0.651668 0.786098
4.123174 0.695351 0.773332
4.115145 0.694098 0.778402
4.126880 0.649522 0.779275
4.134040 0.649397 0.773802
4.089068 1.040019 0.782112
4.129396 1.031296 0.782303
4.129599 1.032942 0.767971
4.087504 1.040828 0.768570
4.086099 1.025315 0.780962
4.126427 1.016592 0.781152
4.126630 1.018238 0.766821
4.084535 1.026124 0.767419
4.129716 1.031223 0.782334
4.169764 1.022023 0.782449
4.171102 1.022872 0.762429
4.129919 1.032869 0.768003
4.126190 1.016647 0.781117
4.166238 1.007448 0.781232
4.167576 1.008297 0.761212
4.126393 1.018294 0.766786
4.169894 1.022007 0.782216
4.209847 1.011982 0.782355
4.211460 1.013043 0.751421
4.171232 1.022856 0.762196
4.166190 1.007445 0.781456
4.206144 0.997420 0.781595
4.207756 0.998481 0.750661
4.167528 1.008294 0.761436
4.110014 0.741115 0.782684
4.106906 0.743682 0.820046
4.124338 0.700507 0.820159
4.126307 0.698022 0.784867
4.096018 0.735627 0.782088
4.092910 0.738194 0.819449
4.110342 0.695020 0.819563
4.112311 0.692535 0.784271
4.126598 0.697126 0.784879
4.124629 0.699611 0.820170
4.136481 0.653562 0.818986
4.138333 0.652550 0.785752
4.112050 0.693342 0.784261
4.110081 0.695827 0.819552
4.121933 0.649777 0.818368
4.123785 0.648766 0.785134
4.106850 0.743800 0.820215
4.103289 0.746039 0.857255
4.121558 0.702791 0.855233
4.124282 0.700625 0.820329
4.092961 0.738081 0.819352
4.089400 0.740320 0.856392
4.107670 0.697072 0.854370
4.110393 0.694907 0.819466
4.124633 0.699542 0.820403
4.121910 0.701708 0.855307
4.133722 0.654405 0.852040
4.136486 0.653493 0.819218
4.110071 0.695899 0.819388
4.107348 0.698065 0.854293
4.119160 0.650762 0.851025
4.121924 0.649850 0.818204
4.099541 0.744113 0.863586
4.070927 0.729385 0.879951
4.087289 0.690489 0.876898
4.117810 0.700865 0.861564
4.093115 0.742236 0.850113
4.064501 0.727508 0.866477
4.080864 0.688612 0.863425
4.111385 0.698988 0.848091
4.117971 0.700351 0.861539
4.087450 0.689976 0.876874
4.101789 0.650362 0.873108
4.129783 0.653048 0.858272
4.111255 0.699417 0.848109
4.080734 0.689042 0.863443
4.095073 0.649428 0.859678
4.123067 0.652114 0.844842
3.993096 1.049368 0.795931
3.992139 1.017329 0.795669
4.021478 1.009479 0.794511
4.022424 1.044121 0.794789
3.992538 1.049506 0.780898
3.991580 1.017467 0.780635
4.020919 1.009617 0.779477
4.021866 1.044259 0.779755
3.992142 1.017277 0.795668
3.991274 0.985240 0.795369
4.020693 0.975755 0.794107
4.021482 1.009427 0.794510
3.991575 1.017453 0.780635
3.990706 0.985416 0.780336
4.020125 0.975930 0.779074
4.020914 1.009602 0.779477
3.991281 0.985182 0.795368
3.990723 0.953135 0.794929
4.020127 0.941754 0.793593
4.020700 0.975696 0.794106
3.990698 0.985408 0.780336
3.990140 0.953362 0.779897
4.019544 0.941981 0.778561
4.020116 0.975923 0.779074
3.990730 0.953110 0.794928
3.989807 0.921141 0.794509
4.019209 0.907651 0.793160
4.020133 0.941729 0.793592
3.990132 0.953321 0.779897
3.989209 0.921352 0.779477
4.018611 0.907861 0.778128
4.019536 0.941940 0.778560
3.989799 0.921112 0.794509
3.988525 0.889085 0.794103
4.018090 0.872489 0.792752
4.019201 0.907621 0.793160
3.989215 0.921315 0.779477
3.987940 0.889288 0.779070
4.017506 0.872692 0.777720
4.018617 0.907824 0.778127
3.988533 0.889002 0.794101
3.987256 0.856965 0.793675
4.019605 0.840812 0.791883
4.018099 0.872406 0.792750
3.987931 0.889306 0.779071
3.986654 0.857268 0.778645
4.019003 0.841115 0.776853
4.017496 0.872710 0.777720
4.022455 1.044115 0.794788
4.021509 1.009472 0.794510
4.050870 1.001821 0.793340
4.051785 1.038869 0.793647
4.021894 1.044252 0.779754
4.020947 1.009610 0.779476
4.050308 1.001958 0.778306
4.051223 1.039007 0.778613
4.021512 1.009398 0.794509
4.020723 0.975725 0.794105
4.050140 0.965733 0.792797
4.050872 1.001746 0.793339
4.020943 1.009614 0.779476
4.020154 0.975942 0.779073
4.049571 0.965949 0.777764
4.050303 1.001962 0.778306
4.020733 0.975679 0.794104
4.020160 0.941737 0.793591
4.049557 0.929812 0.792242
4.050149 0.965686 0.792796
4.020143 0.975918 0.779073
4.019570 0.941977 0.778560
4.048967 0.930052 0.777210
4.049559 0.965926 0.777764
4.020169 0.941716 0.793590
4.019244 0.907637 0.793158
4.048665 0.892877 0.791747
4.049566 0.929791 0.792241
4.019560 0.941927 0.778559
4.018635 0.907849 0.778127
4.048055 0.893089 0.776716
4.048957 0.930002 0.777210
4.019252 0.907607 0.793157
4.018142 0.872475 0.792750
4.047710 0.855304 0.791269
4.048673 0.892847 0.791747
4.018625 0.907808 0.778127
4.017514 0.872676 0.777719
4.047082 0.855505 0.776239
4.048045 0.893048 0.776716
4.018077 0.872376 0.792750
4.019583 0.840782 0.791883
4.049330 0.820608 0.790586
4.047645 0.855205 0.791270
4.017579 0.872705 0.777717
4.019086 0.841110 0.776850
4.048833 0.820936 0.775553
4.047148 0.855533 0.776237
4.051822 1.038855 0.793646
4.050907 1.001806 0.793338
4.080291 0.994359 0.792097
4.081149 1.033611 0.792501
4.051244 1.039008 0.778613
4.050329 1.001960 0.778305
4.079713 0.994513 0.777064
4.080571 1.033764 0.777468
4.050905 1.001726 0.793337
4.050172 0.965712 0.792795
4.079582 0.955204 0.791499
4.080289 0.994278 0.792096
4.050329 1.001965 0.778305
4.049597 0.965951 0.777763
4.079006 0.955443 0.776466
4.079714 0.994517 0.777064
4.050181 0.965663 0.792794
4.049589 0.929789 0.792240
4.078951 0.916093 0.790787
4.079591 0.955154 0.791497
4.049586 0.965926 0.777763
4.048994 0.930052 0.777209
4.078356 0.916356 0.775756
4.078996 0.955418 0.776466
4.049613 0.929774 0.792239
4.048711 0.892860 0.791745
4.078147 0.876826 0.790250
4.078975 0.916078 0.790786
4.048969 0.929991 0.777209
4.048068 0.893078 0.776716
4.077504 0.877044 0.775220
4.078331 0.916295 0.775756
4.048709 0.892833 0.791745
4.047746 0.855290 0.791267
4.077327 0.837551 0.789805
4.078145 0.876799 0.790250
4.048068 0.893028 0.776715
4.047105 0.855485 0.776237
4.076686 0.837747 0.774775
4.077504 0.876995 0.775220
4.047700 0.855242 0.791269
4.049386 0.820645 0.790585
4.076436 0.796593 0.789381
4.077281 0.837503 0.789806
4.047151 0.855457 0.776235
4.048836 0.820859 0.775552
4.075886 0.796808 0.774347
4.076731 0.837718 0.774772
4.084301 1.033540 0.791679
4.083443 0.994288 0.791275
4.090074 0.991668 0.787829
4.090983 1.032507 0.788242
4.077455 1.033827 0.778285
4.076597 0.994576 0.777881
4.083228 0.991956 0.774435
4.084137 1.032795 0.774848
4.083393 0.994238 0.791300
4.082686 0.955163 0.790702
4.089352 0.950790 0.787314
4.090024 0.991618 0.787853
4.076646 0.994546 0.777856
4.075938 0.955471 0.777258
4.082605 0.951097 0.773871
4.083277 0.991926 0.774410
4.082600 0.955107 0.790743
4.081960 0.916045 0.790033
4.088586 0.909878 0.786693
4.089266 0.950733 0.787355
4.076023 0.955448 0.777216
4.075383 0.916386 0.776506
4.082010 0.910219 0.773165
4.082690 0.951074 0.773828
4.081926 0.916017 0.790049
4.081098 0.876766 0.789513
4.087558 0.869007 0.786245
4.088552 0.909850 0.786708
4.075416 0.916334 0.776489
4.074589 0.877083 0.775953
4.081049 0.869324 0.772685
4.082042 0.910167 0.773148
4.081089 0.876742 0.789517
4.080271 0.837494 0.789072
4.086557 0.828135 0.785882
4.087549 0.868983 0.786249
4.074596 0.877026 0.775948
4.073778 0.837778 0.775503
4.080064 0.828420 0.772313
4.081056 0.869268 0.772680
4.080247 0.837462 0.789082
4.079402 0.796552 0.788657
4.085580 0.787417 0.785571
4.086533 0.828104 0.785893
4.073800 0.837729 0.775491
4.072955 0.796819 0.775066
4.079133 0.787683 0.771980
4.080086 0.828370 0.772302
4.087489 1.032552 0.789065
4.086580 0.991714 0.788652
4.105844 0.973282 0.788586
4.107574 1.007834 0.789073
4.087658 1.032726 0.774022
4.086749 0.991887 0.773609
4.106012 0.973455 0.773543
4.107742 1.008007 0.774030
4.086606 0.991655 0.788651
4.085934 0.950826 0.788112
4.107080 0.935008 0.788002
4.105869 0.973223 0.788585
4.086722 0.991869 0.773608
4.086050 0.951041 0.773069
4.107196 0.935223 0.772959
4.105986 0.973437 0.773542
4.085933 0.950779 0.788111
4.085253 0.909924 0.787449
4.107586 0.897228 0.787464
4.107080 0.934961 0.788001
4.086051 0.951009 0.773069
4.085371 0.910154 0.772406
4.107704 0.897458 0.772421
4.107197 0.935191 0.772958
4.085270 0.909907 0.787449
4.084276 0.869064 0.786985
4.107222 0.860382 0.786959
4.107603 0.897211 0.787463
4.085354 0.910093 0.772405
4.084360 0.869250 0.771942
4.107306 0.860568 0.771915
4.107687 0.897397 0.772420
4.084035 0.869249 0.786980
4.083043 0.828401 0.786612
4.106795 0.823868 0.788626
4.106981 0.860567 0.786953
4.084600 0.868987 0.771948
4.083608 0.828139 0.771580
4.107361 0.823606 0.773594
4.107546 0.860306 0.771921
4.082933 0.828014 0.786605
4.081980 0.787327 0.786284
4.106166 0.786516 0.786616
4.106686 0.823481 0.788619
4.083716 0.828449 0.771587
4.082763 0.787762 0.771266
4.106950 0.786951 0.771598
4.107469 0.823916 0.773601
4.107535 1.007773 0.789071
4.105805 0.973221 0.788584
4.127011 0.950911 0.788499
4.127632 0.983048 0.789163
4.107822 1.008023 0.774031
4.106091 0.973471 0.773544
4.127298 0.951161 0.773459
4.127919 0.983298 0.774123
4.105861 0.973186 0.788584
4.107072 0.934972 0.788001
4.129555 0.917967 0.787939
4.127067 0.950876 0.788499
4.106036 0.973437 0.773543
4.107247 0.935223 0.772959
4.129730 0.918218 0.772897
4.127243 0.951127 0.773458
4.107128 0.934924 0.788001
4.107635 0.897190 0.787463
4.130245 0.884893 0.787184
4.129611 0.917919 0.787939
4.107193 0.935199 0.772958
4.107700 0.897466 0.772421
4.130311 0.885169 0.772141
4.129676 0.918195 0.772896
4.107684 0.897209 0.787464
4.107303 0.860381 0.786959
4.130460 0.851908 0.786908
4.130294 0.884911 0.787184
4.107651 0.897377 0.772420
4.107271 0.860549 0.771915
4.130427 0.852076 0.771864
4.130262 0.885080 0.772140
4.107590 0.860638 0.786951
4.107404 0.823939 0.788624
4.130913 0.819173 0.787161
4.130746 0.852166 0.786900
4.106984 0.860221 0.771924
4.106799 0.823522 0.773597
4.130307 0.818756 0.772134
4.130141 0.851749 0.771873
4.107251 0.823458 0.788628
4.106732 0.786493 0.786625
4.130958 0.785696 0.786962
4.130759 0.818692 0.787165
4.106952 0.823933 0.773593
4.106433 0.786968 0.771590
4.130659 0.786171 0.771928
4.130460 0.819167 0.772130
4.078894 0.799047 0.788461
4.051844 0.823099 0.789665
4.050138 0.815018 0.794637
4.078812 0.786066 0.791801
4.073427 0.794305 0.775271
4.046377 0.818357 0.776475
4.044672 0.810276 0.781447
4.073346 0.781324 0.778611
4.051352 0.823846 0.789541
4.021605 0.844020 0.790838
4.020015 0.835019 0.795194
4.049647 0.815765 0.794513
4.046811 0.817656 0.776602
4.017064 0.837830 0.777899
4.015474 0.828829 0.782255
4.045106 0.809576 0.781574
4.021341 0.844099 0.790887
3.988992 0.860252 0.792679
3.988701 0.851963 0.797283
4.019751 0.835098 0.795244
4.017266 0.837787 0.777852
3.984917 0.853940 0.779644
3.984627 0.845651 0.784248
4.015676 0.828787 0.782209
4.081500 0.788881 0.785697
4.052826 0.817834 0.788533
4.055942 0.811874 0.826347
4.081820 0.784430 0.823303
4.070659 0.778492 0.784757
4.041985 0.807445 0.787593
4.045100 0.801485 0.825406
4.070978 0.774041 0.822363
4.051497 0.818927 0.788684
4.021865 0.838180 0.789365
4.023851 0.833230 0.827983
4.054612 0.812967 0.826497
4.043256 0.806400 0.787446
4.013624 0.825654 0.788127
4.015610 0.820704 0.826744
4.046372 0.800440 0.825259
4.021229 0.838542 0.789513
3.990179 0.855406 0.791552
3.990553 0.850024 0.831325
4.023215 0.833592 0.828130
4.014198 0.825329 0.787983
3.983149 0.842193 0.790022
3.983522 0.836811 0.829795
4.016184 0.820379 0.826600
4.081916 0.784312 0.823461
4.056037 0.811756 0.826505
4.055951 0.807770 0.864149
4.081914 0.779668 0.860897
4.070884 0.774150 0.822280
4.045006 0.801594 0.825324
4.044919 0.797608 0.862968
4.070883 0.769506 0.859716
4.054653 0.812933 0.826569
4.023891 0.833196 0.828054
4.024096 0.829130 0.866629
4.054566 0.808947 0.864213
4.046334 0.800465 0.825264
4.015572 0.820728 0.826750
4.015777 0.816662 0.865325
4.046247 0.796479 0.862909
4.023018 0.833684 0.828206
3.990356 0.850116 0.831400
3.990672 0.844571 0.871077
4.023223 0.829617 0.866781
4.016382 0.820277 0.826603
3.983720 0.836709 0.829798
3.984036 0.831164 0.869474
4.016587 0.816210 0.865179
4.079019 0.776266 0.867173
4.053056 0.804368 0.870425
4.031830 0.777573 0.885010
4.052355 0.756506 0.882537
4.073754 0.772881 0.853492
4.047791 0.800983 0.856744
4.026565 0.774188 0.871329
4.047090 0.753121 0.868856
4.052510 0.804894 0.870465
4.022040 0.825076 0.872881
4.006693 0.794069 0.887996
4.031284 0.778099 0.885049
4.048285 0.800500 0.856710
4.017815 0.820682 0.859126
4.002468 0.789674 0.874241
4.027059 0.773705 0.871295
4.021721 0.825206 0.872929
3.989169 0.840160 0.877225
3.979128 0.805183 0.890825
4.006373 0.794199 0.888044
4.018077 0.820583 0.859084
3.985526 0.835537 0.863380
3.975484 0.800560 0.876979
4.002730 0.789575 0.874199
3.989563 0.855667 0.791816
3.970189 0.864555 0.792578
3.970164 0.857806 0.832765
3.989936 0.850284 0.831589
3.983714 0.841958 0.789762
3.964340 0.850846 0.790524
3.964316 0.844097 0.830710
3.984087 0.836575 0.829534
3.989520 0.850434 0.831672
3.969748 0.857956 0.832848
3.969720 0.851198 0.873035
3.989835 0.844890 0.871349
3.984504 0.836413 0.829531
3.964732 0.843935 0.830707
3.964705 0.837177 0.870893
3.984820 0.830868 0.869207
3.988664 0.840211 0.877323
3.968549 0.846519 0.879009
3.959093 0.811168 0.892710
3.978622 0.805234 0.890923
3.985981 0.835506 0.863287
3.965866 0.841814 0.864973
3.956410 0.806463 0.878674
3.975940 0.800529 0.876887
3.969477 0.864763 0.792905
3.933556 0.876743 0.794887
3.934077 0.867885 0.835259
3.969452 0.858014 0.833092
3.964997 0.850657 0.790200
3.929076 0.862638 0.792182
3.929597 0.853779 0.832554
3.964972 0.843909 0.830386
3.969096 0.858105 0.833156
3.933721 0.867976 0.835324
3.934241 0.859095 0.875691
3.969068 0.851347 0.873343
3.965329 0.843802 0.830402
3.929954 0.853673 0.832570
3.930474 0.844792 0.872937
3.965302 0.837044 0.870589
3.968298 0.846677 0.878999
3.933470 0.854425 0.881346
3.925233 0.818420 0.895967
3.958842 0.811326 0.892699
3.966063 0.841670 0.864988
3.931235 0.849419 0.867336
3.922998 0.813413 0.881957
3.956607 0.806319 0.878689
3.933517 0.876687 0.795205
3.897589 0.888661 0.797193
3.898648 0.877693 0.837730
3.934037 0.867829 0.835577
3.929044 0.862715 0.791869
3.893117 0.874689 0.793857
3.894176 0.863721 0.834393
3.929565 0.853857 0.832241
3.933692 0.867914 0.835647
3.898302 0.877777 0.837799
3.899367 0.866841 0.878347
3.934212 0.859033 0.876013
3.929912 0.853752 0.832252
3.894522 0.863616 0.834405
3.895587 0.852680 0.874953
3.930432 0.844872 0.872619
3.933463 0.854573 0.881293
3.898618 0.862381 0.883626
3.891618 0.825663 0.899185
3.925226 0.818568 0.895914
3.931174 0.849286 0.867395
3.896329 0.857093 0.869729
3.889329 0.820375 0.885287
3.922936 0.813280 0.882016
3.896946 0.888746 0.797543
3.860115 0.897620 0.799184
3.861282 0.884802 0.840171
3.898004 0.877778 0.838079
3.893689 0.874622 0.793511
3.856858 0.883496 0.795152
3.858025 0.870678 0.836139
3.894747 0.863654 0.834047
3.897692 0.877826 0.838137
3.860970 0.884850 0.840229
3.862153 0.872090 0.881234
3.898757 0.866890 0.878685
3.895061 0.863582 0.834071
3.858338 0.870606 0.836162
3.859521 0.857846 0.877167
3.896125 0.852646 0.874619
3.898365 0.862545 0.883600
3.861761 0.867746 0.886148
3.857291 0.830254 0.902175
3.891365 0.825827 0.899158
3.896512 0.856941 0.869761
3.859908 0.862142 0.872309
3.855438 0.824650 0.888336
3.889512 0.820223 0.885319
3.859967 0.897570 0.799455
3.823001 0.905869 0.801034
3.824205 0.891275 0.842504
3.861134 0.884752 0.840442
3.856932 0.883561 0.794885
3.819965 0.891860 0.796464
3.821170 0.877265 0.837934
3.858099 0.870743 0.835872
3.860843 0.884792 0.840493
3.823915 0.891314 0.842556
3.825135 0.876825 0.884065
3.862026 0.872032 0.881498
3.858392 0.870676 0.835903
3.821463 0.877198 0.837965
3.822684 0.862709 0.879474
3.859574 0.857916 0.876908
3.861692 0.867827 0.886124
3.824801 0.872619 0.888691
3.823078 0.834315 0.905120
3.857222 0.830335 0.902150
3.859906 0.862070 0.872339
3.823016 0.866863 0.874906
3.821293 0.828558 0.891335
3.855437 0.824578 0.888365
3.822419 0.905904 0.801237
3.805870 0.908082 0.802141
3.807046 0.892979 0.843750
3.823624 0.891309 0.842707
3.820493 0.891836 0.796263
3.803943 0.894014 0.797167
3.805119 0.878911 0.838776
3.821698 0.877241 0.837734
3.823414 0.891319 0.842750
3.806836 0.892989 0.843793
3.808015 0.877923 0.885416
3.824635 0.876830 0.884259
3.821910 0.877201 0.837774
3.805331 0.878871 0.838817
3.806510 0.863805 0.880440
3.823130 0.862711 0.879283
3.824895 0.872768 0.888614
3.808275 0.873861 0.889770
3.805152 0.835803 0.907957
3.823172 0.834463 0.905042
3.822869 0.866720 0.874988
3.806249 0.867813 0.876144
3.803126 0.829755 0.894331
3.821146 0.828415 0.891416
3.805577 0.908086 0.802224
3.764188 0.911455 0.804831
3.765287 0.895968 0.846397
3.806753 0.892983 0.843833
3.804178 0.894015 0.797087
3.762788 0.897383 0.799694
3.763888 0.881897 0.841261
3.805354 0.878912 0.838696
3.806676 0.892973 0.843882
3.765210 0.895957 0.846446
3.766307 0.880400 0.887988
3.807854 0.877906 0.885505
3.805433 0.878892 0.838731
3.763967 0.881876 0.841295
3.765065 0.866319 0.882838
3.806612 0.863825 0.880354
3.807872 0.874065 0.889725
3.766325 0.876559 0.892209
3.763639 0.838291 0.910963
3.804749 0.836006 0.907911
3.806593 0.867613 0.876194
3.765046 0.870107 0.878677
3.762360 0.831840 0.897432
3.803470 0.829555 0.894380
3.764144 0.911434 0.804899
3.722753 0.914811 0.807509
3.723775 0.898876 0.849007
3.765243 0.895947 0.846466
3.762749 0.897411 0.799630
3.721358 0.900788 0.802240
3.722380 0.884853 0.843738
3.763848 0.881924 0.841197
3.765166 0.895933 0.846522
3.723698 0.898862 0.849063
3.724713 0.882878 0.890541
3.766263 0.880376 0.888064
3.763928 0.881906 0.841224
3.722460 0.884835 0.843766
3.723475 0.868851 0.885243
3.765026 0.866349 0.882767
3.766285 0.876634 0.892176
3.724735 0.879136 0.894653
3.722494 0.840655 0.913983
3.763599 0.838366 0.910930
3.765002 0.870037 0.878716
3.723452 0.872539 0.881192
3.721211 0.834058 0.900522
3.762317 0.831769 0.897470
3.722645 0.914794 0.807579
3.681238 0.917733 0.810147
3.682174 0.901439 0.851608
3.723668 0.898859 0.849077
3.721382 0.900810 0.802176
3.679975 0.903748 0.804744
3.680911 0.887454 0.846205
3.722405 0.884875 0.843674
3.723609 0.898845 0.849127
3.682115 0.901424 0.851658
3.683051 0.885116 0.893114
3.724624 0.882861 0.890605
3.722466 0.884857 0.843707
3.680972 0.887436 0.846238
3.681908 0.871128 0.887694
3.723481 0.868873 0.885185
3.724678 0.879209 0.894622
3.683105 0.881464 0.897131
3.681320 0.842867 0.916961
3.722437 0.840728 0.913952
3.723426 0.872470 0.881229
3.681853 0.874725 0.883738
3.680069 0.836128 0.903568
3.721185 0.833989 0.900559
3.680657 0.917753 0.810172
3.639110 0.917266 0.812368
3.639873 0.901213 0.854112
3.681592 0.901459 0.851633
3.680474 0.903730 0.804724
3.638928 0.903243 0.806920
3.639691 0.887190 0.848665
3.681409 0.887436 0.846185
3.681652 0.901442 0.851675
3.639934 0.901196 0.854154
3.640696 0.885140 0.895896
3.682589 0.885133 0.893131
3.681351 0.887421 0.846227
3.639632 0.887175 0.848706
3.640394 0.871120 0.890448
3.682287 0.871113 0.887683
3.682867 0.881501 0.897131
3.640975 0.881508 0.899897
3.639872 0.843178 0.919387
3.681083 0.842904 0.916961
3.682008 0.874690 0.883744
3.640115 0.874697 0.886509
3.639012 0.836367 0.906000
3.680223 0.836094 0.903573
3.639066 0.917286 0.812316
3.597522 0.916786 0.814507
3.598110 0.901012 0.856546
3.639829 0.901234 0.854061
3.638888 0.903222 0.806976
3.597344 0.902722 0.809168
3.597932 0.886947 0.851207
3.639651 0.887169 0.848721
3.639891 0.901215 0.854106
3.598171 0.900993 0.856592
3.598762 0.885164 0.898611
3.640653 0.885159 0.895848
3.639591 0.887156 0.848759
3.597872 0.886934 0.851245
3.598463 0.871105 0.893264
3.640354 0.871100 0.890501
3.640934 0.881486 0.899910
3.599043 0.881491 0.902673
3.598619 0.843431 0.921830
3.639831 0.843156 0.919401
3.640073 0.874719 0.886501
3.598183 0.874724 0.889263
3.597758 0.836664 0.908420
3.638970 0.836389 0.905991
3.597478 0.916807 0.814454
3.555943 0.916318 0.816649
3.556360 0.900812 0.858977
3.598066 0.901032 0.856493
3.597304 0.902700 0.809226
3.555769 0.902212 0.811421
3.556186 0.886706 0.853749
3.597893 0.886926 0.851265
3.598126 0.901011 0.856547
3.556420 0.900791 0.859031
3.556836 0.885184 0.901325
3.598717 0.885182 0.898566
3.597834 0.886916 0.851295
3.556128 0.886695 0.853779
3.556543 0.871089 0.896073
3.598425 0.871086 0.893314
3.599002 0.881470 0.902686
3.557120 0.881472 0.905445
3.557368 0.843684 0.924274
3.598577 0.843410 0.921843
3.598141 0.874745 0.889255
3.556259 0.874747 0.892014
3.556506 0.836960 0.910843
3.597716 0.836686 0.908412
3.556457 0.918719 0.817263
3.521887 0.915929 0.819349
3.521637 0.910493 0.822332
3.555904 0.912955 0.820574
3.556286 0.911358 0.804143
3.521716 0.908568 0.806229
3.521466 0.903132 0.809212
3.555733 0.905594 0.807454
3.521785 0.915977 0.819323
3.487316 0.912282 0.821402
3.487563 0.906382 0.824896
3.521534 0.910541 0.822306
3.521750 0.908514 0.806260
3.487281 0.904819 0.808339
3.487529 0.898919 0.811832
3.521500 0.903078 0.809243
3.487111 0.912627 0.821190
3.452789 0.907632 0.823261
3.453803 0.900149 0.828445
3.487359 0.906727 0.824684
3.487417 0.904464 0.808556
3.453096 0.899469 0.810627
3.454109 0.891986 0.815811
3.487665 0.898564 0.812050
3.555512 0.916339 0.816574
3.521245 0.913877 0.818333
3.525343 0.899168 0.860802
3.555929 0.900833 0.858903
3.556126 0.902189 0.811499
3.521859 0.899727 0.813258
3.525957 0.885018 0.855727
3.556543 0.886683 0.853828
3.556109 0.900821 0.858950
3.525522 0.899156 0.860850
3.529652 0.884402 0.903305
3.556524 0.885214 0.901244
3.556368 0.886664 0.853865
3.525782 0.884999 0.855764
3.529912 0.870245 0.898219
3.556784 0.871057 0.896158
3.556938 0.881385 0.905497
3.530066 0.880573 0.907558
3.529974 0.842656 0.925373
3.557185 0.843597 0.924326
3.556373 0.874834 0.891965
3.529501 0.874022 0.894026
3.529409 0.836105 0.911841
3.556620 0.837046 0.910794
3.520947 0.913897 0.818222
3.486976 0.909738 0.820811
3.493687 0.896380 0.863064
3.525044 0.899188 0.860692
3.522092 0.899702 0.813373
3.488122 0.895542 0.815962
3.494833 0.882184 0.858215
3.526190 0.884992 0.855842
3.525302 0.899196 0.860716
3.493945 0.896388 0.863088
3.500663 0.883010 0.905324
3.529432 0.884442 0.903170
3.525943 0.884956 0.855903
3.494587 0.882148 0.858276
3.501305 0.868770 0.900511
3.530074 0.870202 0.898358
3.530060 0.880461 0.907611
3.501291 0.879030 0.909765
3.502805 0.841258 0.927027
3.529968 0.842545 0.925426
3.529452 0.874131 0.893976
3.500683 0.872699 0.896130
3.502197 0.834928 0.913393
3.529360 0.836214 0.911791
3.486563 0.909750 0.820640
3.453008 0.903173 0.824401
3.460756 0.891986 0.865892
3.493275 0.896392 0.862893
3.488468 0.895521 0.816140
3.454913 0.888944 0.819901
3.462661 0.877756 0.861392
3.495180 0.882163 0.858393
3.493670 0.896435 0.862889
3.461151 0.892029 0.865888
3.468903 0.880811 0.907371
3.500388 0.883058 0.905124
3.494799 0.882095 0.858481
3.462280 0.877688 0.861480
3.470033 0.866471 0.902963
3.501518 0.868717 0.900716
3.501272 0.879034 0.909764
3.469787 0.876787 0.912011
3.475687 0.839558 0.929311
3.502786 0.841263 0.927026
3.500645 0.872691 0.896135
3.469160 0.870445 0.898383
3.475061 0.833216 0.915683
3.502159 0.834920 0.913398
3.330443 0.845320 0.865571
3.321547 0.854740 0.868623
3.296091 0.831709 0.873853
3.303262 0.821770 0.871023
3.326505 0.846450 0.851094
3.317609 0.855870 0.854146
3.292153 0.832839 0.859377
3.299324 0.822900 0.856546
3.303285 0.821648 0.871006
3.296114 0.831587 0.873836
3.270653 0.808533 0.878927
3.276195 0.798128 0.876332
3.299248 0.822975 0.856573
3.292078 0.832914 0.859404
3.266616 0.809859 0.864495
3.272159 0.799455 0.861900
3.362903 0.866122 0.858836
3.328340 0.847905 0.862865
3.331597 0.843300 0.894102
3.366753 0.861232 0.891041
3.369495 0.852875 0.856115
3.334932 0.834657 0.860144
3.338189 0.830053 0.891381
3.373345 0.847985 0.888320
3.367017 0.860978 0.892300
3.331861 0.843047 0.895361
3.337862 0.834446 0.923463
3.371149 0.851158 0.921456
3.373089 0.848224 0.887122
3.337934 0.830293 0.890183
3.343934 0.821692 0.918285
3.377222 0.838403 0.916278
3.373308 0.847360 0.925891
3.340021 0.830648 0.927898
3.355851 0.806419 0.938865
3.379113 0.818634 0.937294
3.375079 0.842166 0.911883
3.341791 0.825454 0.913890
3.357621 0.801225 0.924856
3.380883 0.813440 0.923286
3.326976 0.849089 0.864967
3.299794 0.825540 0.870418
3.305217 0.822759 0.872776
3.330097 0.844477 0.868126
3.329985 0.842667 0.851698
3.302804 0.819117 0.857150
3.308227 0.816336 0.859508
3.333107 0.838054 0.854858
3.300011 0.825258 0.870592
3.272921 0.801738 0.875919
3.280539 0.800779 0.877604
3.305434 0.822478 0.872950
3.302535 0.819353 0.856987
3.275446 0.795833 0.862313
3.283064 0.794874 0.863999
3.307958 0.816572 0.859345
3.326874 0.846952 0.862854
3.301994 0.825234 0.867505
3.306973 0.822237 0.897381
3.330131 0.842347 0.894091
3.336339 0.835571 0.860163
3.311459 0.813853 0.864813
3.316438 0.810856 0.894689
3.339596 0.830967 0.891400
3.330377 0.841996 0.895574
3.307219 0.821886 0.898863
3.315494 0.814158 0.924849
3.336378 0.833395 0.923676
3.339361 0.831306 0.889975
3.316203 0.811195 0.893265
3.324478 0.803467 0.919250
3.345362 0.822705 0.918077
3.339284 0.830115 0.927946
3.318400 0.810878 0.929118
3.335981 0.790343 0.938933
3.355114 0.805887 0.938912
3.342480 0.825954 0.913845
3.321596 0.806717 0.915018
3.339177 0.786182 0.924832
3.358310 0.801726 0.924811
3.301978 0.825212 0.867540
3.277083 0.803514 0.872194
3.283930 0.802248 0.900483
3.306957 0.822215 0.897417
3.311427 0.813834 0.864785
3.286532 0.792135 0.869439
3.293379 0.790869 0.897728
3.316406 0.810836 0.894661
3.307319 0.821759 0.899237
3.284292 0.801792 0.902303
3.294932 0.794938 0.926473
3.315594 0.814031 0.925222
3.316059 0.811282 0.892895
3.293032 0.791316 0.895962
3.303671 0.784462 0.920131
3.324334 0.803555 0.918881
3.318470 0.810835 0.929146
3.297808 0.791742 0.930397
3.317031 0.774311 0.939447
3.336051 0.790300 0.938961
3.321485 0.806725 0.914991
3.300823 0.787631 0.916242
3.320046 0.770200 0.925292
3.339066 0.786190 0.924806
3.272965 0.800917 0.876228
3.255340 0.769552 0.882900
3.262907 0.768045 0.884522
3.280582 0.799958 0.877913
3.275358 0.796599 0.862016
3.257734 0.765234 0.868688
3.265301 0.763727 0.870310
3.282976 0.795640 0.863701
3.255496 0.769434 0.882959
3.237876 0.738062 0.889626
3.245383 0.736012 0.891190
3.263062 0.767927 0.884581
3.257543 0.765289 0.868642
3.239923 0.733917 0.875309
3.247431 0.731867 0.876872
3.265110 0.763782 0.870264
3.238058 0.737939 0.889684
3.220123 0.706707 0.896356
3.227891 0.703970 0.897854
3.245565 0.735888 0.891248
3.239706 0.733977 0.875264
3.221771 0.702745 0.881936
3.229540 0.700009 0.883434
3.247213 0.731927 0.876828
3.275533 0.801646 0.872455
3.257857 0.769733 0.879064
3.264165 0.768792 0.906334
3.282380 0.800381 0.900744
3.288040 0.793950 0.869188
3.270364 0.762037 0.875797
3.276672 0.761095 0.903067
3.294887 0.792684 0.897477
3.283193 0.799977 0.903008
3.264978 0.768388 0.908598
3.276216 0.761344 0.927588
3.293832 0.793122 0.927177
3.294092 0.793080 0.895262
3.275877 0.761491 0.900853
3.287115 0.754447 0.919842
3.304731 0.786226 0.919432
3.297192 0.790769 0.930456
3.279576 0.758991 0.930867
3.298761 0.744793 0.938047
3.316415 0.773338 0.939506
3.301401 0.788556 0.916182
3.283785 0.756778 0.916593
3.302970 0.742580 0.923773
3.320624 0.771125 0.925232
3.257812 0.769708 0.878949
3.240133 0.737793 0.885557
3.245486 0.737313 0.910325
3.264120 0.768766 0.906219
3.270373 0.761999 0.875924
3.252694 0.730083 0.882532
3.258046 0.729604 0.907300
3.276681 0.761057 0.903194
3.265478 0.768063 0.909451
3.246843 0.736610 0.913557
3.259387 0.729625 0.928773
3.276716 0.761020 0.928441
3.275341 0.761752 0.900005
3.256707 0.730299 0.904111
3.269251 0.723314 0.919326
3.286579 0.754709 0.918995
3.279875 0.758764 0.930979
3.262546 0.727369 0.931311
3.281183 0.716182 0.936648
3.299059 0.744566 0.938159
3.283452 0.756944 0.916480
3.266123 0.725549 0.916811
3.284760 0.714362 0.922148
3.302636 0.742746 0.923659
3.240078 0.737771 0.885370
3.222404 0.705853 0.891976
3.226356 0.705982 0.912770
3.245430 0.737291 0.910138
3.252713 0.730042 0.882730
3.235039 0.698124 0.889336
3.238991 0.698253 0.910130
3.258065 0.729562 0.907498
3.247443 0.736180 0.914348
3.228369 0.704870 0.916980
3.242935 0.698190 0.929818
3.259987 0.729194 0.929563
3.256071 0.730667 0.903324
3.236997 0.699358 0.905956
3.251563 0.692678 0.918794
3.268615 0.723681 0.918540
3.262890 0.727113 0.931415
3.245838 0.696109 0.931669
3.263720 0.687489 0.935259
3.281527 0.715926 0.936752
3.265744 0.725746 0.916706
3.248692 0.694742 0.916961
3.266573 0.686122 0.920551
3.284381 0.714558 0.922043
3.324846 0.768239 0.933271
3.307191 0.739693 0.931812
3.309220 0.739301 0.914919
3.326965 0.767489 0.916247
3.312215 0.776209 0.931458
3.294560 0.747663 0.929999
3.296590 0.747271 0.913106
3.314335 0.775460 0.914433
3.307182 0.739698 0.931897
3.289306 0.711314 0.930386
3.291979 0.710809 0.913761
3.309211 0.739306 0.915004
3.294535 0.747601 0.929911
3.276658 0.719217 0.928400
3.279331 0.718711 0.911775
3.296564 0.747209 0.913018
3.289226 0.711194 0.930405
3.271419 0.682758 0.928913
3.273763 0.682720 0.912379
3.291900 0.710689 0.913780
3.276702 0.719280 0.928378
3.258894 0.690843 0.926885
3.261238 0.690805 0.910352
3.279375 0.718774 0.911753
3.803727 0.825299 0.902022
3.762616 0.827584 0.905074
3.760580 0.826055 0.889699
3.801613 0.823387 0.886254
3.804488 0.840222 0.900272
3.763378 0.842507 0.903324
3.761341 0.840979 0.887949
3.802374 0.838310 0.884504
3.762555 0.827569 0.904901
3.721449 0.829858 0.907953
3.719482 0.828764 0.892969
3.760518 0.826040 0.889527
3.763357 0.842527 0.903503
3.722251 0.844816 0.906555
3.720284 0.843722 0.891571
3.761320 0.840999 0.888129
3.721438 0.829845 0.907796
3.680321 0.831984 0.910805
3.678413 0.831138 0.896120
3.719471 0.828751 0.892811
3.722181 0.844833 0.906719
3.681064 0.846972 0.909728
3.679156 0.846126 0.895043
3.720213 0.843739 0.891735
3.680655 0.831973 0.910768
3.639444 0.832247 0.913194
3.637532 0.831117 0.898154
3.678747 0.831127 0.896083
3.680648 0.846985 0.909771
3.639437 0.847259 0.912197
3.637525 0.846129 0.897157
3.678740 0.846139 0.895086
3.639414 0.832258 0.913335
3.598203 0.832533 0.915765
3.596289 0.831067 0.900370
3.637503 0.831128 0.898295
3.639384 0.847248 0.912061
3.598172 0.847524 0.914490
3.596259 0.846057 0.899095
3.637472 0.846118 0.897020
3.598173 0.832547 0.915918
3.556963 0.832821 0.918349
3.555045 0.830990 0.902605
3.596259 0.831081 0.900524
3.598119 0.847509 0.914340
3.556909 0.847783 0.916771
3.554992 0.845952 0.901027
3.596206 0.846043 0.898946
4.130699 0.785871 0.786966
4.106472 0.786669 0.786628
4.122594 0.756781 0.786711
4.135425 0.773100 0.787011
4.130929 0.785939 0.771923
4.106702 0.786736 0.771585
4.122824 0.756849 0.771668
4.135655 0.773168 0.771968
4.106452 0.786643 0.786628
4.082265 0.787454 0.786296
4.109711 0.740415 0.786361
4.122574 0.756755 0.786711
4.106685 0.786746 0.771585
4.082499 0.787557 0.771253
4.109945 0.740518 0.771318
4.122807 0.756859 0.771668
4.113595 0.742501 0.785017
4.086149 0.789540 0.784952
4.079890 0.785694 0.791379
4.106779 0.740455 0.788541
4.106036 0.738421 0.772666
4.078589 0.785460 0.772601
4.072330 0.781614 0.779028
4.099219 0.736375 0.776190
4.082551 0.787516 0.785561
4.082870 0.783065 0.823167
4.106332 0.744845 0.820085
4.109440 0.742278 0.782724
4.069661 0.779787 0.784887
4.069980 0.775336 0.822493
4.093442 0.737116 0.819412
4.096550 0.734549 0.782050
4.082815 0.783143 0.823301
4.082813 0.778499 0.860736
4.102716 0.747162 0.857259
4.106277 0.744923 0.820219
4.070032 0.775256 0.822435
4.070031 0.770612 0.859870
4.089933 0.739275 0.856392
4.093494 0.737036 0.819353
4.079463 0.775856 0.867078
4.052799 0.756096 0.882441
4.070752 0.729791 0.879964
