0.009709 0.725081 -0.229235
-0.015220 0.690452 -0.331250
0.009754 0.690464 -0.331240
0.009736 0.689791 -0.280501
-0.015239 0.689763 -0.280509
-0.015249 0.726413 -0.330768
0.009726 0.726425 -0.330757
0.009708 0.725752 -0.280018
-0.015267 0.725724 -0.280026
0.009778 0.690464 -0.331233
0.034753 0.690470 -0.331222
0.034735 0.689819 -0.280486
0.009759 0.689791 -0.280494
0.009752 0.726425 -0.330764
0.034728 0.726431 -0.330753
0.034709 0.725780 -0.280017
0.009734 0.725752 -0.280025
-0.015211 0.691150 -0.382043
0.009764 0.691138 -0.382030
0.009740 0.690465 -0.331292
-0.015235 0.690453 -0.331303
-0.015211 0.727110 -0.381557
0.009764 0.727099 -0.381545
0.009740 0.726425 -0.330806
-0.015235 0.726414 -0.330817
0.009786 0.691138 -0.382022
0.034761 0.691122 -0.382010
0.034737 0.690471 -0.331273
0.009762 0.690464 -0.331284
0.009792 0.727099 -0.381553
0.034767 0.727083 -0.381541
0.034744 0.726432 -0.330803
0.009768 0.726425 -0.330814
-0.015202 0.691849 -0.432833
0.009773 0.691814 -0.432821
0.009747 0.691139 -0.382082
-0.015228 0.691150 -0.382094
-0.015169 0.727810 -0.432346
0.009807 0.727774 -0.432334
0.009781 0.727099 -0.381595
-0.015194 0.727111 -0.381607
0.009796 0.691814 -0.432813
0.034770 0.691776 -0.432800
0.034745 0.691123 -0.382062
0.009770 0.691138 -0.382074
0.009834 0.727775 -0.432342
0.034809 0.727737 -0.432330
0.034783 0.727084 -0.381591
0.009808 0.727099 -0.381603
-0.015195 0.692550 -0.483620
0.009780 0.692492 -0.483611
0.009756 0.691814 -0.432872
-0.015219 0.691850 -0.432884
-0.015128 0.728510 -0.483132
0.009847 0.728452 -0.483123
0.009823 0.727775 -0.432384
-0.015152 0.727810 -0.432396
0.009804 0.692492 -0.483603
0.034779 0.692433 -0.483594
0.034755 0.691776 -0.432852
0.009780 0.691814 -0.432864
0.009873 0.728452 -0.483130
0.034848 0.728394 -0.483121
0.034824 0.727737 -0.432379
0.009849 0.727775 -0.432392
-0.015182 0.693234 -0.534408
0.009793 0.693176 -0.534398
0.009772 0.692492 -0.483660
-0.015203 0.692551 -0.483669
-0.015099 0.729195 -0.533923
0.009876 0.729137 -0.533913
0.009855 0.728453 -0.483175
-0.015120 0.728511 -0.483185
0.009818 0.693176 -0.534398
0.034793 0.693118 -0.534389
0.034772 0.692434 -0.483651
0.009797 0.692492 -0.483660
0.009901 0.729137 -0.533913
0.034876 0.729079 -0.533904
0.034855 0.728395 -0.483166
0.009880 0.728453 -0.483175
-0.020314 0.728913 0.532787
-0.045289 0.728805 0.532783
-0.045289 0.729444 0.482047
-0.020314 0.729594 0.482048
-0.020500 0.764874 0.533254
-0.045475 0.764766 0.533251
-0.045475 0.765404 0.482514
-0.020500 0.765554 0.482516
-0.020323 0.729595 0.481975
-0.045297 0.729445 0.481974
-0.045297 0.730200 0.431238
-0.020322 0.730285 0.431239
-0.020491 0.765555 0.482487
-0.045466 0.765405 0.482486
-0.045466 0.766160 0.431750
-0.020491 0.766245 0.431752
-0.020360 0.730285 0.431196
-0.045335 0.730201 0.431195
-0.045335 0.730920 0.380459
-0.020360 0.730966 0.380459
-0.020454 0.766246 0.431693
-0.045429 0.766161 0.431691
-0.045429 0.766881 0.380955
-0.020454 0.766927 0.380955
-0.020369 0.730967 0.380417
-0.045344 0.730921 0.380417
-0.045346 0.731590 0.329680
-0.020371 0.731650 0.329679
-0.020446 0.766928 0.380896
-0.045421 0.766882 0.380896
-0.045423 0.767550 0.330159
-0.020448 0.767611 0.330158
-0.020358 0.731651 0.329633
-0.045333 0.731590 0.329634
-0.045337 0.732241 0.278896
-0.020362 0.732325 0.278896
-0.020462 0.767612 0.330102
-0.045437 0.767551 0.330104
-0.045442 0.768201 0.279365
-0.020467 0.768286 0.279365
-0.020347 0.732326 0.278844
-0.045321 0.732241 0.278844
-0.045323 0.732896 0.228105
-0.020348 0.733000 0.228107
-0.020482 0.768286 0.279315
-0.045457 0.768202 0.279316
-0.045459 0.768856 0.228576
-0.020484 0.768961 0.228578
-0.020342 0.733001 0.228052
-0.045317 0.732897 0.228050
-0.045316 0.733576 0.177312
-0.020341 0.733675 0.177315
-0.020489 0.768962 0.228531
-0.045464 0.768857 0.228530
-0.045462 0.769536 0.177791
-0.020487 0.769635 0.177794
-0.020348 0.733675 0.177263
-0.045323 0.733576 0.177260
-0.045321 0.734262 0.126523
-0.020346 0.734347 0.126525
-0.020480 0.769636 0.177744
-0.045455 0.769537 0.177742
-0.045453 0.770223 0.127004
-0.020478 0.770307 0.127006
-0.020352 0.734347 0.126477
-0.045327 0.734263 0.126475
-0.045326 0.734934 0.075738
-0.020351 0.735018 0.075739
-0.020473 0.770308 0.126952
-0.045448 0.770224 0.126951
-0.045447 0.770895 0.076214
-0.020472 0.770978 0.076214
-0.020355 0.735018 0.075687
-0.045330 0.734935 0.075686
-0.045334 0.735614 0.024950
-0.020359 0.735687 0.024948
-0.020469 0.770979 0.076164
-0.045444 0.770895 0.076164
-0.045447 0.771574 0.025428
-0.020472 0.771648 0.025426
-0.020374 0.735688 0.024893
-0.045349 0.735614 0.024896
-0.045353 0.736315 -0.025843
-0.020378 0.736357 -0.025843
-0.020457 0.771649 0.025379
-0.045432 0.771575 0.025381
-0.045436 0.772275 -0.025358
-0.020461 0.772317 -0.025358
-0.020381 0.736357 -0.025886
-0.045356 0.736315 -0.025886
-0.045355 0.736965 -0.076625
-0.020380 0.737030 -0.076623
-0.020458 0.772318 -0.025417
-0.045433 0.772276 -0.025417
-0.045433 0.772926 -0.076156
-0.020458 0.772991 -0.076155
-0.020370 0.737031 -0.076677
-0.045345 0.736965 -0.076679
-0.045343 0.737633 -0.127417
-0.020368 0.737704 -0.127415
-0.020468 0.772992 -0.076202
-0.045443 0.772926 -0.076204
-0.045441 0.773594 -0.126942
-0.020466 0.773665 -0.126939
-0.020374 0.737705 -0.127472
-0.045349 0.737634 -0.127474
-0.045348 0.738335 -0.178211
-0.020373 0.738383 -0.178210
-0.020460 0.773666 -0.126984
-0.045434 0.773595 -0.126986
-0.045433 0.774296 -0.177722
-0.020458 0.774343 -0.177722
-0.020373 0.738383 -0.178253
-0.045348 0.738336 -0.178254
-0.045349 0.738990 -0.228991
-0.020374 0.739061 -0.228991
-0.020458 0.774344 -0.177781
-0.045433 0.774297 -0.177781
-0.045434 0.774951 -0.228518
-0.020459 0.775022 -0.228519
-0.020379 0.739062 -0.229054
-0.045354 0.738991 -0.229053
-0.045359 0.739708 -0.279789
-0.020384 0.739744 -0.279793
-0.020455 0.775022 -0.228558
-0.045430 0.774952 -0.228557
-0.045436 0.775669 -0.279293
-0.020461 0.775704 -0.279297
-0.020381 0.739744 -0.279830
-0.045356 0.739709 -0.279827
-0.045357 0.740349 -0.330567
-0.020382 0.740430 -0.330563
-0.020465 0.775705 -0.279361
-0.045440 0.775669 -0.279357
-0.045441 0.776310 -0.330097
-0.020466 0.776391 -0.330094
-0.020355 0.740431 -0.330621
-0.045330 0.740350 -0.330624
-0.045324 0.741016 -0.381361
-0.020349 0.741128 -0.381357
-0.020494 0.776391 -0.330138
-0.045469 0.776310 -0.330141
-0.045463 0.776976 -0.380878
-0.020488 0.777088 -0.380874
-0.020308 0.741129 -0.381398
-0.045283 0.741017 -0.381402
-0.045281 0.741628 -0.432138
-0.020307 0.741822 -0.432136
-0.020529 0.777089 -0.380935
-0.045504 0.776977 -0.380939
-0.045502 0.777588 -0.431676
-0.020527 0.777783 -0.431673
-0.020327 0.741824 -0.432227
-0.045302 0.741629 -0.432229
-0.045310 0.742466 -0.482961
-0.020335 0.742521 -0.482968
-0.020507 0.777783 -0.431683
-0.045481 0.777588 -0.431686
-0.045490 0.778425 -0.482418
-0.020515 0.778480 -0.482425
-0.020415 0.742521 -0.483002
-0.045391 0.742466 -0.482995
-0.045402 0.743227 -0.533735
-0.020427 0.743198 -0.533737
-0.020434 0.778481 -0.482492
-0.045410 0.778426 -0.482486
-0.045421 0.779187 -0.533225
-0.020446 0.779159 -0.533227
-0.535201 0.701056 -0.531200
-0.535210 0.699969 -0.480469
-0.560185 0.700035 -0.480473
-0.560176 0.701123 -0.531203
-0.535106 0.737012 -0.530429
-0.535115 0.735925 -0.479698
-0.560090 0.735991 -0.479702
-0.560081 0.737078 -0.530432
-0.560201 0.701123 -0.531203
-0.560210 0.700035 -0.480473
-0.585185 0.700102 -0.480475
-0.585176 0.701189 -0.531206
-0.560106 0.737078 -0.530432
-0.560115 0.735991 -0.479702
-0.585090 0.736057 -0.479704
-0.585081 0.737144 -0.530435
-0.535203 0.699968 -0.480418
-0.535218 0.698889 -0.429686
-0.560193 0.698935 -0.429694
-0.560178 0.700034 -0.480423
-0.535123 0.735924 -0.479647
-0.535138 0.734845 -0.428914
-0.560113 0.734891 -0.428922
-0.560097 0.735990 -0.479651
-0.560205 0.700034 -0.480429
-0.560220 0.698935 -0.429700
-0.585196 0.698986 -0.429710
-0.585180 0.700101 -0.480431
-0.560121 0.735990 -0.479645
-0.560136 0.734890 -0.428915
-0.585112 0.734941 -0.428925
-0.585096 0.736056 -0.479646
-0.535204 0.698888 -0.429635
-0.535226 0.697810 -0.378904
-0.560201 0.697836 -0.378914
-0.560179 0.698934 -0.429643
-0.535152 0.734844 -0.428864
-0.535174 0.733765 -0.378133
-0.560150 0.733792 -0.378143
-0.560127 0.734889 -0.428871
-0.560206 0.698934 -0.429650
-0.560228 0.697836 -0.378922
-0.585204 0.697864 -0.378932
-0.585182 0.698984 -0.429659
-0.560150 0.734889 -0.428864
-0.560173 0.733792 -0.378136
-0.585148 0.733819 -0.378146
-0.585126 0.734940 -0.428873
-0.535211 0.697809 -0.378854
-0.535234 0.696727 -0.328126
-0.560209 0.696733 -0.328136
-0.560187 0.697835 -0.378865
-0.535189 0.733764 -0.378081
-0.535211 0.732683 -0.327352
-0.560187 0.732688 -0.327362
-0.560164 0.733791 -0.378091
-0.560213 0.697835 -0.378872
-0.560235 0.696733 -0.328143
-0.585210 0.696739 -0.328154
-0.585188 0.697863 -0.378883
-0.560188 0.733791 -0.378084
-0.560211 0.732688 -0.327354
-0.585186 0.732695 -0.327365
-0.585164 0.733818 -0.378094
-0.535219 0.696726 -0.328076
-0.535239 0.695641 -0.277348
-0.560214 0.695627 -0.277357
-0.560195 0.696732 -0.328086
-0.535226 0.732682 -0.327300
-0.535246 0.731596 -0.276572
-0.560221 0.731582 -0.276580
-0.560201 0.732687 -0.327310
-0.560222 0.696732 -0.328092
-0.560241 0.695627 -0.277363
-0.585216 0.695617 -0.277372
-0.585197 0.696738 -0.328103
-0.560224 0.732687 -0.327304
-0.560244 0.731582 -0.276574
-0.585219 0.731572 -0.276583
-0.585199 0.732694 -0.327314
-0.535228 0.695640 -0.277297
-0.535243 0.694549 -0.226569
-0.560218 0.694525 -0.226576
-0.560203 0.695625 -0.277306
-0.535256 0.731595 -0.276521
-0.535271 0.730505 -0.225793
-0.560247 0.730480 -0.225800
-0.560232 0.731581 -0.276530
-0.560230 0.695625 -0.277311
-0.560244 0.694525 -0.226581
-0.585219 0.694499 -0.226588
-0.585205 0.695616 -0.277319
-0.560255 0.731581 -0.276525
-0.560270 0.730480 -0.225795
-0.585245 0.730454 -0.225802
-0.585231 0.731571 -0.276533
-0.535234 0.694548 -0.226520
-0.535245 0.693456 -0.175792
-0.560221 0.693417 -0.175798
-0.560209 0.694524 -0.226527
-0.535280 0.730504 -0.225740
-0.535292 0.729411 -0.175012
-0.560267 0.729372 -0.175018
-0.560255 0.730479 -0.225748
-0.560234 0.694524 -0.226532
-0.560246 0.693417 -0.175802
-0.585221 0.693379 -0.175808
-0.585209 0.694498 -0.226539
-0.560280 0.730479 -0.225743
-0.560292 0.729372 -0.175014
-0.585267 0.729335 -0.175020
-0.585255 0.730453 -0.225750
-0.535237 0.693455 -0.175741
-0.535245 0.692358 -0.125014
-0.560220 0.692310 -0.125018
-0.560212 0.693416 -0.175747
-0.535300 0.729410 -0.174961
-0.535308 0.728314 -0.124233
-0.560283 0.728266 -0.124238
-0.560275 0.729371 -0.174967
-0.560237 0.693416 -0.175751
-0.560245 0.692310 -0.125022
-0.585220 0.692261 -0.125026
-0.585212 0.693378 -0.175757
-0.560300 0.729371 -0.174963
-0.560308 0.728266 -0.124234
-0.585283 0.728216 -0.124238
-0.585275 0.729333 -0.174969
-0.535239 0.692357 -0.124964
-0.535243 0.691257 -0.074236
-0.560218 0.691201 -0.074239
-0.560214 0.692309 -0.124968
-0.535313 0.728313 -0.124181
-0.535317 0.727212 -0.073454
-0.560293 0.727157 -0.073456
-0.560289 0.728265 -0.124186
-0.560238 0.692309 -0.124971
-0.560241 0.691201 -0.074242
-0.585217 0.691143 -0.074244
-0.585213 0.692260 -0.124975
-0.560315 0.728264 -0.124183
-0.560319 0.727157 -0.073453
-0.585294 0.727098 -0.073456
-0.585290 0.728215 -0.124187
-0.535238 0.691256 -0.074187
-0.535238 0.690150 -0.023459
-0.560213 0.690088 -0.023461
-0.560213 0.691200 -0.074190
-0.535322 0.727211 -0.073401
-0.535323 0.726105 -0.022673
-0.560298 0.726044 -0.022675
-0.560298 0.727156 -0.073404
-0.560237 0.691200 -0.074191
-0.560238 0.690088 -0.023462
-0.585213 0.690027 -0.023463
-0.585212 0.691142 -0.074194
-0.560323 0.727156 -0.073402
-0.560323 0.726043 -0.022673
-0.585299 0.725983 -0.022674
-0.585298 0.727097 -0.073405
-0.535236 0.690149 -0.023408
-0.535234 0.689041 0.027320
-0.560209 0.688978 0.027320
-0.560211 0.690087 -0.023410
-0.535325 0.726104 -0.022623
-0.535323 0.724996 0.028106
-0.560298 0.724934 0.028105
-0.560300 0.726042 -0.022624
-0.560234 0.690087 -0.023411
-0.560232 0.688978 0.027318
-0.585207 0.688911 0.027318
-0.585209 0.690026 -0.023412
-0.560327 0.726042 -0.022623
-0.560325 0.724934 0.028107
-0.585300 0.724866 0.028106
-0.585302 0.725982 -0.022624
-0.535233 0.689040 0.027370
-0.535230 0.687929 0.078099
-0.560205 0.687865 0.078099
-0.560208 0.688977 0.027370
-0.535324 0.724995 0.028158
-0.535321 0.723884 0.078887
-0.560296 0.723820 0.078887
-0.560299 0.724932 0.028157
-0.560228 0.688977 0.027368
-0.560225 0.687865 0.078098
-0.585200 0.687792 0.078097
-0.585203 0.688910 0.027368
-0.560329 0.724932 0.028158
-0.560326 0.723820 0.078888
-0.585301 0.723747 0.078887
-0.585304 0.724865 0.028158
-0.535229 0.687928 0.078150
-0.535227 0.686816 0.128879
-0.560202 0.686752 0.128879
-0.560205 0.687864 0.078149
-0.535322 0.723883 0.078938
-0.535319 0.722771 0.129668
-0.560294 0.722707 0.129667
-0.560297 0.723819 0.078938
-0.560220 0.687864 0.078148
-0.560218 0.686752 0.128877
-0.585193 0.686671 0.128876
-0.585196 0.687791 0.078147
-0.560331 0.723819 0.078939
-0.560328 0.722707 0.129668
-0.585303 0.722626 0.129667
-0.585306 0.723746 0.078938
-0.535226 0.686815 0.128929
-0.535224 0.685701 0.179659
-0.560199 0.685634 0.179658
-0.560201 0.686751 0.128929
-0.535320 0.722770 0.129719
-0.535318 0.721656 0.180450
-0.560293 0.721590 0.180449
-0.560295 0.722706 0.129719
-0.560213 0.686751 0.128927
-0.560211 0.685634 0.179657
-0.585186 0.685549 0.179655
-0.585188 0.686670 0.128926
-0.560333 0.722706 0.129720
-0.560331 0.721589 0.180450
-0.585306 0.721504 0.180448
-0.585308 0.722625 0.129719
-0.535217 0.685700 0.179708
-0.535217 0.684586 0.230439
-0.560192 0.684504 0.230437
-0.560192 0.685633 0.179707
-0.535324 0.721655 0.180503
-0.535324 0.720541 0.231234
-0.560299 0.720459 0.231231
-0.560299 0.721588 0.180502
-0.560211 0.685633 0.179705
-0.560211 0.684504 0.230435
-0.585186 0.684425 0.230432
-0.585186 0.685548 0.179703
-0.560330 0.721588 0.180503
-0.560329 0.720459 0.231233
-0.585305 0.720380 0.231230
-0.585305 0.721503 0.180501
-0.535209 0.684585 0.230492
-0.535211 0.683472 0.281224
-0.560186 0.683384 0.281220
-0.560184 0.684503 0.230489
-0.535332 0.720540 0.231283
-0.535334 0.719427 0.282015
-0.560309 0.719339 0.282011
-0.560306 0.720458 0.231280
-0.560212 0.684503 0.230488
-0.560214 0.683384 0.281218
-0.585189 0.683302 0.281214
-0.585187 0.684424 0.230485
-0.560328 0.720458 0.231282
-0.560331 0.719339 0.282012
-0.585305 0.719257 0.282008
-0.585303 0.720379 0.231279
-0.535209 0.683471 0.281276
-0.535215 0.682361 0.332009
-0.560189 0.682272 0.332003
-0.560184 0.683383 0.281272
-0.535336 0.719426 0.282064
-0.535342 0.718316 0.332796
-0.560317 0.718227 0.332790
-0.560311 0.719338 0.282059
-0.560208 0.683383 0.281270
-0.560214 0.682272 0.332000
-0.585189 0.682176 0.331994
-0.585183 0.683301 0.281266
-0.560336 0.719338 0.282062
-0.560342 0.718227 0.332793
-0.585317 0.718131 0.332786
-0.585311 0.719256 0.282058
-0.535209 0.682360 0.332059
-0.535219 0.681253 0.382791
-0.560194 0.681149 0.382783
-0.560184 0.682271 0.332053
-0.535348 0.718315 0.332848
-0.535358 0.717208 0.383581
-0.560333 0.717104 0.383573
-0.560323 0.718226 0.332842
-0.560208 0.682271 0.332049
-0.560218 0.681149 0.382780
-0.585192 0.681049 0.382772
-0.585183 0.682175 0.332043
-0.560349 0.718226 0.332846
-0.560359 0.717104 0.383576
-0.585333 0.717004 0.383568
-0.585324 0.718130 0.332839
-0.535208 0.681252 0.382843
-0.535221 0.680147 0.433575
-0.560196 0.680028 0.433566
-0.560183 0.681148 0.382835
-0.535369 0.717207 0.383631
-0.535382 0.716102 0.434364
-0.560357 0.715983 0.434354
-0.560344 0.717103 0.383623
-0.560214 0.681148 0.382831
-0.560227 0.680028 0.433562
-0.585202 0.679922 0.433552
-0.585189 0.681048 0.382823
-0.560362 0.717103 0.383627
-0.560375 0.715982 0.434358
-0.585350 0.715877 0.434349
-0.585337 0.717003 0.383619
-0.535214 0.680146 0.433629
-0.535228 0.679044 0.484361
-0.560203 0.678920 0.484351
-0.560188 0.680027 0.433619
-0.535390 0.716101 0.434412
-0.535404 0.714999 0.485143
-0.560379 0.714875 0.485133
-0.560364 0.715982 0.434402
-0.560218 0.680026 0.433615
-0.560233 0.678919 0.484346
-0.585207 0.678795 0.484337
-0.585193 0.679921 0.433606
-0.560384 0.715981 0.434406
-0.560399 0.714874 0.485138
-0.585373 0.714750 0.485128
-0.585359 0.715876 0.434397
-0.535226 0.679043 0.484410
-0.535240 0.677934 0.535141
-0.560215 0.677810 0.535131
-0.560201 0.678918 0.484400
-0.535406 0.714998 0.485196
-0.535420 0.713889 0.535926
-0.560395 0.713765 0.535917
-0.560381 0.714873 0.485186
-0.560226 0.678918 0.484400
-0.560240 0.677810 0.535131
-0.585215 0.677685 0.535121
-0.585200 0.678794 0.484390
-0.560405 0.714873 0.485186
-0.560420 0.713765 0.535917
-0.585395 0.713640 0.535907
-0.585380 0.714749 0.485176
-0.505372 0.753027 -0.530063
-0.505362 0.752123 -0.479328
-0.530336 0.751980 -0.479325
-0.530347 0.753065 -0.530058
-0.505447 0.788984 -0.529358
-0.505437 0.788080 -0.478623
-0.530411 0.787937 -0.478620
-0.530422 0.789022 -0.529353
-0.505278 0.752122 -0.479299
-0.505272 0.751091 -0.428563
-0.530246 0.750897 -0.428567
-0.530253 0.751980 -0.479296
-0.505520 0.788078 -0.478550
-0.505514 0.787047 -0.427814
-0.530488 0.786853 -0.427817
-0.530495 0.787936 -0.478547
-0.505277 0.751091 -0.428532
-0.505278 0.749945 -0.377799
-0.530252 0.749817 -0.377804
-0.530251 0.750896 -0.428535
-0.505509 0.787045 -0.427744
-0.505510 0.785900 -0.377011
-0.530485 0.785771 -0.377016
-0.530483 0.786851 -0.427747
-0.505316 0.749944 -0.377745
-0.505320 0.748820 -0.327014
-0.530295 0.748732 -0.327018
-0.530290 0.749815 -0.377750
-0.505472 0.785899 -0.376963
-0.505476 0.784775 -0.326232
-0.530450 0.784688 -0.326235
-0.530446 0.785771 -0.376968
-0.505358 0.748819 -0.326969
-0.505358 0.747667 -0.276240
-0.530333 0.747644 -0.276238
-0.530333 0.748731 -0.326973
-0.505437 0.784774 -0.326175
-0.505437 0.783622 -0.275447
-0.530412 0.783599 -0.275444
-0.530412 0.784686 -0.326179
-0.505361 0.747665 -0.276170
-0.505359 0.746629 -0.225435
-0.530334 0.746551 -0.225438
-0.530336 0.747642 -0.276167
-0.505434 0.783621 -0.275416
-0.505431 0.782585 -0.224681
-0.530406 0.782507 -0.224684
-0.530409 0.783599 -0.275413
-0.505337 0.746628 -0.225394
-0.505340 0.745539 -0.174662
-0.530314 0.745456 -0.174666
-0.530312 0.746550 -0.225397
-0.505453 0.782584 -0.224621
-0.505455 0.781494 -0.173889
-0.530430 0.781412 -0.173892
-0.530428 0.782505 -0.224623
-0.505346 0.745538 -0.174617
-0.505349 0.744419 -0.123886
-0.530324 0.744358 -0.123889
-0.530321 0.745455 -0.174621
-0.505449 0.781493 -0.173832
-0.505452 0.780374 -0.123101
-0.530427 0.780314 -0.123104
-0.530424 0.781411 -0.173835
-0.505352 0.744418 -0.123830
-0.505354 0.743332 -0.073099
-0.530328 0.743257 -0.073101
-0.530327 0.744357 -0.123833
-0.505450 0.780373 -0.123056
-0.505452 0.779288 -0.072324
-0.530427 0.779212 -0.072326
-0.530425 0.780313 -0.123058
-0.505354 0.743331 -0.073055
-0.505351 0.742211 -0.022326
-0.530326 0.742150 -0.022325
-0.530328 0.743256 -0.073057
-0.505452 0.779287 -0.072266
-0.505450 0.778166 -0.021536
-0.530425 0.778105 -0.021535
-0.530427 0.779211 -0.072268
-0.505349 0.742209 -0.022269
-0.505349 0.741122 0.028465
-0.530324 0.741040 0.028461
-0.530324 0.742148 -0.022268
-0.505452 0.778165 -0.021491
-0.505452 0.777077 0.029243
-0.530427 0.776995 0.029239
-0.530427 0.778104 -0.021490
-0.505343 0.741121 0.028511
-0.505347 0.740007 0.079242
-0.530322 0.739929 0.079238
-0.530318 0.741039 0.028507
-0.505458 0.777076 0.029298
-0.505463 0.775963 0.080030
-0.530437 0.775884 0.080026
-0.530433 0.776994 0.029295
-0.505339 0.740006 0.079297
-0.505342 0.738922 0.130028
-0.530317 0.738816 0.130025
-0.530314 0.739928 0.079294
-0.505471 0.775962 0.080076
-0.505474 0.774877 0.130807
-0.530449 0.774772 0.130803
-0.530446 0.775883 0.080072
-0.505338 0.738921 0.130071
-0.505338 0.737792 0.180800
-0.530313 0.737702 0.180799
-0.530313 0.738815 0.130068
-0.505479 0.774876 0.130866
-0.505479 0.773747 0.181595
-0.530454 0.773657 0.181594
-0.530454 0.774770 0.130862
-0.505357 0.737791 0.180847
-0.505355 0.736639 0.231576
-0.530330 0.736587 0.231577
-0.530332 0.737701 0.180846
-0.505460 0.773746 0.181650
-0.505458 0.772594 0.232379
-0.530433 0.772542 0.232379
-0.530435 0.773656 0.181649
-0.505358 0.736638 0.231639
-0.505355 0.735553 0.282370
-0.530330 0.735472 0.282370
-0.530333 0.736585 0.231639
-0.505455 0.772593 0.232418
-0.505451 0.771509 0.283149
-0.530426 0.771427 0.283149
-0.530430 0.772541 0.232418
-0.505355 0.735552 0.282411
-0.505353 0.734413 0.333142
-0.530328 0.734360 0.333141
-0.530330 0.735471 0.282411
-0.505451 0.771507 0.283209
-0.505450 0.770368 0.333940
-0.530425 0.770315 0.333939
-0.530426 0.771426 0.283209
-0.505378 0.734411 0.333192
-0.505379 0.733264 0.383923
-0.530354 0.733251 0.383921
-0.530353 0.734359 0.333191
-0.505425 0.770366 0.333991
-0.505427 0.769219 0.384721
-0.530402 0.769207 0.384720
-0.530400 0.770314 0.333990
-0.505405 0.733263 0.383976
-0.505407 0.732127 0.434705
-0.530382 0.732144 0.434705
-0.530380 0.733250 0.383974
-0.505401 0.769218 0.384770
-0.505404 0.768082 0.435500
-0.530379 0.768100 0.435499
-0.530377 0.769206 0.384769
-0.505401 0.732125 0.434771
-0.505401 0.731069 0.485501
-0.530376 0.731039 0.485502
-0.530376 0.732143 0.434770
-0.505410 0.768081 0.435536
-0.505410 0.767025 0.486267
-0.530385 0.766995 0.486267
-0.530385 0.768099 0.435536
-0.505354 0.731068 0.485556
-0.505352 0.730041 0.536289
-0.530327 0.729929 0.536287
-0.530329 0.731038 0.485557
-0.505457 0.767024 0.486313
-0.505454 0.765997 0.537046
-0.530429 0.765885 0.537044
-0.530432 0.766994 0.486314
-0.590377 0.753156 -0.530110
-0.590362 0.752064 -0.479380
-0.615337 0.751935 -0.479374
-0.615352 0.753193 -0.530105
-0.590442 0.789110 -0.529277
-0.590428 0.788018 -0.478547
-0.615403 0.787889 -0.478541
-0.615417 0.789148 -0.529272
-0.590281 0.752062 -0.479316
-0.590272 0.750953 -0.428580
-0.615246 0.750765 -0.428584
-0.615256 0.751934 -0.479311
-0.590510 0.788017 -0.478509
-0.590501 0.786908 -0.427773
-0.615475 0.786719 -0.427777
-0.615484 0.787888 -0.478503
-0.590270 0.750952 -0.428512
-0.590273 0.749834 -0.377779
-0.615248 0.749699 -0.377786
-0.615244 0.750763 -0.428516
-0.590503 0.786907 -0.427739
-0.590506 0.785789 -0.377006
-0.615481 0.785654 -0.377013
-0.615477 0.786718 -0.427743
-0.590301 0.749833 -0.377736
-0.590308 0.748709 -0.327006
-0.615283 0.748599 -0.327012
-0.615276 0.749698 -0.377742
-0.590478 0.785788 -0.376948
-0.590485 0.784664 -0.326218
-0.615460 0.784554 -0.326224
-0.615453 0.785653 -0.376955
-0.590349 0.748708 -0.326942
-0.590349 0.747589 -0.276216
-0.615324 0.747567 -0.276213
-0.615324 0.748598 -0.326948
-0.590445 0.784664 -0.326180
-0.590445 0.783545 -0.275454
-0.615420 0.783523 -0.275452
-0.615420 0.784553 -0.326186
-0.590363 0.747589 -0.276188
-0.590361 0.746473 -0.225456
-0.615335 0.746401 -0.225458
-0.615338 0.747566 -0.276186
-0.590431 0.783544 -0.275380
-0.590429 0.782428 -0.224647
-0.615404 0.782356 -0.224650
-0.615406 0.783521 -0.275377
-0.590343 0.746472 -0.225397
-0.590345 0.745354 -0.174666
-0.615320 0.745283 -0.174669
-0.615318 0.746399 -0.225399
-0.590446 0.782427 -0.224605
-0.590449 0.781309 -0.173874
-0.615423 0.781238 -0.173877
-0.615421 0.782355 -0.224607
-0.590347 0.745353 -0.174614
-0.590350 0.744236 -0.123883
-0.615325 0.744170 -0.123886
-0.615322 0.745282 -0.174617
-0.590447 0.781308 -0.173824
-0.590450 0.780192 -0.123094
-0.615425 0.780125 -0.123097
-0.615422 0.781237 -0.173827
-0.590343 0.744235 -0.123838
-0.590345 0.743119 -0.073108
-0.615320 0.743027 -0.073110
-0.615318 0.744169 -0.123841
-0.590457 0.780190 -0.123038
-0.590459 0.779074 -0.072308
-0.615434 0.778982 -0.072310
-0.615432 0.780123 -0.123041
-0.590347 0.743117 -0.073046
-0.590345 0.742003 -0.022317
-0.615320 0.741942 -0.022316
-0.615322 0.743026 -0.073049
-0.590457 0.779073 -0.072267
-0.590455 0.777959 -0.021538
-0.615430 0.777898 -0.021537
-0.615432 0.778981 -0.072270
-0.590360 0.742002 -0.022271
-0.590357 0.740887 0.028462
-0.615332 0.740835 0.028461
-0.615335 0.741941 -0.022270
-0.590441 0.777957 -0.021483
-0.590438 0.776842 0.029249
-0.615413 0.776790 0.029248
-0.615416 0.777896 -0.021482
-0.590368 0.740885 0.028514
-0.590368 0.739768 0.079245
-0.615343 0.739736 0.079243
-0.615342 0.740834 0.028513
-0.590427 0.776841 0.029299
-0.590428 0.775723 0.080030
-0.615403 0.775692 0.080028
-0.615402 0.776789 0.029298
-0.590373 0.739767 0.079290
-0.590375 0.738646 0.130021
-0.615350 0.738606 0.130018
-0.615347 0.739735 0.079288
-0.590424 0.775722 0.080087
-0.590427 0.774601 0.130818
-0.615401 0.774561 0.130815
-0.615399 0.775690 0.080085
-0.590375 0.738645 0.130074
-0.590378 0.737523 0.180804
-0.615353 0.737492 0.180802
-0.615350 0.738605 0.130072
-0.590427 0.774600 0.130866
-0.590429 0.773479 0.181596
-0.615404 0.773447 0.181594
-0.615401 0.774560 0.130864
-0.590377 0.737522 0.180851
-0.590378 0.736400 0.231581
-0.615353 0.736357 0.231579
-0.615352 0.737491 0.180849
-0.590430 0.773477 0.181651
-0.590431 0.772355 0.232380
-0.615406 0.772312 0.232379
-0.615405 0.773446 0.181649
-0.590360 0.736399 0.231627
-0.590358 0.735277 0.282355
-0.615333 0.735195 0.282355
-0.615335 0.736356 0.231625
-0.590449 0.772354 0.232436
-0.590447 0.771231 0.283164
-0.615422 0.771150 0.283164
-0.615424 0.772311 0.232435
-0.590356 0.735275 0.282418
-0.590356 0.734151 0.333150
-0.615331 0.734103 0.333147
-0.615331 0.735194 0.282418
-0.590449 0.771230 0.283203
-0.590449 0.770107 0.333934
-0.615424 0.770059 0.333931
-0.615424 0.771149 0.283203
-0.590374 0.734150 0.333197
-0.590378 0.733025 0.383926
-0.615353 0.732993 0.383923
-0.615349 0.734102 0.333194
-0.590431 0.770106 0.333989
-0.590435 0.768980 0.384718
-0.615411 0.768948 0.384715
-0.615406 0.770058 0.333986
-0.590380 0.733024 0.383972
-0.590383 0.731898 0.434701
-0.615358 0.731856 0.434699
-0.615355 0.732992 0.383969
-0.590433 0.768979 0.384774
-0.590436 0.767853 0.435502
-0.615411 0.767811 0.435500
-0.615408 0.768947 0.384771
-0.590375 0.731897 0.434753
-0.590372 0.730777 0.485479
-0.615347 0.730721 0.485482
-0.615350 0.731855 0.434751
-0.590445 0.767852 0.435552
-0.590442 0.766732 0.486278
-0.615417 0.766676 0.486281
-0.615420 0.767810 0.435550
-0.590346 0.730776 0.485525
-0.590342 0.729661 0.536256
-0.615317 0.729549 0.536254
-0.615321 0.730720 0.485527
-0.590467 0.766730 0.486335
-0.590463 0.765616 0.537066
-0.615437 0.765504 0.537064
-0.615442 0.766675 0.486337
1.663524 0.750299 -0.810116
1.663524 0.749810 -0.755576
1.661870 0.729829 -0.755756
1.661859 0.730321 -0.810299
1.627684 0.753277 -0.810086
1.627683 0.752787 -0.755546
1.626029 0.732807 -0.755726
1.626018 0.733299 -0.810269
1.661858 0.730310 -0.810301
1.661869 0.729818 -0.755757
1.660218 0.709838 -0.755939
1.660208 0.710330 -0.810481
1.626016 0.733270 -0.810268
1.626027 0.732778 -0.755724
1.624376 0.712798 -0.755906
1.624366 0.713290 -0.810448
1.660206 0.710303 -0.810479
1.660215 0.709811 -0.755937
1.658551 0.689832 -0.756117
1.658555 0.690323 -0.810660
1.624365 0.713276 -0.810451
1.624375 0.712784 -0.755908
1.622710 0.692805 -0.756089
1.622715 0.693296 -0.810631
1.663524 0.749818 -0.755518
1.663515 0.749326 -0.700973
1.661869 0.729346 -0.701155
1.661870 0.729837 -0.755697
1.627682 0.752778 -0.755495
1.627673 0.752286 -0.700950
1.626027 0.732306 -0.701132
1.626028 0.732797 -0.755675
1.661869 0.729816 -0.755699
1.661867 0.729324 -0.701156
1.660215 0.709344 -0.701338
1.660218 0.709836 -0.755880
1.626027 0.732779 -0.755674
1.626025 0.732287 -0.701131
1.624373 0.712306 -0.701313
1.624376 0.712799 -0.755855
1.660215 0.709806 -0.755881
1.660212 0.709314 -0.701339
1.658552 0.689333 -0.701523
1.658551 0.689827 -0.756061
1.624375 0.712788 -0.755855
1.624372 0.712296 -0.701313
1.622711 0.692315 -0.701496
1.622711 0.692809 -0.756035
1.663515 0.749330 -0.700919
1.663510 0.748834 -0.646371
1.661866 0.728854 -0.646556
1.661869 0.729349 -0.701101
1.627673 0.752282 -0.700895
1.627668 0.751785 -0.646347
1.626023 0.731805 -0.646531
1.626026 0.732301 -0.701077
1.661867 0.729326 -0.701102
1.661864 0.728830 -0.646557
1.660217 0.708850 -0.646742
1.660215 0.709345 -0.701284
1.626025 0.732285 -0.701076
1.626022 0.731789 -0.646530
1.624375 0.711809 -0.646716
1.624373 0.712304 -0.701258
1.660212 0.709316 -0.701286
1.660214 0.708822 -0.646744
1.658557 0.688844 -0.646926
1.658552 0.689336 -0.701469
1.624372 0.712292 -0.701257
1.624374 0.711798 -0.646715
1.622716 0.691820 -0.646897
1.622711 0.692312 -0.701440
1.663510 0.748829 -0.646319
1.663516 0.748317 -0.591770
1.661862 0.728337 -0.591959
1.661865 0.728849 -0.646503
1.627668 0.751788 -0.646290
1.627674 0.751276 -0.591741
1.626020 0.731296 -0.591930
1.626023 0.731808 -0.646474
1.661864 0.728833 -0.646502
1.661860 0.728321 -0.591958
1.660216 0.708340 -0.592144
1.660217 0.708853 -0.646688
1.626021 0.731785 -0.646476
1.626018 0.731273 -0.591931
1.624373 0.711292 -0.592118
1.624374 0.711805 -0.646661
1.660215 0.708827 -0.646690
1.660214 0.708313 -0.592146
1.658565 0.688332 -0.592336
1.658557 0.688849 -0.646872
1.624373 0.711792 -0.646660
1.624372 0.711279 -0.592116
1.622723 0.691297 -0.592306
1.622715 0.691814 -0.646842
1.663516 0.748312 -0.591718
1.663524 0.747790 -0.537175
1.661869 0.727812 -0.537363
1.661861 0.728332 -0.591907
1.627675 0.751281 -0.591684
1.627683 0.750759 -0.537142
1.626028 0.730781 -0.537329
1.626020 0.731301 -0.591873
1.661861 0.728323 -0.591907
1.661868 0.727803 -0.537363
1.660227 0.707822 -0.537552
1.660216 0.708342 -0.592094
1.626018 0.731270 -0.591873
1.626025 0.730750 -0.537329
1.624384 0.710769 -0.537518
1.624373 0.711289 -0.592060
1.660214 0.708316 -0.592094
1.660224 0.707796 -0.537552
1.658574 0.687816 -0.537740
1.658565 0.688335 -0.592283
1.624372 0.711275 -0.592060
1.624382 0.710755 -0.537518
1.622732 0.690775 -0.537706
1.622723 0.691294 -0.592249
1.663525 0.747796 -0.537121
1.663529 0.747286 -0.482579
1.661888 0.727304 -0.482767
1.661869 0.727817 -0.537309
1.627683 0.750753 -0.537086
1.627687 0.750243 -0.482544
1.626046 0.730261 -0.482731
1.626027 0.730774 -0.537274
1.661868 0.727802 -0.537311
1.661887 0.727289 -0.482769
1.660243 0.707308 -0.482956
1.660227 0.707822 -0.537500
1.626025 0.730749 -0.537272
1.626044 0.730236 -0.482730
1.624400 0.710255 -0.482917
1.624383 0.710768 -0.537461
1.660224 0.707791 -0.537498
1.660240 0.707277 -0.482955
1.658581 0.687298 -0.483143
1.658573 0.687811 -0.537686
1.624383 0.710759 -0.537463
1.624399 0.710246 -0.482919
1.622740 0.690266 -0.483107
1.622732 0.690779 -0.537651
1.663530 0.747295 -0.482522
1.663532 0.746783 -0.427981
1.661898 0.726801 -0.428168
1.661889 0.727313 -0.482710
1.627686 0.750232 -0.482491
1.627688 0.749720 -0.427950
1.626054 0.729738 -0.428137
1.626045 0.730251 -0.482679
1.661887 0.727287 -0.482711
1.661896 0.726774 -0.428169
1.660249 0.706794 -0.428356
1.660243 0.707305 -0.482898
1.626044 0.730237 -0.482678
1.626053 0.729725 -0.428136
1.624406 0.709745 -0.428323
1.624400 0.710256 -0.482866
1.660240 0.707272 -0.482898
1.660246 0.706760 -0.428355
1.658585 0.686781 -0.428542
1.658581 0.687292 -0.483086
1.624400 0.710250 -0.482867
1.624406 0.709738 -0.428324
1.622745 0.689759 -0.428510
1.622740 0.690270 -0.483054
1.663532 0.746786 -0.427923
1.663528 0.746279 -0.373381
1.661896 0.726297 -0.373567
1.661898 0.726805 -0.428110
1.627687 0.749715 -0.427898
1.627684 0.749208 -0.373355
1.626052 0.729225 -0.373542
1.626054 0.729734 -0.428085
1.661896 0.726775 -0.428112
1.661894 0.726266 -0.373569
1.660252 0.706285 -0.373755
1.660249 0.706794 -0.428299
1.626053 0.729724 -0.428084
1.626051 0.729216 -0.373541
1.624409 0.709235 -0.373727
1.624406 0.709743 -0.428271
1.660246 0.706759 -0.428300
1.660249 0.706250 -0.373756
1.658588 0.686271 -0.373943
1.658585 0.686780 -0.428486
1.624406 0.709738 -0.428270
1.624409 0.709229 -0.373727
1.622748 0.689250 -0.373913
1.622745 0.689759 -0.428457
1.663528 0.746278 -0.373325
1.663524 0.745769 -0.318782
1.661890 0.725788 -0.318968
1.661896 0.726296 -0.373512
1.627684 0.749207 -0.373302
1.627679 0.748698 -0.318759
1.626045 0.728716 -0.318945
1.626052 0.729225 -0.373488
1.661894 0.726267 -0.373512
1.661887 0.725759 -0.318968
1.660245 0.705778 -0.319155
1.660252 0.706286 -0.373698
1.626051 0.729213 -0.373489
1.626044 0.728705 -0.318945
1.624402 0.708724 -0.319132
1.624409 0.709232 -0.373675
1.660249 0.706254 -0.373700
1.660242 0.705746 -0.319157
1.658590 0.685765 -0.319343
1.658588 0.686274 -0.373886
1.624408 0.709225 -0.373674
1.624401 0.708717 -0.319131
1.622749 0.688737 -0.319317
1.622747 0.689246 -0.373860
1.663523 0.745761 -0.318727
1.663523 0.745254 -0.264183
1.661875 0.725273 -0.264370
1.661889 0.725780 -0.318913
1.627680 0.748705 -0.318705
1.627679 0.748197 -0.264160
1.626032 0.728216 -0.264348
1.626046 0.728723 -0.318891
1.661888 0.725761 -0.318912
1.661873 0.725254 -0.264369
1.660237 0.705273 -0.264555
1.660245 0.705780 -0.319099
1.626044 0.728702 -0.318892
1.626030 0.728195 -0.264349
1.624393 0.708213 -0.264536
1.624402 0.708721 -0.319079
1.660243 0.705754 -0.319102
1.660235 0.705246 -0.264558
1.658593 0.685265 -0.264745
1.658591 0.685773 -0.319288
1.624400 0.708708 -0.319076
1.624392 0.708200 -0.264533
1.622750 0.688219 -0.264719
1.622748 0.688727 -0.319263
1.663523 0.745255 -0.264135
1.663526 0.744747 -0.209593
1.661896 0.724765 -0.209779
1.661875 0.725275 -0.264322
1.627679 0.748194 -0.264099
1.627682 0.747685 -0.209558
1.626053 0.727703 -0.209744
1.626031 0.728213 -0.264286
1.661873 0.725254 -0.264324
1.661895 0.724744 -0.209781
1.660252 0.704763 -0.209967
1.660237 0.705272 -0.264511
1.626030 0.728194 -0.264285
1.626051 0.727684 -0.209742
1.624409 0.707703 -0.209928
1.624393 0.708213 -0.264471
1.660234 0.705244 -0.264508
1.660250 0.704734 -0.209964
1.658594 0.684755 -0.210151
1.658593 0.685263 -0.264694
1.624392 0.708201 -0.264474
1.624408 0.707692 -0.209931
1.622752 0.687712 -0.210118
1.622750 0.688220 -0.264661
1.663527 0.744759 -0.209536
1.663526 0.744252 -0.154993
1.661907 0.724269 -0.155179
1.661898 0.724777 -0.209722
1.627681 0.747672 -0.209506
1.627680 0.747166 -0.154963
1.626061 0.727183 -0.155149
1.626052 0.727690 -0.209692
1.661895 0.724741 -0.209724
1.661904 0.724233 -0.155181
1.660261 0.704252 -0.155367
1.660252 0.704760 -0.209910
1.626051 0.727686 -0.209690
1.626060 0.727179 -0.155147
1.624418 0.707198 -0.155333
1.624409 0.707705 -0.209876
1.660249 0.704724 -0.209909
1.660259 0.704217 -0.155366
1.658595 0.684238 -0.155552
1.658594 0.684744 -0.210095
1.624408 0.707701 -0.209878
1.624418 0.707193 -0.155334
1.622755 0.687214 -0.155520
1.622753 0.687721 -0.210064
1.663526 0.744253 -0.154935
1.663523 0.743747 -0.100392
1.661897 0.723765 -0.100578
1.661907 0.724270 -0.155121
1.627680 0.747164 -0.154912
1.627677 0.746658 -0.100369
1.626051 0.726676 -0.100555
1.626061 0.727181 -0.155098
1.661904 0.724233 -0.155120
1.661894 0.723728 -0.100577
1.660252 0.703747 -0.100762
1.660262 0.704252 -0.155306
1.626060 0.727178 -0.155099
1.626050 0.726673 -0.100556
1.624409 0.706692 -0.100742
1.624418 0.707197 -0.155285
1.660259 0.704217 -0.155308
1.660249 0.703712 -0.100764
1.658595 0.683732 -0.100950
1.658595 0.684238 -0.155494
1.624418 0.707192 -0.155283
1.624408 0.706687 -0.100740
1.622755 0.686707 -0.100926
1.622754 0.687213 -0.155469
1.663522 0.743741 -0.100337
1.663518 0.743236 -0.045794
1.661887 0.723254 -0.045979
1.661896 0.723759 -0.100523
1.627677 0.746663 -0.100315
1.627673 0.746157 -0.045771
1.626042 0.726175 -0.045956
1.626051 0.726681 -0.100500
1.661894 0.723728 -0.100523
1.661884 0.723223 -0.045979
1.660245 0.703242 -0.046165
1.660252 0.703747 -0.100708
1.626050 0.726671 -0.100501
1.626041 0.726166 -0.045957
1.624401 0.706185 -0.046143
1.624409 0.706690 -0.100687
1.660250 0.703719 -0.100710
1.660242 0.703214 -0.046167
1.658597 0.683233 -0.046353
1.658596 0.683739 -0.100896
1.624408 0.706678 -0.100685
1.624400 0.706173 -0.046142
1.622755 0.686192 -0.046328
1.622754 0.686698 -0.100871
1.663518 0.743228 -0.045740
1.663518 0.742720 0.008806
1.661876 0.722739 0.008618
1.661886 0.723246 -0.045925
1.627674 0.746164 -0.045716
1.627675 0.745656 0.008830
1.626032 0.725675 0.008642
1.626042 0.726182 -0.045901
1.661885 0.723225 -0.045924
1.661874 0.722718 0.008619
1.660237 0.702736 0.008433
1.660245 0.703243 -0.046110
1.626041 0.726163 -0.045903
1.626031 0.725657 0.008641
1.624394 0.705675 0.008454
1.624401 0.706182 -0.046089
1.660243 0.703220 -0.046112
1.660236 0.702713 0.008431
1.658597 0.682732 0.008245
1.658597 0.683239 -0.046298
1.624400 0.706165 -0.046087
1.624392 0.705658 0.008456
1.622754 0.685677 0.008270
1.622754 0.686185 -0.046273
1.663518 0.742713 0.008859
1.663519 0.742206 0.063400
1.661873 0.722225 0.063215
1.661875 0.722732 0.008671
1.627675 0.745662 0.008886
1.627676 0.745155 0.063427
1.626030 0.725174 0.063242
1.626033 0.725681 0.008698
1.661874 0.722717 0.008672
1.661872 0.722210 0.063216
1.660232 0.702229 0.063029
1.660237 0.702736 0.008486
1.626031 0.725656 0.008697
1.626028 0.725149 0.063240
1.624388 0.705168 0.063054
1.624394 0.705675 0.008511
1.660236 0.702718 0.008486
1.660230 0.702211 0.063029
1.658597 0.682229 0.062843
1.658598 0.682737 0.008299
1.624392 0.705652 0.008511
1.624386 0.705145 0.063054
1.622753 0.685163 0.062868
1.622754 0.685671 0.008324
1.663519 0.742204 0.063455
1.663517 0.741697 0.117998
1.661872 0.721717 0.117812
1.661873 0.722223 0.063270
1.627676 0.745155 0.063482
1.627674 0.744649 0.118025
1.626029 0.724668 0.117839
1.626030 0.725175 0.063296
1.661872 0.722209 0.063269
1.661871 0.721703 0.117812
1.660233 0.701721 0.117626
1.660232 0.702228 0.063082
1.626028 0.725149 0.063296
1.626027 0.724642 0.117839
1.624390 0.704661 0.117653
1.624388 0.705167 0.063110
1.660230 0.702211 0.063082
1.660232 0.701705 0.117626
1.658595 0.681723 0.117440
1.658597 0.682230 0.062896
1.624386 0.705144 0.063110
1.624388 0.704637 0.117653
1.622751 0.684656 0.117467
1.622753 0.685162 0.062923
1.663517 0.741694 0.118054
1.663514 0.741188 0.172598
1.661863 0.721208 0.172412
1.661872 0.721714 0.117868
1.627675 0.744651 0.118078
1.627672 0.744145 0.172622
1.626021 0.724164 0.172436
1.626029 0.724670 0.117892
1.661871 0.721703 0.117869
1.661862 0.721197 0.172413
1.660224 0.701216 0.172227
1.660234 0.701722 0.117684
1.626027 0.724641 0.117891
1.626018 0.724135 0.172434
1.624380 0.704154 0.172248
1.624390 0.704659 0.117705
1.660232 0.701705 0.117683
1.660222 0.701199 0.172226
1.658591 0.681217 0.172040
1.658595 0.681723 0.117497
1.624388 0.704636 0.117705
1.624378 0.704131 0.172249
1.622746 0.684149 0.172062
1.622751 0.684655 0.117519
1.663514 0.741186 0.172651
1.663511 0.740678 0.227196
1.661862 0.720698 0.227010
1.661863 0.721206 0.172465
1.627672 0.744146 0.172678
1.627669 0.743639 0.227222
1.626020 0.723658 0.227036
1.626021 0.724166 0.172492
1.661862 0.721194 0.172466
1.661861 0.720687 0.227010
1.660217 0.700706 0.226823
1.660223 0.701213 0.172280
1.626018 0.724138 0.172491
1.626018 0.723630 0.227035
1.624374 0.703649 0.226848
1.624380 0.704156 0.172305
1.660223 0.701202 0.172280
1.660216 0.700695 0.226824
1.658585 0.680713 0.226637
1.658591 0.681220 0.172094
1.624378 0.704127 0.172303
1.624371 0.703620 0.226847
1.622741 0.683639 0.226660
1.622746 0.684145 0.172117
1.663512 0.740684 0.227248
1.663512 0.740174 0.281794
1.661874 0.720193 0.281605
1.661862 0.720704 0.227062
1.627669 0.743632 0.227279
1.627669 0.743123 0.281826
1.626031 0.723141 0.281637
1.626019 0.723652 0.227093
1.661860 0.720679 0.227061
1.661872 0.720168 0.281605
1.660218 0.700188 0.281417
1.660216 0.700698 0.226874
1.626018 0.723637 0.227093
1.626030 0.723126 0.281637
1.624375 0.703146 0.281449
1.624374 0.703656 0.226906
1.660216 0.700691 0.226877
1.660217 0.700180 0.281420
1.658577 0.680199 0.281233
1.658585 0.680709 0.226690
1.624371 0.703624 0.226903
1.624373 0.703113 0.281446
1.622733 0.683132 0.281258
1.622741 0.683642 0.226716
1.663512 0.740172 0.281854
1.663511 0.739660 0.336395
1.661857 0.719680 0.336208
1.661874 0.720190 0.281664
1.627669 0.743124 0.281876
1.627668 0.742612 0.336417
1.626015 0.722632 0.336230
1.626031 0.723143 0.281687
1.661871 0.720164 0.281666
1.661855 0.719653 0.336210
1.660204 0.699673 0.336022
1.660217 0.700184 0.281479
1.626030 0.723129 0.281684
1.626014 0.722618 0.336228
1.624362 0.702638 0.336040
1.624376 0.703149 0.281497
1.660217 0.700178 0.281478
1.660203 0.699667 0.336021
1.658568 0.679686 0.335833
1.658577 0.680196 0.281290
1.624373 0.703115 0.281498
1.624359 0.702605 0.336041
1.622724 0.682623 0.335853
1.622733 0.683134 0.281310
1.663510 0.739647 0.336450
1.663506 0.739137 0.390993
1.661841 0.719158 0.390805
1.661856 0.719667 0.336263
1.627669 0.742623 0.336471
1.627666 0.742114 0.391014
1.626001 0.722134 0.390827
1.626016 0.722644 0.336284
1.661855 0.719653 0.336265
1.661840 0.719144 0.390807
1.660187 0.699164 0.390620
1.660204 0.699673 0.336077
1.626014 0.722618 0.336282
1.625999 0.722109 0.390824
1.624345 0.702128 0.390637
1.624362 0.702638 0.336094
1.660203 0.699670 0.336077
1.660186 0.699161 0.390620
1.658555 0.679179 0.390432
1.658568 0.679689 0.335889
1.624359 0.702600 0.336094
1.624342 0.702091 0.390637
1.622711 0.682109 0.390450
1.622723 0.682619 0.335907
1.663505 0.739126 0.391047
1.663502 0.738614 0.445591
1.661824 0.718636 0.445403
1.661841 0.719146 0.390860
1.627666 0.742124 0.391069
1.627664 0.741613 0.445613
1.625985 0.721635 0.445425
1.626002 0.722145 0.390881
1.661840 0.719139 0.390863
1.661823 0.718629 0.445406
1.660162 0.698650 0.445219
1.660186 0.699159 0.390676
1.625999 0.722112 0.390878
1.625982 0.721602 0.445421
1.624321 0.701623 0.445233
1.624345 0.702132 0.390690
1.660187 0.699167 0.390676
1.660163 0.698658 0.445218
1.658541 0.678675 0.445030
1.658556 0.679185 0.390488
1.624341 0.702084 0.390690
1.624317 0.701575 0.445233
1.622696 0.681592 0.445045
1.622710 0.682102 0.390503
1.663502 0.738608 0.445642
1.663501 0.738095 0.500187
1.661824 0.718117 0.499998
1.661823 0.718630 0.445454
1.627664 0.741618 0.445671
1.627663 0.741105 0.500215
1.625986 0.721127 0.500026
1.625985 0.721640 0.445483
1.661823 0.718623 0.445455
1.661823 0.718110 0.499999
1.660156 0.698131 0.499810
1.660162 0.698644 0.445267
1.625983 0.721607 0.445481
1.625983 0.721095 0.500025
1.624316 0.701116 0.499836
1.624322 0.701628 0.445293
1.660163 0.698658 0.445270
1.660157 0.698145 0.499812
1.658527 0.678163 0.499623
1.658541 0.678675 0.445082
1.624317 0.701574 0.445290
1.624311 0.701062 0.499833
1.622681 0.681079 0.499644
1.622696 0.681591 0.445103
1.663502 0.738110 0.500236
1.663503 0.737595 0.554781
1.661858 0.717612 0.554590
1.661825 0.718132 0.500047
1.627662 0.741089 0.500275
1.627662 0.740574 0.554820
1.626017 0.720592 0.554629
1.625984 0.721112 0.500086
1.661822 0.718095 0.500046
1.661855 0.717576 0.554589
1.660162 0.697598 0.554398
1.660155 0.698116 0.499856
1.625984 0.721108 0.500088
1.626017 0.720589 0.554631
1.624324 0.700611 0.554440
1.624317 0.701129 0.499898
1.660156 0.698132 0.499864
1.660163 0.697614 0.554405
1.658514 0.677633 0.554215
1.658526 0.678150 0.499675
1.624312 0.701073 0.499890
1.624320 0.700555 0.554432
1.622670 0.680574 0.554241
1.622682 0.681091 0.499701
1.663503 0.737592 0.554846
1.663504 0.737060 0.609391
1.661822 0.717084 0.609198
1.661858 0.717610 0.554655
1.627663 0.740576 0.554864
1.627664 0.740044 0.609409
1.625982 0.720067 0.609216
1.626018 0.720593 0.554673
1.661854 0.717571 0.554658
1.661819 0.717045 0.609201
1.660143 0.697067 0.609010
1.660162 0.697593 0.554468
1.626018 0.720592 0.554670
1.625982 0.720066 0.609213
1.624306 0.700088 0.609021
1.624325 0.700615 0.554479
1.660163 0.697609 0.554463
1.660144 0.697083 0.609005
1.658505 0.677102 0.608813
1.658514 0.677628 0.554273
1.624320 0.700558 0.554483
1.624301 0.700032 0.609025
1.622662 0.680051 0.608832
1.622671 0.680578 0.554292
1.663501 0.737032 0.609443
1.663504 0.736507 0.663984
1.661797 0.716530 0.663793
1.661820 0.717055 0.609250
1.627666 0.740071 0.609466
1.627668 0.739545 0.664007
1.625962 0.719568 0.663815
1.625985 0.720094 0.609273
1.661819 0.717050 0.609255
1.661797 0.716524 0.663798
1.660116 0.696546 0.663606
1.660143 0.697072 0.609064
1.625982 0.720060 0.609268
1.625959 0.719534 0.663810
1.624278 0.699556 0.663618
1.624306 0.700082 0.609076
1.660145 0.697096 0.609061
1.660118 0.696570 0.663603
1.658500 0.676588 0.663413
1.658506 0.677115 0.608869
1.624300 0.700017 0.609078
1.624273 0.699492 0.663621
1.622655 0.679509 0.663430
1.622661 0.680036 0.608886
1.663503 0.736497 0.664035
1.663501 0.735974 0.718573
1.661800 0.715998 0.718384
1.661797 0.716521 0.663844
1.627669 0.739553 0.664065
1.627667 0.739030 0.718603
1.625966 0.719054 0.718414
1.625963 0.719577 0.663874
1.661796 0.716520 0.663843
1.661800 0.715997 0.718384
1.660117 0.696019 0.718195
1.660116 0.696542 0.663652
1.625959 0.719537 0.663874
1.625963 0.719014 0.718414
1.624279 0.699036 0.718226
1.624279 0.699559 0.663682
1.660119 0.696578 0.663653
1.660119 0.696055 0.718197
1.658497 0.676071 0.718005
1.658501 0.676595 0.663462
1.624272 0.699483 0.663680
1.624273 0.698960 0.718224
1.622651 0.678977 0.718032
1.622655 0.679500 0.663489
1.663502 0.735982 0.718629
1.663492 0.735479 0.773168
1.661806 0.715501 0.772984
1.661801 0.716006 0.718440
1.627667 0.739020 0.718656
1.627657 0.738517 0.773194
1.625971 0.718539 0.773010
1.625966 0.719044 0.718467
1.661800 0.715997 0.718437
1.661805 0.715492 0.772981
1.660127 0.695514 0.772793
1.660117 0.696019 0.718249
1.625963 0.719013 0.718470
1.625968 0.718508 0.773013
1.624289 0.698530 0.772826
1.624279 0.699035 0.718282
1.660119 0.696044 0.718251
1.660129 0.695539 0.772795
1.658489 0.675559 0.772611
1.658497 0.676060 0.718060
1.624274 0.698970 0.718279
1.624284 0.698465 0.772823
1.622644 0.678484 0.772638
1.622652 0.678986 0.718087
1.663494 0.735506 0.773216
1.663491 0.735006 0.827763
1.661850 0.715023 0.827574
1.661808 0.715528 0.773032
1.627654 0.738489 0.773255
1.627651 0.737990 0.827803
1.626010 0.718007 0.827613
1.625968 0.718512 0.773072
1.661804 0.715479 0.773029
1.661846 0.714974 0.827571
1.660133 0.694998 0.827387
1.660125 0.695501 0.772842
1.625969 0.718520 0.773074
1.626011 0.718016 0.827615
1.624298 0.698040 0.827431
1.624290 0.698542 0.772886
1.660127 0.695521 0.772851
1.660135 0.695018 0.827396
1.658472 0.675038 0.827210
1.658487 0.675540 0.772667
1.624285 0.698483 0.772876
1.624293 0.697980 0.827421
1.622630 0.678000 0.827235
1.622645 0.678502 0.772691
1.572714 0.690353 -0.810663
1.572710 0.689843 -0.756120
1.571045 0.709822 -0.755933
1.571040 0.710331 -0.810478
1.608553 0.693346 -0.810636
1.608549 0.692837 -0.756092
1.606884 0.712815 -0.755905
1.606879 0.713325 -0.810450
1.571039 0.710342 -0.810475
1.571044 0.709832 -0.755930
1.569369 0.729810 -0.755745
1.569356 0.730320 -0.810288
1.606877 0.713354 -0.810453
1.606882 0.712845 -0.755908
1.605206 0.732823 -0.755723
1.605193 0.733332 -0.810266
1.569354 0.730344 -0.810289
1.569367 0.729835 -0.755746
1.567684 0.749812 -0.755559
1.567687 0.750324 -0.810105
1.605192 0.733348 -0.810264
1.605205 0.732839 -0.755722
1.603523 0.752816 -0.755534
1.603525 0.753327 -0.810081
1.572709 0.689846 -0.756066
1.572710 0.689334 -0.701519
1.571044 0.709315 -0.701335
1.571045 0.709825 -0.755879
1.608549 0.692833 -0.756038
1.608550 0.692321 -0.701491
1.606884 0.712302 -0.701307
1.606885 0.712811 -0.755851
1.571044 0.709835 -0.755879
1.571043 0.709326 -0.701336
1.569367 0.729305 -0.701150
1.569368 0.729813 -0.755694
1.606882 0.712841 -0.755850
1.606881 0.712331 -0.701307
1.605205 0.732311 -0.701121
1.605207 0.732819 -0.755665
1.569367 0.729825 -0.755695
1.569366 0.729317 -0.701151
1.567679 0.749294 -0.700967
1.567685 0.749803 -0.755507
1.605204 0.732847 -0.755664
1.605203 0.732339 -0.701120
1.603515 0.752316 -0.700936
1.603522 0.752825 -0.755476
1.572710 0.689331 -0.701463
1.572715 0.688840 -0.646920
1.571046 0.708816 -0.646735
1.571044 0.709312 -0.701279
1.608549 0.692322 -0.701438
1.608554 0.691831 -0.646895
1.606885 0.711807 -0.646711
1.606884 0.712303 -0.701254
1.571043 0.709325 -0.701280
1.571045 0.708829 -0.646736
1.569368 0.728806 -0.646551
1.569367 0.729304 -0.701094
1.606881 0.712331 -0.701254
1.606883 0.711835 -0.646710
1.605207 0.731812 -0.646525
1.605205 0.732310 -0.701068
1.569366 0.729314 -0.701094
1.569368 0.728816 -0.646551
1.567680 0.748793 -0.646367
1.567679 0.749291 -0.700910
1.605203 0.732341 -0.701068
1.605204 0.731843 -0.646525
