2.753047 1.184975 0.932482
2.821169 1.181427 0.929195
2.763218 1.241151 0.911173
2.713525 1.235285 0.915734
2.748603 1.157379 0.857610
2.816724 1.153830 0.854323
2.758774 1.213554 0.836301
2.709081 1.207689 0.840861
2.822280 1.181228 0.929186
2.890096 1.175349 0.923984
2.804954 1.256514 0.903357
2.764330 1.240952 0.911164
2.815726 1.154034 0.854321
2.883542 1.148155 0.849119
2.798400 1.229320 0.828492
2.757776 1.213758 0.836299
2.890485 1.174319 0.924307
2.890297 1.229487 0.904135
2.822848 1.294267 0.890988
2.805343 1.255483 0.903679
2.883216 1.149238 0.848773
2.883028 1.204406 0.828602
2.815578 1.269186 0.815454
2.798074 1.230402 0.828146
2.887868 1.226447 0.905162
2.887582 1.283624 0.891790
2.830242 1.338985 0.879538
2.820419 1.291226 0.892014
2.885470 1.207546 0.827546
2.885183 1.264723 0.814174
2.827843 1.320085 0.801922
2.818021 1.272326 0.814398
2.883689 1.281720 0.892129
2.881198 1.339740 0.883146
2.833256 1.388122 0.868295
2.826349 1.337081 0.879877
2.889083 1.266734 0.813812
2.886592 1.324754 0.804829
2.838651 1.373136 0.789979
2.831743 1.322096 0.801560
2.712892 1.233983 0.916220
2.762585 1.239848 0.911659
2.713760 1.290162 0.897754
2.679628 1.278218 0.902645
2.709625 1.209093 0.840344
2.759318 1.214959 0.835784
2.710493 1.265273 0.821878
2.676361 1.253328 0.826769
2.763078 1.239468 0.911758
2.803702 1.255030 0.903950
2.742153 1.313399 0.889488
2.714254 1.289782 0.897852
2.758901 1.215367 0.835673
2.799525 1.230929 0.827865
2.737976 1.289298 0.813403
2.710077 1.265681 0.821767
2.803574 1.254274 0.904187
2.821079 1.293058 0.891496
2.761648 1.348980 0.878438
2.742025 1.312643 0.889725
2.799706 1.231741 0.827607
2.817211 1.270525 0.814915
2.757781 1.326447 0.801858
2.738157 1.290110 0.813145
2.820063 1.292232 0.891766
2.829885 1.339992 0.879289
2.775651 1.392052 0.865893
2.760632 1.348155 0.878709
2.818258 1.271434 0.814621
2.828080 1.319193 0.802144
2.773846 1.371254 0.788748
2.758828 1.327356 0.801563
2.828008 1.339471 0.879423
2.834916 1.390512 0.867842
2.786980 1.438936 0.853123
2.773774 1.391532 0.866027
2.829980 1.319808 0.801985
2.836887 1.370849 0.790404
2.788951 1.419273 0.775685
2.775746 1.371869 0.788589
2.679446 1.277538 0.902868
2.713578 1.289483 0.897977
2.671368 1.328175 0.887631
2.657660 1.308452 0.894330
2.676470 1.254090 0.826523
2.710603 1.266035 0.821632
2.668392 1.304727 0.811286
2.654684 1.285004 0.817985
2.713534 1.289407 0.898002
2.741433 1.313023 0.889637
2.689224 1.358619 0.877843
2.671324 1.328099 0.887656
2.710694 1.266154 0.821592
2.738593 1.289770 0.813228
2.686384 1.335367 0.801433
2.668484 1.304846 0.811246
2.741217 1.312712 0.889738
2.760841 1.349049 0.878451
2.706787 1.397191 0.865925
2.689008 1.358308 0.877943
2.738851 1.290146 0.813106
2.758474 1.326483 0.801820
2.704420 1.374625 0.789294
2.686641 1.335743 0.801312
2.760526 1.349042 0.878461
2.775545 1.392939 0.865646
2.723642 1.441508 0.852183
2.706472 1.397184 0.865935
2.758824 1.326572 0.801784
2.773842 1.370469 0.788969
2.721940 1.419037 0.775506
2.704770 1.374714 0.789258
2.774579 1.392861 0.865678
2.787784 1.440265 0.852774
2.739719 1.488523 0.837868
2.722676 1.441429 0.852215
2.774840 1.370639 0.788910
2.788045 1.418043 0.776005
2.739980 1.466302 0.761100
2.722937 1.419207 0.775447
2.752032 1.184897 0.932558
2.712510 1.235206 0.915810
2.656942 1.235467 0.917274
2.683796 1.187162 0.934353
2.749497 1.157458 0.857539
2.709975 1.207768 0.840791
2.654407 1.208028 0.842255
2.681262 1.159723 0.859333
2.712605 1.233823 0.916283
2.679342 1.278058 0.902708
2.635051 1.279945 0.904210
2.657037 1.234084 0.917747
2.709819 1.209245 0.840287
2.676556 1.253480 0.826712
2.632265 1.255367 0.828214
2.654251 1.209506 0.841752
2.679804 1.277549 0.902849
2.658018 1.308462 0.894311
2.623437 1.319725 0.892645
2.635513 1.279436 0.904350
2.676049 1.254070 0.826548
2.654263 1.284984 0.818010
2.619682 1.296247 0.816344
2.631758 1.255957 0.828049
2.658076 1.308399 0.894328
2.671784 1.328122 0.887628
2.627348 1.356194 0.881311
2.623494 1.319662 0.892661
2.654197 1.285111 0.817974
2.667905 1.304834 0.811275
2.623469 1.332907 0.804958
2.619616 1.296374 0.816308
2.671554 1.327908 0.887703
2.689455 1.358429 0.877891
2.639065 1.395739 0.868938
2.627119 1.355981 0.881387
2.668158 1.305111 0.811179
2.686058 1.335632 0.801366
2.635669 1.372942 0.792414
2.623722 1.333183 0.804862
2.689233 1.358386 0.877912
2.707012 1.397269 0.865894
2.654838 1.439797 0.855166
2.638844 1.395696 0.868960
2.686311 1.335751 0.801320
2.704090 1.374634 0.789302
2.651916 1.417162 0.778574
2.635922 1.373061 0.792368
2.706931 1.397695 0.865769
2.724100 1.442018 0.852017
2.673057 1.487697 0.839401
2.654757 1.440222 0.855040
2.704207 1.374296 0.789400
2.721377 1.418619 0.775648
2.670333 1.464298 0.763032
2.652033 1.416823 0.778671
2.723482 1.442147 0.851994
2.740525 1.489242 0.837647
2.692735 1.537851 0.823044
2.672439 1.487826 0.839378
2.722031 1.418584 0.775640
2.739074 1.465679 0.761293
2.691283 1.514288 0.746691
2.670988 1.464263 0.763025
2.683658 1.186865 0.934464
2.656803 1.235171 0.917386
2.596987 1.238988 0.918616
2.615400 1.188461 0.935362
2.681274 1.160023 0.859224
2.654419 1.208329 0.842146
2.594603 1.212147 0.843376
2.613016 1.161619 0.860122
2.657290 1.233659 0.917872
2.635304 1.279521 0.904334
2.582616 1.287132 0.904563
2.597474 1.237477 0.919102
2.653892 1.209937 0.841629
2.631905 1.255799 0.828092
2.579217 1.263410 0.828320
2.594075 1.213755 0.842859
2.635402 1.279394 0.904368
2.623326 1.319684 0.892663
2.575065 1.334418 0.890382
2.582714 1.287006 0.904597
2.631779 1.256016 0.828030
2.619703 1.296306 0.816324
2.571442 1.311040 0.814043
2.579091 1.263628 0.828259
2.623132 1.320008 0.892571
2.626986 1.356541 0.881221
2.576882 1.380804 0.875433
2.574871 1.334742 0.890290
2.619889 1.296067 0.816390
2.623743 1.332599 0.805040
2.573640 1.356862 0.799253
2.571629 1.310801 0.814109
2.626510 1.356454 0.881265
2.638456 1.396212 0.868816
2.586184 1.428148 0.860214
2.576406 1.380717 0.875478
2.624233 1.332771 0.804969
2.636179 1.372529 0.792520
2.583907 1.404465 0.783918
2.574130 1.357034 0.799181
2.638096 1.396391 0.868770
2.654090 1.440491 0.854976
2.601111 1.478017 0.843868
2.585824 1.428326 0.860167
2.636566 1.372442 0.792538
2.652560 1.416542 0.778744
2.599581 1.454068 0.767636
2.584294 1.404377 0.783935
2.653976 1.441283 0.854720
2.672276 1.488757 0.839081
2.620115 1.530417 0.825357
2.600996 1.478810 0.843613
2.652709 1.415846 0.778967
2.671010 1.463321 0.763328
2.618848 1.504980 0.749603
2.599730 1.453373 0.767859
2.671522 1.489099 0.838970
2.691817 1.539125 0.822636
2.641041 1.583914 0.806208
2.619360 1.530759 0.825245
2.671804 1.463080 0.763404
2.692100 1.513105 0.747070
2.641323 1.557895 0.730643
2.619643 1.504739 0.749680
2.615468 1.187737 0.935610
2.597055 1.238265 0.918864
2.534338 1.243529 0.919745
2.547197 1.189625 0.936914
2.612818 1.162349 0.859876
2.594405 1.212877 0.843130
2.531689 1.218140 0.844011
2.544547 1.164236 0.861180
2.597257 1.237232 0.919186
2.582399 1.286887 0.904647
2.524279 1.296353 0.904165
2.534541 1.242496 0.920067
2.594175 1.214013 0.842776
2.579317 1.263668 0.828237
2.521197 1.273134 0.827754
2.531458 1.219277 0.843657
2.582390 1.287089 0.904586
2.574742 1.334500 0.890371
2.519454 1.349665 0.887845
2.524270 1.296554 0.904104
2.579307 1.263569 0.828268
2.571658 1.310981 0.814052
2.516370 1.326146 0.811526
2.521187 1.273035 0.827785
2.574729 1.335109 0.890179
2.576740 1.381171 0.875322
2.521857 1.402944 0.870310
2.519441 1.350274 0.887653
2.571666 1.310472 0.814213
2.573678 1.356533 0.799356
2.518794 1.378306 0.794344
2.516378 1.325636 0.811687
2.576407 1.381094 0.875359
2.586185 1.428525 0.860095
2.531016 1.456403 0.852643
2.521524 1.402867 0.870347
2.574022 1.356710 0.799287
2.583800 1.404141 0.784023
2.528631 1.432019 0.776571
2.519139 1.378483 0.794275
2.585942 1.428761 0.860026
2.601229 1.478452 0.843726
2.546280 1.511671 0.833989
2.530774 1.456640 0.852573
2.584067 1.404007 0.784059
2.599354 1.453699 0.767760
2.544404 1.486918 0.758022
2.528898 1.431886 0.776606
2.601317 1.479506 0.843365
2.620436 1.531114 0.825109
2.566719 1.569396 0.812345
2.546368 1.512725 0.833628
2.599301 1.452752 0.768083
2.618420 1.504359 0.749827
2.564703 1.542641 0.737064
2.544352 1.485970 0.758346
2.619872 1.531481 0.824987
2.641553 1.584637 0.805950
2.590694 1.629410 0.789604
2.566155 1.569764 0.812224
2.619027 1.504102 0.749909
2.640707 1.557257 0.730871
2.589849 1.602030 0.714525
2.565309 1.542384 0.737145
2.547141 1.189116 0.937083
2.534283 1.243020 0.919914
2.469717 1.248551 0.920764
2.478876 1.191048 0.938504
2.544471 1.164753 0.861013
2.531613 1.218656 0.843845
2.467047 1.224188 0.844695
2.476206 1.166684 0.862435
2.534492 1.242402 0.920098
2.524230 1.296260 0.904195
2.462743 1.305789 0.903935
2.469926 1.247934 0.920948
2.531384 1.219385 0.843627
2.521122 1.273243 0.827724
2.459635 1.282772 0.827465
2.466818 1.224917 0.844477
2.524342 1.296632 0.904077
2.519525 1.349742 0.887818
2.460112 1.363854 0.886048
2.462855 1.306161 0.903817
2.520998 1.272982 0.827809
2.516181 1.326093 0.811551
2.456768 1.340204 0.809781
2.459510 1.282511 0.827549
2.519563 1.350535 0.887562
2.521978 1.403205 0.870219
2.463462 1.422094 0.866371
2.460150 1.364647 0.885792
2.516142 1.325410 0.811771
2.518558 1.378079 0.794429
2.460041 1.396968 0.790580
2.456729 1.339522 0.810002
2.521629 1.403207 0.870233
2.531121 1.456743 0.852529
2.472963 1.480185 0.846582
2.463112 1.422096 0.866385
2.518920 1.378189 0.794378
2.528412 1.431725 0.776674
2.470254 1.455167 0.770727
2.460403 1.397078 0.790530
2.530857 1.456936 0.852473
2.546363 1.511968 0.833889
2.488603 1.539820 0.826014
2.472699 1.480378 0.846526
2.528702 1.431646 0.776691
2.544208 1.486677 0.758106
2.486447 1.514530 0.750232
2.470543 1.455087 0.770744
2.546581 1.513331 0.833400
2.566932 1.570002 0.812118
2.510149 1.602702 0.801330
2.488821 1.541183 0.825526
2.544027 1.485431 0.758552
2.564378 1.542101 0.737270
2.507594 1.574802 0.726482
2.486266 1.513283 0.750678
2.566369 1.570410 0.811979
2.590908 1.630056 0.789359
2.536821 1.670925 0.774006
2.509586 1.603111 0.801190
2.564988 1.541815 0.737362
2.589527 1.601461 0.714742
2.535440 1.642330 0.699389
2.508204 1.574516 0.726574
2.478740 1.190593 0.938651
2.469581 1.248097 0.920911
2.403860 1.253256 0.921893
2.410476 1.192479 0.939949
2.476208 1.167146 0.862290
2.467049 1.224649 0.844550
2.401329 1.229808 0.845532
2.407944 1.169031 0.863588
2.469786 1.247857 0.920977
2.462602 1.305712 0.903964
2.399037 1.314155 0.903913
2.404065 1.253016 0.921958
2.466831 1.225008 0.844450
2.459648 1.282863 0.827437
2.396082 1.291306 0.827386
2.401110 1.230167 0.845431
2.462656 1.306171 0.903822
2.459913 1.363865 0.886054
2.397882 1.375790 0.884846
2.399091 1.314614 0.903771
2.459586 1.282523 0.827543
2.456843 1.340216 0.809774
2.394812 1.352141 0.808567
2.396020 1.290966 0.827492
2.459980 1.364930 0.885705
2.463292 1.422377 0.866284
2.402103 1.437620 0.863489
2.397949 1.376855 0.884497
2.456778 1.339269 0.810084
2.460090 1.396716 0.790663
2.398901 1.411959 0.787869
2.394747 1.351194 0.808877
2.463081 1.422340 0.866305
2.472931 1.480429 0.846502
2.412059 1.498814 0.842441
2.401891 1.437583 0.863510
2.460315 1.396872 0.790601
2.470166 1.454961 0.770799
2.409294 1.473346 0.766738
2.399126 1.412115 0.787807
2.472823 1.480555 0.846463
2.488727 1.539998 0.825951
2.427791 1.561119 0.820707
2.411951 1.498940 0.842402
2.470300 1.454955 0.770796
2.486204 1.514398 0.750284
2.425268 1.535519 0.745041
2.409428 1.473340 0.766736
2.488997 1.541654 0.825341
2.510324 1.603173 0.801145
2.448785 1.626580 0.794152
2.428060 1.562775 0.820098
2.485972 1.512865 0.750848
2.507300 1.574383 0.726652
2.445761 1.597791 0.719659
2.425036 1.533986 0.745604
2.509873 1.603642 0.800976
2.537108 1.671457 0.773791
2.473879 1.697331 0.764616
2.448334 1.627050 0.793983
2.507799 1.574046 0.726767
2.535034 1.641860 0.699583
2.471806 1.667734 0.690407
2.446260 1.597453 0.719775
2.410173 1.192011 0.940099
2.403558 1.252788 0.922042
2.337141 1.257131 0.922945
2.341891 1.193658 0.941060
2.408112 1.169506 0.863441
2.401497 1.230283 0.845384
2.335080 1.234626 0.846286
2.339830 1.171153 0.864402
2.403907 1.252881 0.922004
2.398879 1.314020 0.903959
2.334065 1.320972 0.904473
2.337491 1.257224 0.922906
2.401137 1.230314 0.845386
2.396110 1.291453 0.827341
2.331295 1.298405 0.827856
2.334721 1.234657 0.846288
2.399139 1.314548 0.903789
2.397930 1.375723 0.884864
2.334293 1.385198 0.884835
2.334324 1.321500 0.904304
2.395846 1.291051 0.827473
2.394637 1.352226 0.808548
2.331000 1.361700 0.808518
2.331031 1.298002 0.827987
2.398124 1.377043 0.884425
2.402278 1.437808 0.863417
2.339252 1.449447 0.862340
2.334487 1.386517 0.884395
2.394447 1.351031 0.808946
2.398601 1.411796 0.787938
2.335576 1.423435 0.786861
2.330810 1.360505 0.808917
2.402089 1.437683 0.863469
2.412257 1.498914 0.842400
2.349291 1.512322 0.840458
2.339064 1.449322 0.862392
2.398804 1.412045 0.787844
2.408972 1.473275 0.766775
2.346007 1.486684 0.764833
2.335779 1.423684 0.786767
2.412112 1.499064 0.842354
2.427952 1.561243 0.820660
2.364372 1.575674 0.818063
2.349146 1.512473 0.840413
2.409143 1.473250 0.766777
2.424983 1.535428 0.745082
2.361404 1.549859 0.742485
2.346178 1.486659 0.764835
2.428060 1.563240 0.819915
2.448785 1.627045 0.793969
2.383526 1.640717 0.790786
2.364480 1.577671 0.817318
2.424911 1.533558 0.745778
2.445636 1.597362 0.719833
2.380378 1.611035 0.716650
2.361331 1.547988 0.743181
2.448380 1.627507 0.793796
2.473925 1.697788 0.764429
2.404843 1.706734 0.762454
2.383122 1.641179 0.790613
2.446084 1.597032 0.719951
2.471630 1.667313 0.690583
2.402547 1.676259 0.688608
2.380826 1.610704 0.716768
2.341829 1.193221 0.941187
2.337079 1.256694 0.923072
2.270266 1.260281 0.924259
2.273552 1.194861 0.942168
2.339758 1.171595 0.864276
2.335008 1.235068 0.846161
2.268195 1.238655 0.847348
2.271481 1.173236 0.865257
2.337472 1.256955 0.922985
2.334046 1.320703 0.904552
2.268521 1.326090 0.905729
2.270659 1.260542 0.924172
2.334608 1.234936 0.846212
2.331182 1.298684 0.827779
2.265657 1.304071 0.828955
2.267795 1.238523 0.847398
2.334332 1.321353 0.904349
2.334301 1.385051 0.884879
2.269685 1.392077 0.885792
2.268807 1.326740 0.905525
2.330894 1.298163 0.827944
2.330863 1.361861 0.808475
2.266247 1.368887 0.809388
2.265369 1.303550 0.829121
2.334539 1.386588 0.884368
2.339305 1.449518 0.862313
2.275089 1.457860 0.862754
2.269924 1.393614 0.885281
2.330629 1.360453 0.808944
2.335395 1.423382 0.786889
2.271179 1.431724 0.787329
2.266014 1.367479 0.809857
2.339315 1.449321 0.862380
2.349543 1.512322 0.840446
2.285149 1.521662 0.840675
2.275099 1.457663 0.862821
2.335400 1.423706 0.786777
2.345628 1.486706 0.764844
2.281234 1.496047 0.765072
2.271184 1.432048 0.787218
2.349548 1.512521 0.840378
2.364774 1.575722 0.818028
2.299540 1.585303 0.818009
2.285154 1.521862 0.840606
2.345647 1.486633 0.764868
2.360874 1.549834 0.742518
2.295640 1.559415 0.742498
2.281253 1.495974 0.765096
2.364817 1.578027 0.817157
2.383864 1.641074 0.790625
2.316949 1.649466 0.790327
2.299583 1.587608 0.817138
2.360864 1.547655 0.743339
2.379910 1.610701 0.716807
2.312996 1.619094 0.716509
2.295630 1.557236 0.743320
2.383459 1.641474 0.790478
2.405180 1.707029 0.762319
2.335737 1.712145 0.762671
2.316544 1.649867 0.790180
2.380354 1.610427 0.716900
2.402075 1.675982 0.688741
2.332632 1.681098 0.689094
2.313439 1.618820 0.716602
2.273478 1.194427 0.942290
2.270192 1.259846 0.924380
2.203171 1.262713 0.925799
2.205198 1.196073 0.943267
2.271419 1.173675 0.865138
2.268133 1.239095 0.847229
2.201113 1.241961 0.848647
2.203140 1.175322 0.866115
2.270679 1.260162 0.924278
2.268541 1.325710 0.905835
2.202624 1.329730 0.907759
2.203658 1.263028 0.925697
2.267642 1.238911 0.847295
2.265505 1.304459 0.828852
2.199588 1.308480 0.830775
2.200622 1.241778 0.848713
2.268934 1.326576 0.905568
2.269811 1.391914 0.885835
2.204626 1.396870 0.887780
2.203017 1.330597 0.907492
2.265112 1.303724 0.829080
2.265990 1.369062 0.809347
2.200804 1.374019 0.811292
2.199195 1.307745 0.831004
2.270032 1.393594 0.885282
2.275197 1.457840 0.862755
2.210211 1.463468 0.864495
2.204847 1.398551 0.887227
2.265776 1.367512 0.809858
2.270941 1.431758 0.787331
2.205955 1.437386 0.789071
2.200591 1.372469 0.811803
2.275213 1.457593 0.862838
2.285263 1.521592 0.840692
2.219890 1.527666 0.842376
2.210227 1.463221 0.864578
2.270940 1.432134 0.787202
2.280990 1.496133 0.765056
2.215618 1.502207 0.766741
2.205955 1.437762 0.788942
2.285262 1.521940 0.840574
2.299649 1.585380 0.817976
2.233302 1.591473 0.819512
2.219890 1.528014 0.842258
2.281014 1.495912 0.765130
2.295400 1.559353 0.742533
2.229054 1.565446 0.744068
2.215642 1.501987 0.766814
2.299604 1.588007 0.816970
2.316970 1.649865 0.790160
2.249166 1.655106 0.791355
2.233257 1.594099 0.818506
2.295476 1.556852 0.743489
2.312842 1.618710 0.716678
2.245038 1.623951 0.717873
2.229129 1.562944 0.745024
2.316586 1.650244 0.790017
2.335779 1.712522 0.762508
2.266163 1.716090 0.763731
2.248783 1.655485 0.791212
2.313260 1.618455 0.716766
2.332453 1.680733 0.689258
2.262836 1.684301 0.690480
2.245457 1.623696 0.717962
2.204980 1.195683 0.943375
2.202953 1.262323 0.925907
2.135820 1.264520 0.927180
2.136684 1.197163 0.944230
2.203222 1.175715 0.866009
2.201196 1.242355 0.848541
2.134063 1.244553 0.849814
2.134926 1.177195 0.866864
2.203308 1.262639 0.925814
2.202274 1.329341 0.907876
2.136136 1.332027 0.909571
2.136175 1.264837 0.927087
2.200839 1.242173 0.848599
2.199804 1.308875 0.830661
2.133666 1.311561 0.832356
2.133706 1.244371 0.849872
2.202565 1.330446 0.907557
2.204175 1.396719 0.887845
2.138618 1.399735 0.889716
2.136427 1.333132 0.909252
2.199515 1.307904 0.830943
2.201124 1.374177 0.811231
2.135568 1.377193 0.813101
2.133377 1.310589 0.832638
2.204265 1.398652 0.887221
2.209630 1.463570 0.864488
2.144107 1.466685 0.866086
2.138709 1.401668 0.889091
2.201041 1.372376 0.811813
2.206406 1.437293 0.789081
2.140883 1.440408 0.790678
2.135485 1.375391 0.813683
2.209540 1.463315 0.864580
2.219203 1.527760 0.842378
2.153081 1.530993 0.843902
2.144017 1.466430 0.866177
2.206510 1.437678 0.788944
2.216174 1.502123 0.766742
2.150051 1.505356 0.768266
2.140988 1.440793 0.790542
2.219143 1.528276 0.842202
2.232556 1.591735 0.819456
2.165368 1.594905 0.820786
2.153021 1.531509 0.843725
2.216256 1.501734 0.766873
2.229668 1.565193 0.744127
2.162481 1.568363 0.745458
2.150133 1.504967 0.768397
2.232412 1.594668 0.818298
2.248321 1.655675 0.791147
2.179880 1.658411 0.791981
2.165224 1.597839 0.819629
2.229840 1.562384 0.745234
2.245749 1.623391 0.718084
2.177308 1.626126 0.718918
2.162653 1.565554 0.746565
2.247994 1.656015 0.791006
2.265373 1.716620 0.763524
2.195727 1.718597 0.764140
2.179552 1.658750 0.791840
2.246108 1.623173 0.718170
2.263488 1.683777 0.690689
2.193842 1.685755 0.691304
2.177667 1.625908 0.719004
2.136696 1.196910 0.944294
2.135833 1.264267 0.927244
2.068703 1.266130 0.928596
2.068421 1.198729 0.945369
2.134778 1.177452 0.866802
2.133915 1.244810 0.849752
2.066784 1.246672 0.851105
2.066503 1.179271 0.867878
2.136117 1.264506 0.927176
2.136077 1.331696 0.909660
2.069901 1.333556 0.911636
2.068986 1.266368 0.928528
2.133631 1.244706 0.849787
2.133592 1.311897 0.832271
2.067416 1.313757 0.834247
2.066501 1.246569 0.851139
2.136458 1.332901 0.909318
2.138649 1.399504 0.889782
2.073028 1.401286 0.892328
2.070282 1.334761 0.911295
2.133214 1.310826 0.832576
2.135406 1.377429 0.813039
2.069785 1.379210 0.815586
2.067038 1.312686 0.834552
2.139013 1.401551 0.889117
2.144411 1.466568 0.866112
2.078672 1.468390 0.869222
2.073392 1.403333 0.891663
2.135050 1.375513 0.813662
2.140448 1.440530 0.790657
2.074708 1.442352 0.793767
2.069429 1.377295 0.816208
2.144668 1.466264 0.866201
2.153731 1.530826 0.843925
2.087189 1.532726 0.847372
2.078928 1.468086 0.869311
2.140205 1.440964 0.790523
2.149269 1.505527 0.768247
2.082726 1.507426 0.771694
2.074466 1.442786 0.793633
2.153837 1.531412 0.843719
2.166184 1.594809 0.820779
2.098407 1.596900 0.824236
2.087294 1.533312 0.847166
2.149183 1.505069 0.768409
2.161531 1.568465 0.745469
2.093753 1.570557 0.748926
2.082641 1.506968 0.771856
2.166096 1.597944 0.819540
2.180751 1.658515 0.791893
2.111778 1.660780 0.794846
2.098319 1.600035 0.822997
2.161645 1.565454 0.746658
2.176300 1.626026 0.719010
2.107326 1.628291 0.721964
2.093867 1.567546 0.750114
2.180489 1.658803 0.791778
2.196664 1.718651 0.764078
2.127052 1.721728 0.766132
2.111516 1.661068 0.794732
2.176592 1.625859 0.719069
2.192767 1.685707 0.691368
2.123155 1.688784 0.693422
2.107619 1.628124 0.722022
2.069081 1.198559 0.945389
2.069363 1.265960 0.928616
2.002354 1.268027 0.931167
2.000891 1.201874 0.947396
2.065707 1.179446 0.867862
2.065988 1.246847 0.851089
1.998979 1.248914 0.853640
1.997516 1.182761 0.869869
2.069595 1.266039 0.928586
2.070510 1.333227 0.911694
2.004365 1.334763 0.914844
2.002586 1.268106 0.931137
2.065759 1.246902 0.851086
2.066674 1.314090 0.834194
2.000528 1.315625 0.837344
1.998749 1.248969 0.853637
2.070632 1.334630 0.911315
2.073378 1.401154 0.892349
2.007720 1.402093 0.895492
2.004487 1.336165 0.914466
2.066556 1.312821 0.834537
2.069303 1.379345 0.815570
2.003644 1.380284 0.818713
2.000411 1.314356 0.837687
2.073200 1.403321 0.891677
2.078480 1.468378 0.869236
2.012655 1.468831 0.872078
2.007542 1.404260 0.894821
2.069489 1.377309 0.816200
2.074769 1.442367 0.793759
2.008944 1.442820 0.796600
2.003830 1.378249 0.819343
2.078292 1.468134 0.869328
2.086552 1.532774 0.847389
2.019467 1.533059 0.850131
2.012467 1.468587 0.872170
2.074970 1.442740 0.793622
2.083230 1.507380 0.771683
2.016145 1.507666 0.774426
2.009145 1.443194 0.796464
2.086315 1.533635 0.847100
2.097428 1.597224 0.824170
2.028562 1.597371 0.826392
2.019230 1.533921 0.849842
2.083485 1.506647 0.771928
2.094597 1.570235 0.748998
2.025731 1.570383 0.751220
2.016399 1.506932 0.774670
2.097099 1.600514 0.822835
2.110558 1.661259 0.794685
2.040271 1.661379 0.796463
2.028233 1.600661 0.825057
2.094949 1.567070 0.750281
2.108408 1.627815 0.722131
2.038121 1.627935 0.723909
2.026083 1.567217 0.752503
2.110339 1.661556 0.794553
2.125876 1.722216 0.765952
2.056232 1.721902 0.767520
2.040052 1.661676 0.796331
2.108656 1.627639 0.722206
2.124193 1.688299 0.693606
2.054549 1.687985 0.695174
2.038369 1.627759 0.723984
2.003515 1.201789 0.947211
2.004979 1.267942 0.930982
1.938326 1.270323 0.937789
1.935827 1.204203 0.954481
1.994756 1.182851 0.870063
1.996219 1.249004 0.853834
1.929567 1.251385 0.860641
1.927068 1.185265 0.877333
2.004902 1.267841 0.931016
2.006681 1.334497 0.914723
1.940512 1.336456 0.921663
1.938250 1.270222 0.937822
1.996300 1.249238 0.853768
1.998079 1.315894 0.837475
1.931909 1.317854 0.844415
1.929647 1.251619 0.860575
2.006418 1.336350 0.914259
2.009651 1.402278 0.895286
1.944081 1.403414 0.901371
1.940249 1.338309 0.921199
1.998347 1.314174 0.837903
2.001581 1.380102 0.818929
1.936010 1.381238 0.825015
1.932178 1.316133 0.844843
2.009255 1.404291 0.894685
2.014368 1.468863 0.871942
1.948836 1.469517 0.877911
1.943685 1.405427 0.900770
2.001985 1.378219 0.819488
2.007098 1.442790 0.796745
1.941566 1.443445 0.802714
1.936415 1.379355 0.825574
2.014105 1.468622 0.872049
2.021105 1.533094 0.850011
1.953511 1.533511 0.855558
1.948572 1.469277 0.878017
2.007373 1.443159 0.796593
2.014373 1.507631 0.774555
1.946779 1.508048 0.780102
1.941841 1.443814 0.802562
2.020385 1.534388 0.849608
2.029717 1.597838 0.826158
1.959199 1.597894 0.830193
1.952791 1.534804 0.855156
2.015107 1.506466 0.774911
2.024439 1.569916 0.751461
1.953921 1.569972 0.755496
1.947513 1.506882 0.780458
2.029053 1.600737 0.824987
2.041091 1.661455 0.796393
1.967331 1.661844 0.799988
1.958536 1.600793 0.829022
2.025120 1.567141 0.752578
2.037159 1.627860 0.723984
1.963398 1.628248 0.727579
1.954603 1.567198 0.756613
2.040903 1.661645 0.796314
2.057083 1.721871 0.767504
1.987601 1.718078 0.772491
1.967142 1.662034 0.799909
2.037376 1.627789 0.724006
2.053556 1.688014 0.695196
1.984074 1.684221 0.700183
1.963615 1.628177 0.727601
