2.632283 1.707307 0.141018
2.633329 1.707671 0.093575
2.604898 1.720499 0.093254
2.593456 1.698474 0.139994
2.622446 1.685445 0.140620
2.623491 1.685810 0.093177
2.595061 1.698637 0.092856
2.604914 1.720492 0.093206
2.633345 1.707665 0.093527
2.634395 1.708036 0.046083
2.606514 1.720646 0.046069
2.595047 1.698644 0.092809
2.623478 1.685817 0.093130
2.624528 1.686188 0.045686
2.596647 1.698798 0.045671
2.606530 1.720639 0.046023
2.634411 1.708030 0.046037
2.635457 1.708398 -0.001408
2.608135 1.720803 -0.001116
2.596634 1.698804 0.045623
2.624515 1.686195 0.045637
2.625561 1.686563 -0.001808
2.598239 1.698968 -0.001516
2.568387 1.698299 0.564434
2.616314 1.677992 0.569859
2.626810 1.680931 0.523367
2.591419 1.695985 0.519768
2.559435 1.676326 0.560990
2.607361 1.656019 0.566415
2.617857 1.658958 0.519924
2.582466 1.674011 0.516325
2.591496 1.695997 0.519466
2.626888 1.680943 0.523066
2.635248 1.683702 0.476177
2.600737 1.698407 0.473063
2.582414 1.674002 0.516534
2.617806 1.658948 0.520133
2.626166 1.661707 0.473245
2.591655 1.676413 0.470131
2.600802 1.698421 0.472727
2.635313 1.683716 0.475841
2.641163 1.686288 0.428515
2.607567 1.700651 0.425814
2.591606 1.676404 0.470374
2.626117 1.661699 0.473487
2.631968 1.664271 0.426162
2.598372 1.678634 0.423461
2.607633 1.700654 0.425495
2.641229 1.686291 0.428197
2.646024 1.688087 0.380803
2.612895 1.702373 0.378392
2.598318 1.678635 0.423685
2.631914 1.664273 0.426386
2.636709 1.666068 0.378992
2.603580 1.680355 0.376582
2.612959 1.702357 0.378237
2.646089 1.688071 0.380647
2.650438 1.689546 0.333112
2.617623 1.703887 0.331030
2.603525 1.680374 0.376642
2.636654 1.666087 0.379053
2.641003 1.667562 0.331517
2.608188 1.681903 0.329436
2.617686 1.703862 0.330990
2.650501 1.689522 0.333072
2.654855 1.691011 0.285535
2.622350 1.705400 0.283789
2.608134 1.681930 0.329381
2.640949 1.667590 0.331463
2.645303 1.669079 0.283925
2.612798 1.683467 0.282179
2.622414 1.705391 0.283462
2.654920 1.691002 0.285208
2.657368 1.692163 0.237528
2.625914 1.706161 0.236150
2.612740 1.683478 0.282411
2.645246 1.669090 0.284157
2.647694 1.670250 0.236477
2.616240 1.684248 0.235099
2.625943 1.706153 0.236035
2.657397 1.692155 0.237413
2.659367 1.693244 0.189710
2.629158 1.706736 0.188707
2.616217 1.684258 0.235119
2.647671 1.670260 0.236497
2.649641 1.671349 0.188794
2.619432 1.684840 0.187791
2.629178 1.706729 0.188647
2.659387 1.693238 0.189650
2.661279 1.694314 0.141935
2.632272 1.707303 0.141313
2.619417 1.684848 0.187756
2.649626 1.671357 0.188759
2.651518 1.672432 0.141043
2.622511 1.685422 0.140422
2.632297 1.707301 0.141006
2.661303 1.694311 0.141628
2.661793 1.694880 0.093879
2.633342 1.707665 0.093562
2.622490 1.685425 0.140633
2.651497 1.672436 0.141255
2.651986 1.673005 0.093507
2.623535 1.685790 0.093190
2.633363 1.707657 0.093514
2.661814 1.694872 0.093831
2.662297 1.695429 0.046082
2.634413 1.708028 0.046071
2.623516 1.685799 0.093143
2.651967 1.673014 0.093459
2.652451 1.673571 0.045710
2.624566 1.686171 0.045699
2.634437 1.708018 0.046023
2.662321 1.695419 0.046035
2.662806 1.695979 -0.001715
2.635483 1.708386 -0.001422
2.624544 1.686182 0.045651
2.652428 1.673582 0.045662
2.652913 1.674142 -0.002087
2.625590 1.686549 -0.001794
1.796754 1.706626 0.493594
1.798434 1.711052 0.452604
1.795872 1.699236 0.451020
1.794239 1.694793 0.492071
1.820182 1.701545 0.493991
1.821862 1.705971 0.453001
1.819300 1.694155 0.451416
1.817667 1.689712 0.492468
1.798448 1.711120 0.452666
1.799709 1.715033 0.411640
1.797014 1.703117 0.409975
1.795886 1.699305 0.451082
1.821850 1.705911 0.452857
1.823111 1.709823 0.411830
1.820416 1.697907 0.410165
1.819289 1.694095 0.451272
1.799710 1.715026 0.411974
1.799048 1.716561 0.370732
1.796375 1.704634 0.369034
1.797015 1.703110 0.410309
1.823111 1.709836 0.411413
1.822449 1.711371 0.370171
1.819776 1.699444 0.368473
1.820416 1.697920 0.409748
1.799051 1.716582 0.370647
1.798549 1.717948 0.329360
1.795817 1.706006 0.327607
1.796378 1.704656 0.368949
1.822445 1.711353 0.370174
1.821943 1.712719 0.328887
1.819211 1.700776 0.327134
1.819772 1.699426 0.368476
1.798589 1.718127 0.329285
1.798311 1.719296 0.288039
1.795250 1.707313 0.286229
1.795857 1.706184 0.327532
1.821902 1.712543 0.328879
1.821624 1.713713 0.287633
1.818563 1.701729 0.285824
1.819170 1.700600 0.327127
1.798376 1.719559 0.287994
1.798098 1.720719 0.246755
1.794774 1.708702 0.244872
1.795315 1.707575 0.286185
1.821558 1.713453 0.287595
1.821280 1.714614 0.246356
1.817956 1.702596 0.244472
1.818497 1.701469 0.285786
1.798140 1.720879 0.246657
1.797925 1.721800 0.205350
1.794487 1.709665 0.203478
1.794815 1.708861 0.244774
1.821238 1.714456 0.246371
1.821023 1.715377 0.205064
1.817584 1.703242 0.203192
1.817913 1.702438 0.244488
1.797911 1.721751 0.205204
1.797813 1.722320 0.163939
1.794561 1.710034 0.162018
1.794472 1.709615 0.203333
1.821038 1.715428 0.205126
1.820940 1.715997 0.163861
1.817688 1.703710 0.161940
1.817599 1.703292 0.203255
1.797765 1.722142 0.163891
1.797699 1.722678 0.122636
1.794588 1.710238 0.120644
1.794514 1.709855 0.161970
1.820987 1.716177 0.163827
1.820921 1.716713 0.122572
1.817810 1.704273 0.120580
1.817736 1.703890 0.161906
1.797670 1.722564 0.122559
1.797672 1.722717 0.081335
1.794640 1.710218 0.079152
1.794559 1.710123 0.120568
1.820950 1.716828 0.122565
1.820952 1.716982 0.081341
1.817920 1.704483 0.079158
1.817839 1.704388 0.120574
1.797660 1.722667 0.081320
1.797618 1.722866 0.040065
1.794585 1.710318 0.037808
1.794628 1.710167 0.079138
1.820964 1.717033 0.081272
1.820923 1.717232 0.040018
1.817890 1.704684 0.037761
1.817933 1.704533 0.079090
1.797616 1.722855 0.040024
1.797570 1.723051 -0.001057
1.794543 1.710467 -0.003440
1.794583 1.710307 0.037768
1.820926 1.717244 0.039976
1.820880 1.717439 -0.001106
1.817853 1.704855 -0.003489
1.817893 1.704696 0.037719
1.806141 1.731835 -0.000998
1.806187 1.731640 0.040084
1.820805 1.735452 0.041030
1.820760 1.735818 -0.000272
1.812326 1.708671 -0.001162
1.812372 1.708476 0.039919
1.826990 1.712288 0.040865
1.826946 1.712654 -0.000437
1.806310 1.731672 0.040125
1.806352 1.731472 0.081380
1.820970 1.735121 0.082376
1.820928 1.735484 0.041071
1.812249 1.708443 0.039961
1.812290 1.708244 0.081216
1.826908 1.711893 0.082212
1.826867 1.712256 0.040906
1.806488 1.731506 0.081411
1.806487 1.731352 0.122636
1.821134 1.734807 0.123743
1.821107 1.735155 0.082407
1.812154 1.708209 0.081268
1.812152 1.708056 0.122492
1.826799 1.711511 0.123600
1.826772 1.711858 0.082263
1.806538 1.731364 0.122754
1.806604 1.730827 0.164010
1.821635 1.734422 0.165165
1.821186 1.734819 0.123862
1.812100 1.708044 0.122456
1.812166 1.707507 0.163711
1.827197 1.711102 0.164867
1.826748 1.711499 0.123564
1.806562 1.730817 0.164060
1.806660 1.730247 0.205325
1.822070 1.733998 0.206512
1.821593 1.734411 0.165216
1.812209 1.707517 0.163743
1.812307 1.706948 0.205009
1.827717 1.710699 0.206195
1.827240 1.711112 0.164899
1.806638 1.730239 0.205486
1.806852 1.729317 0.246793
1.822391 1.733075 0.248005
1.822048 1.733990 0.206673
1.812330 1.706955 0.204930
1.812544 1.706034 0.246238
1.828083 1.709791 0.247449
1.827740 1.710706 0.206117
1.806916 1.729329 0.246928
1.807193 1.728168 0.288167
1.822639 1.731731 0.289420
1.822454 1.733086 0.248139
1.812482 1.706020 0.246186
1.812759 1.704859 0.287425
1.828204 1.708422 0.288678
1.828020 1.709777 0.247397
1.807315 1.728195 0.288211
1.807594 1.727025 0.329457
1.822948 1.730397 0.330741
1.822761 1.731758 0.289464
1.812637 1.704829 0.287464
1.812916 1.703660 0.328710
1.828271 1.707031 0.329994
1.828083 1.708392 0.288717
1.807766 1.727059 0.329588
1.808268 1.725693 0.370876
1.823368 1.728685 0.372250
1.823121 1.730431 0.330873
1.812744 1.703624 0.328661
1.813247 1.702257 0.369948
1.828346 1.705250 0.371323
1.828099 1.706995 0.329945
1.808534 1.725741 0.370985
1.809196 1.724206 0.412226
1.823947 1.726730 0.413602
1.823634 1.728734 0.372359
1.812981 1.702205 0.369922
1.813643 1.700670 0.411164
1.828394 1.703193 0.412540
1.828081 1.705198 0.371297
1.809019 1.724144 0.412668
1.807758 1.720231 0.453694
1.823272 1.723681 0.455231
1.823770 1.726667 0.414044
1.813819 1.700728 0.410805
1.812558 1.696815 0.451832
1.828073 1.700265 0.453369
1.828570 1.703251 0.412181
1.807115 1.720073 0.453785
1.805436 1.715648 0.494775
1.821968 1.720353 0.496548
1.822630 1.723524 0.455322
1.813198 1.696965 0.451823
1.811519 1.692539 0.492813
1.828051 1.697244 0.494586
1.828713 1.700415 0.453360
1.819108 1.749053 -0.000725
1.812431 1.727855 -0.000308
1.812476 1.727489 0.040994
1.819137 1.748583 0.040810
1.841973 1.741840 -0.000818
1.835296 1.720643 -0.000401
1.835341 1.720276 0.040901
1.842002 1.741370 0.040717
1.819140 1.748594 0.040853
1.812479 1.727500 0.041036
1.812521 1.727136 0.082341
1.819176 1.748119 0.082387
1.841998 1.741359 0.040758
1.835337 1.720265 0.040942
1.835379 1.719902 0.082247
1.842035 1.740884 0.082293
1.819183 1.748141 0.082428
1.812528 1.727158 0.082382
1.812555 1.726811 0.123719
1.819233 1.747669 0.124051
1.842028 1.740861 0.082335
1.835372 1.719879 0.082289
1.835400 1.719532 0.123626
1.842077 1.740390 0.123958
1.819235 1.747671 0.124199
1.812558 1.726813 0.123867
1.813007 1.726417 0.165170
1.819581 1.747069 0.165732
1.842076 1.740386 0.123893
1.835398 1.719528 0.123561
1.835847 1.719132 0.164863
1.842421 1.739785 0.165425
1.819572 1.747041 0.165779
1.812998 1.726389 0.165217
1.813476 1.725976 0.206513
1.819924 1.746433 0.207309
1.842430 1.739812 0.165461
1.835856 1.719159 0.164899
1.836333 1.718746 0.206196
1.842781 1.739203 0.206992
1.819920 1.746419 0.207369
1.813472 1.725961 0.206573
1.813815 1.725046 0.247905
1.820311 1.745596 0.248860
1.842786 1.739216 0.207015
1.836338 1.718759 0.206219
1.836681 1.717844 0.247551
1.843177 1.738394 0.248507
1.820323 1.745632 0.248914
1.813827 1.725082 0.247958
1.814012 1.723726 0.289239
1.820741 1.744584 0.290434
1.843165 1.738356 0.248536
1.836669 1.717806 0.247580
1.836854 1.716450 0.288862
1.843583 1.737308 0.290056
1.820763 1.744649 0.290479
1.814033 1.723791 0.289285
1.814221 1.722431 0.330562
1.821190 1.743595 0.332003
1.843562 1.737240 0.290094
1.836833 1.716383 0.288899
1.837020 1.715023 0.330176
1.843990 1.736186 0.331618
1.821203 1.743631 0.332082
1.814234 1.722467 0.330641
1.814482 1.720722 0.372018
1.821360 1.741517 0.373476
1.843977 1.736147 0.331622
1.837008 1.714983 0.330180
1.837255 1.713238 0.371558
1.844134 1.734033 0.373015
1.821357 1.741502 0.373544
1.814478 1.720706 0.372086
1.814791 1.718702 0.413330
1.821357 1.738759 0.414999
1.844138 1.734044 0.373030
1.837259 1.713249 0.371572
1.837571 1.711244 0.412816
1.844138 1.731301 0.414485
1.821322 1.738659 0.414859
1.814756 1.718602 0.413190
1.814259 1.715616 0.454377
1.820367 1.735353 0.456245
1.844171 1.731395 0.414708
1.837605 1.711339 0.413038
1.837108 1.708353 0.454226
1.843215 1.728090 0.456094
1.820303 1.735147 0.456231
1.814195 1.715410 0.454363
1.813533 1.712239 0.495589
1.819150 1.731758 0.497368
1.843277 1.728289 0.456191
1.837170 1.708552 0.454323
1.836508 1.705381 0.495548
1.842125 1.724900 0.497328
1.829828 1.744248 0.499602
1.831436 1.748475 0.458306
1.823289 1.740163 0.456706
1.822136 1.736773 0.497844
1.846844 1.727386 0.498614
1.848452 1.731613 0.457318
1.840305 1.723301 0.455718
1.839152 1.719911 0.496856
1.831304 1.748342 0.458251
1.832741 1.752315 0.416918
1.824112 1.743336 0.415265
1.823156 1.740030 0.456651
1.848588 1.731754 0.457291
1.850025 1.735726 0.415958
1.841396 1.726747 0.414305
1.840440 1.723441 0.455691
1.832878 1.752457 0.416879
1.833091 1.754675 0.375399
1.824249 1.746222 0.373771
1.824249 1.743478 0.415226
1.849890 1.735590 0.415914
1.850103 1.737807 0.374433
1.841261 1.729354 0.372806
1.841261 1.726611 0.414261
1.833330 1.754913 0.375326
1.833001 1.756652 0.333884
1.824331 1.748573 0.332305
1.824488 1.746460 0.373699
1.849864 1.737573 0.374423
1.849535 1.739312 0.332980
1.840865 1.731234 0.331402
1.841022 1.729120 0.372795
1.832888 1.756548 0.333763
1.831667 1.757496 0.292254
1.823791 1.749524 0.290661
1.824218 1.748470 0.332185
1.849647 1.739418 0.333018
1.848426 1.740366 0.291509
1.840549 1.732394 0.289915
1.840977 1.731340 0.331439
1.831287 1.757109 0.292211
1.830062 1.758075 0.250689
1.822993 1.750186 0.249098
1.823411 1.749138 0.290618
1.848803 1.740754 0.291468
1.847578 1.741720 0.249946
1.840509 1.733831 0.248355
1.840927 1.732783 0.289875
1.829761 1.757746 0.250558
1.829060 1.758638 0.209066
1.822301 1.750678 0.207475
1.822692 1.749856 0.248966
1.847878 1.742052 0.249995
1.847177 1.742944 0.208503
1.840418 1.734985 0.206912
1.840809 1.734162 0.248403
1.828958 1.758522 0.208936
1.828784 1.759361 0.167396
1.821848 1.751171 0.165814
1.822199 1.750563 0.207344
1.847278 1.743061 0.208550
1.847105 1.743900 0.167010
1.840168 1.735710 0.165429
1.840520 1.735102 0.206959
1.828777 1.759354 0.167351
1.828608 1.760178 0.125813
1.821495 1.751765 0.124236
1.821840 1.751164 0.165769
1.847112 1.743909 0.166972
1.846943 1.744734 0.125435
1.839830 1.736321 0.123858
1.840175 1.735719 0.165390
1.828585 1.760153 0.125691
1.828466 1.760656 0.084216
1.821422 1.752213 0.082491
1.821472 1.751741 0.124114
1.846966 1.744759 0.125473
1.846846 1.745262 0.083998
1.839802 1.736819 0.082273
1.839852 1.736347 0.123896
1.828421 1.760603 0.084169
1.828308 1.761074 0.042626
1.821341 1.752634 0.040910
1.821377 1.752159 0.082444
1.846891 1.745317 0.083962
1.846778 1.745789 0.042419
1.839811 1.737349 0.040703
1.839848 1.736873 0.082237
1.828261 1.761018 0.042584
1.828143 1.761506 0.000634
1.821266 1.753047 -0.000668
1.821294 1.752578 0.040868
1.846825 1.745846 0.042377
1.846707 1.746334 0.000427
1.839830 1.737875 -0.000874
1.839858 1.737406 0.040661
1.926148 1.778512 0.005739
1.880972 1.772141 0.003154
1.881650 1.771990 0.044745
1.927386 1.778680 0.047369
1.929562 1.754781 0.005665
1.884386 1.748409 0.003080
1.885064 1.748258 0.044671
1.930800 1.754948 0.047295
1.927327 1.778671 0.047412
1.881591 1.771981 0.044788
1.882270 1.771833 0.086378
1.928565 1.778839 0.089044
1.930860 1.754957 0.047336
1.885125 1.748267 0.044712
1.885803 1.748119 0.086302
1.932098 1.755125 0.088968
1.928508 1.778830 0.089100
1.882213 1.771824 0.086433
1.882852 1.771630 0.128043
1.929684 1.778940 0.130751
1.932157 1.755134 0.088996
1.885862 1.748128 0.086330
1.886500 1.747933 0.127939
1.933333 1.755244 0.130648
1.929657 1.778932 0.131047
1.882825 1.771621 0.128338
1.882857 1.770610 0.169925
1.929543 1.777782 0.172678
1.933360 1.755251 0.130436
1.886528 1.747941 0.127727
1.886560 1.746930 0.169314
1.933246 1.754102 0.172067
1.929574 1.777786 0.172717
1.882887 1.770614 0.169964
1.882917 1.769623 0.211551
1.929459 1.776637 0.214352
1.933215 1.754096 0.172111
1.886529 1.746924 0.169359
1.886558 1.745933 0.210945
1.933100 1.752947 0.213747
1.929488 1.776640 0.214425
1.882946 1.769625 0.211624
1.883373 1.768574 0.253233
1.929651 1.775434 0.256049
1.933071 1.752942 0.213757
1.886529 1.745928 0.210956
1.886956 1.744877 0.252565
1.933234 1.751737 0.255381
1.929677 1.775436 0.256121
1.883399 1.768576 0.253305
1.884235 1.767475 0.294878
1.930128 1.774175 0.297752
1.933209 1.751733 0.255393
1.886931 1.744873 0.252577
1.887767 1.743771 0.294150
1.933660 1.750472 0.297024
1.930155 1.774178 0.297793
1.884263 1.767477 0.294918
1.885096 1.766382 0.336500
1.930609 1.772915 0.339415
1.933634 1.750466 0.297067
1.887741 1.743766 0.294192
1.888575 1.742671 0.335774
1.934088 1.749204 0.338689
1.930620 1.772908 0.339630
1.885107 1.766376 0.336715
1.885200 1.764531 0.378344
1.930462 1.770977 0.381230
1.934078 1.749207 0.338557
1.888564 1.742675 0.335642
1.888657 1.740830 0.377271
1.933919 1.747276 0.380157
1.930469 1.770970 0.381388
1.885207 1.764524 0.378502
1.884806 1.762207 0.420041
1.929881 1.768566 0.422959
1.933911 1.747278 0.380083
1.888649 1.740833 0.377197
1.888248 1.738515 0.418736
1.933323 1.744874 0.421654
1.929857 1.768532 0.423383
1.884782 1.762173 0.420464
1.883347 1.758301 0.461829
1.928420 1.764730 0.464832
1.933345 1.744901 0.421314
1.888270 1.738542 0.418395
1.886835 1.734670 0.459760
1.931908 1.741099 0.462763
1.928395 1.764716 0.464941
1.883322 1.758287 0.461937
1.881716 1.754147 0.503290
1.926792 1.760653 0.506358
1.931931 1.741105 0.462738
1.886858 1.734676 0.459735
1.885252 1.730536 0.501087
1.930328 1.737042 0.504155
1.880929 1.772134 0.003221
1.835747 1.765793 0.000639
1.835865 1.765305 0.042589
1.881607 1.771983 0.044813
1.884338 1.748402 0.003007
1.839156 1.742062 0.000425
1.839274 1.741573 0.042375
1.885016 1.748252 0.044599
1.881545 1.771974 0.044852
1.835802 1.765295 0.042629
1.835915 1.764824 0.084173
1.882223 1.771826 0.086442
1.885079 1.748261 0.044642
1.839337 1.741582 0.042419
1.839450 1.741111 0.083962
1.885758 1.748113 0.086232
1.882164 1.771816 0.086495
1.835857 1.764815 0.084225
1.835976 1.764312 0.125701
1.882803 1.771622 0.128104
1.885817 1.748121 0.086263
1.839509 1.741120 0.083993
1.839629 1.740617 0.125468
1.886456 1.747927 0.127872
1.882788 1.771616 0.128296
1.835961 1.764306 0.125892
1.836130 1.763482 0.167429
1.882820 1.770605 0.169883
1.886471 1.747931 0.127764
1.839644 1.740621 0.125360
1.839813 1.739797 0.166897
1.886503 1.746920 0.169351
1.882856 1.770610 0.169924
1.836166 1.763487 0.167470
1.836340 1.762648 0.209010
1.882886 1.769619 0.211511
1.886467 1.746913 0.169394
1.839777 1.739790 0.166940
1.839950 1.738951 0.208480
1.886496 1.745922 0.210980
1.882915 1.769622 0.211588
1.836368 1.762650 0.209088
1.837070 1.761758 0.250580
1.883341 1.768571 0.253198
1.886468 1.745918 0.210986
1.839922 1.738947 0.208485
1.840623 1.738054 0.249977
1.886895 1.744867 0.252595
1.883364 1.768572 0.253277
1.837093 1.761759 0.250658
1.838317 1.760793 0.292181
1.884200 1.767470 0.294849
1.886874 1.744864 0.252600
1.840602 1.738051 0.249982
1.841827 1.737085 0.291504
1.887710 1.743762 0.294173
1.884223 1.767473 0.294887
1.838340 1.760795 0.292218
1.839561 1.759848 0.333727
1.885056 1.766377 0.336468
1.887690 1.743758 0.294218
1.841807 1.737081 0.291549
1.843028 1.736133 0.333058
1.888523 1.742663 0.335800
1.885066 1.766371 0.336696
1.839571 1.759841 0.333954
1.839900 1.758103 0.375397
1.885159 1.764526 0.378325
1.888514 1.742667 0.335656
1.843019 1.736137 0.332914
1.843348 1.734399 0.374357
1.888607 1.740822 0.377285
1.885169 1.764520 0.378481
1.839910 1.758097 0.375553
1.839698 1.755879 0.417033
1.884768 1.762202 0.420020
1.888596 1.740824 0.377212
1.843337 1.734401 0.374284
1.843124 1.732183 0.415764
1.888195 1.738506 0.418751
1.884740 1.762165 0.420487
1.839669 1.755841 0.417500
1.838231 1.751869 0.458833
1.883305 1.758293 0.461852
1.888222 1.738538 0.418367
1.843151 1.732214 0.415380
1.841714 1.728242 0.456713
1.886787 1.734666 0.459731
1.883275 1.758278 0.461959
1.838201 1.751854 0.458941
1.836593 1.747627 0.500237
1.881669 1.754138 0.503312
1.886814 1.734672 0.459707
1.841741 1.728248 0.456689
1.840132 1.724021 0.497984
1.885208 1.730532 0.501060
1.931360 1.791306 0.005253
1.918175 1.773688 0.005861
1.919412 1.773855 0.047491
1.931174 1.790684 0.048665
1.950779 1.777247 0.004937
1.937594 1.759629 0.005546
1.938831 1.759796 0.047176
1.950593 1.776625 0.048350
1.930931 1.790333 0.048711
1.919169 1.773505 0.047537
1.920406 1.773673 0.089169
1.930744 1.789719 0.090400
1.950838 1.776975 0.048388
1.939076 1.760146 0.047215
1.940313 1.760314 0.088847
1.950651 1.776361 0.090078
1.930488 1.789320 0.090443
1.920151 1.773274 0.089212
1.921327 1.773384 0.130864
1.930315 1.788687 0.132210
1.950907 1.776759 0.090118
1.940570 1.760713 0.088888
1.941746 1.760823 0.130539
1.950735 1.776126 0.131886
1.930195 1.788486 0.132238
1.921206 1.773183 0.130892
1.921092 1.772034 0.172523
1.930270 1.787528 0.173925
1.950856 1.776325 0.131941
1.941867 1.761022 0.130594
1.941753 1.759873 0.172226
1.950931 1.775368 0.173627
1.930291 1.787564 0.173967
1.921113 1.772069 0.172565
1.920998 1.770920 0.214201
1.930364 1.786609 0.215648
1.950909 1.775330 0.173669
1.941731 1.759836 0.172267
1.941616 1.758687 0.213903
1.950982 1.774375 0.215350
1.930364 1.786606 0.215751
1.920998 1.770917 0.214303
1.921161 1.769712 0.255927
1.930437 1.785353 0.257365
1.950982 1.774376 0.215331
1.941616 1.758688 0.213884
1.941779 1.757482 0.255507
1.951056 1.773124 0.256946
1.930398 1.785282 0.257467
1.921122 1.769641 0.256029
1.921573 1.768380 0.297660
1.930469 1.783717 0.299130
1.951095 1.773192 0.256927
1.941819 1.757550 0.255489
1.942270 1.756289 0.297120
1.951166 1.771627 0.298590
1.930409 1.783612 0.299170
1.921513 1.768274 0.297700
1.921967 1.767012 0.339322
1.930482 1.782043 0.340841
1.951227 1.771729 0.298634
1.942331 1.756392 0.297164
1.942785 1.755129 0.338786
1.951299 1.770160 0.340305
1.930497 1.782067 0.340891
1.921983 1.767036 0.339372
1.921824 1.765105 0.380972
1.930725 1.780255 0.382704
1.951284 1.770132 0.340338
1.942770 1.755101 0.338820
1.942611 1.753169 0.380419
1.951512 1.768320 0.382152
1.930870 1.780498 0.382766
1.921968 1.765347 0.381034
1.921380 1.762943 0.422605
1.931207 1.778521 0.424417
1.951367 1.768074 0.382174
1.942466 1.752923 0.380441
1.941878 1.750519 0.422013
1.951705 1.766097 0.423824
1.931364 1.778770 0.424455
1.921537 1.763192 0.422644
1.920100 1.759390 0.464093
1.930067 1.774547 0.465900
1.951547 1.765842 0.423869
1.941720 1.750263 0.422057
1.940283 1.746461 0.463507
1.950250 1.761618 0.465313
1.930185 1.774725 0.465961
1.920219 1.759568 0.464155
1.918616 1.755505 0.505572
1.928624 1.770145 0.507318
1.950128 1.761431 0.465335
1.940162 1.746274 0.463529
1.938559 1.742211 0.504946
1.948567 1.756851 0.506692
1.936969 1.775336 0.508051
1.964286 1.779612 0.510772
1.964489 1.782594 0.469136
1.938530 1.779916 0.466693
1.940259 1.751678 0.505965
1.967576 1.755954 0.508687
1.967779 1.758937 0.467050
1.941820 1.756259 0.464607
1.939143 1.779993 0.466608
1.965102 1.782671 0.469050
1.965198 1.785545 0.427397
1.940440 1.784216 0.425163
1.941208 1.756189 0.464609
1.967167 1.758868 0.467052
1.967263 1.761742 0.425398
1.942505 1.760413 0.423165
1.940675 1.784262 0.424755
1.965433 1.785591 0.426989
1.965030 1.787977 0.385315
1.940338 1.786239 0.383104
1.942271 1.760373 0.423490
1.967028 1.761702 0.425724
1.966626 1.764088 0.384050
1.941933 1.762349 0.381839
1.940187 1.786234 0.382987
1.964879 1.787972 0.385197
1.964579 1.790015 0.343451
1.939959 1.788046 0.341174
1.942083 1.762359 0.381873
1.966776 1.764097 0.384084
1.966476 1.766140 0.342337
1.941856 1.764171 0.340060
1.939927 1.788050 0.341017
1.964547 1.790019 0.343294
1.964408 1.791519 0.301583
1.939855 1.789619 0.299346
1.941887 1.764170 0.340133
1.966508 1.766140 0.342410
1.966369 1.767640 0.300699
1.941815 1.765740 0.298462
1.939884 1.789623 0.299304
1.964437 1.791523 0.301541
1.964299 1.793029 0.259821
1.939813 1.791188 0.257641
1.941786 1.765739 0.298420
1.966339 1.767639 0.300657
1.966201 1.769145 0.258937
1.941714 1.767304 0.256757
1.939850 1.791195 0.257509
1.964336 1.793036 0.259689
1.964229 1.794223 0.218001
1.939777 1.792448 0.215895
1.941677 1.767299 0.256805
1.966163 1.769140 0.258985
1.966056 1.770327 0.217297
1.941604 1.768552 0.215191
1.939820 1.792454 0.215765
1.964272 1.794230 0.217871
1.964198 1.795104 0.176132
1.939747 1.793409 0.174083
1.941561 1.768547 0.215237
1.966013 1.770323 0.217343
1.965939 1.771197 0.175605
1.941487 1.769502 0.173556
1.939788 1.793413 0.174041
1.964240 1.795107 0.176090
1.964166 1.795975 0.134354
1.939714 1.794371 0.132354
1.941445 1.769500 0.173515
1.965897 1.771195 0.175564
1.965822 1.772063 0.133828
1.941371 1.770458 0.131828
1.939813 1.794380 0.132188
1.964265 1.795985 0.134188
1.964080 1.796320 0.092408
1.939986 1.795013 0.090421
1.941271 1.770450 0.131911
1.965723 1.772055 0.133910
1.965538 1.772390 0.092130
1.941444 1.771083 0.090143
1.940125 1.795021 0.090373
1.964219 1.796329 0.092360
1.964029 1.796639 0.050616
1.940312 1.795636 0.048684
1.941304 1.771076 0.090108
1.965398 1.772383 0.092094
1.965208 1.772693 0.050350
1.941491 1.771690 0.048419
1.940462 1.795643 0.048635
1.964179 1.796646 0.050567
1.963982 1.796992 0.003089
1.940648 1.796265 0.005223
1.941342 1.771684 0.048380
1.965059 1.772687 0.050312
1.964862 1.773033 0.002834
1.941528 1.772306 0.004968
1.978444 1.755282 0.614318
1.979352 1.768086 0.563311
1.972613 1.772186 0.564974
1.972202 1.757977 0.615696
1.966622 1.735160 0.608821
1.967531 1.747964 0.557814
1.960792 1.752064 0.559477
1.960380 1.737855 0.610200
1.979780 1.768160 0.561519
1.980126 1.773209 0.509124
1.972286 1.777904 0.510786
1.973041 1.772260 0.563183
1.967104 1.747909 0.559502
1.967450 1.752958 0.507107
1.959610 1.757653 0.508768
1.960364 1.752009 0.561166
1.977562 1.752939 0.619259
1.971320 1.755634 0.620638
1.974266 1.731367 0.643211
1.967503 1.737474 0.603946
1.961261 1.740169 0.605325
1.964207 1.715901 0.627898
1.971988 1.778105 0.510559
1.979828 1.773410 0.508897
1.980669 1.776473 0.467602
1.972191 1.781087 0.468922
1.959908 1.757460 0.508902
1.967748 1.752766 0.507240
1.968589 1.755829 0.465945
1.960112 1.760443 0.467265
1.971873 1.781275 0.468814
1.980350 1.776661 0.467494
1.980674 1.779573 0.426200
1.971968 1.784149 0.427160
1.960431 1.760261 0.467290
1.968908 1.755647 0.465970
1.969232 1.758559 0.424676
1.960526 1.763135 0.425636
1.972161 1.784062 0.426815
1.980867 1.779486 0.425855
1.979307 1.781866 0.384537
1.971758 1.786449 0.385141
1.960333 1.763227 0.425898
1.969039 1.758651 0.424938
1.967479 1.761031 0.383620
1.959930 1.765613 0.384224
1.972266 1.786148 0.385045
1.979815 1.781565 0.384441
1.978971 1.783563 0.343140
1.971966 1.788191 0.343299
1.959421 1.765919 0.384237
1.966970 1.761336 0.383633
1.966127 1.763334 0.342332
1.959121 1.767962 0.342491
1.972070 1.788127 0.343213
1.979076 1.783499 0.343054
1.979203 1.784982 0.301666
1.971931 1.789627 0.301502
1.959017 1.768029 0.342494
1.966022 1.763401 0.342335
1.966150 1.764884 0.300946
1.958877 1.769529 0.300782
1.971770 1.789731 0.301465
1.979043 1.785086 0.301629
1.979170 1.786571 0.260247
1.971632 1.791237 0.259745
1.959038 1.769428 0.300736
1.966310 1.764783 0.300900
1.966437 1.766268 0.259518
1.958900 1.770934 0.259016
1.971467 1.791342 0.259638
1.979005 1.786676 0.260140
1.978998 1.787978 0.218787
1.971360 1.792529 0.217949
1.959064 1.770832 0.259040
1.966602 1.766166 0.259542
1.966595 1.767469 0.218189
1.958957 1.772019 0.217351
1.971169 1.792645 0.217841
1.978806 1.788095 0.218679
1.978656 1.789215 0.177282
1.971095 1.793519 0.176102
1.959148 1.771905 0.217376
1.966786 1.767355 0.218214
1.966636 1.768475 0.176817
1.959074 1.772779 0.175637
1.970872 1.793645 0.176063
1.978434 1.789341 0.177243
1.978285 1.790459 0.135844
1.970798 1.794514 0.134328
1.959297 1.772654 0.175593
1.966858 1.768350 0.176773
1.966709 1.769468 0.135373
1.959222 1.773522 0.133857
1.970661 1.794591 0.134121
1.978148 1.790536 0.135638
1.977694 1.791098 0.094244
1.970476 1.794926 0.092341
1.959358 1.773446 0.133980
1.966845 1.769392 0.135496
1.966391 1.769953 0.094103
1.959173 1.773782 0.092200
1.970383 1.794976 0.092293
1.977600 1.791147 0.094196
1.977131 1.791682 0.052787
1.970193 1.795286 0.050549
1.959266 1.773733 0.092165
1.966484 1.769904 0.094068
1.966015 1.770439 0.052659
1.959076 1.774043 0.050421
1.970100 1.795334 0.050502
1.977039 1.791730 0.052741
1.976554 1.792323 0.000608
1.969903 1.795680 0.003025
1.959168 1.773996 0.050376
1.966107 1.770392 0.052614
1.965622 1.770985 0.000482
1.958971 1.774342 0.002899
1.970992 1.793639 0.000679
1.971477 1.793046 0.052811
2.020319 1.793580 0.051949
2.020222 1.794111 0.002338
1.971240 1.769666 0.000412
1.971725 1.769073 0.052544
2.020567 1.769606 0.051682
2.020470 1.770138 0.002072
1.971466 1.793045 0.052872
1.971935 1.792511 0.094281
2.020396 1.793083 0.094347
2.020308 1.793579 0.052010
1.971736 1.769073 0.052576
1.972205 1.768538 0.093985
2.020666 1.769110 0.094051
2.020578 1.769606 0.051714
1.971922 1.792510 0.094331
1.972376 1.791948 0.135724
2.020484 1.792558 0.136712
2.020383 1.793082 0.094397
1.972219 1.768538 0.094019
1.972673 1.767976 0.135412
2.020781 1.768586 0.136399
2.020679 1.769110 0.094085
1.972375 1.791944 0.135944
1.972524 1.790826 0.177343
2.020956 1.791360 0.178752
2.020483 1.792553 0.136932
1.972675 1.767979 0.135276
1.972824 1.766861 0.176676
2.021257 1.767395 0.178084
2.020783 1.768589 0.136264
1.972541 1.790825 0.177386
1.972691 1.789705 0.218782
2.021446 1.790162 0.220632
2.020974 1.791359 0.178794
1.972807 1.766860 0.176717
1.972957 1.765740 0.218113
2.021713 1.766197 0.219963
2.021240 1.767394 0.178125
1.972706 1.789703 0.218877
1.972713 1.788400 0.260229
2.021338 1.788772 0.262528
2.021461 1.790159 0.220726
1.972943 1.765740 0.218102
1.972950 1.764438 0.259455
2.021575 1.764810 0.261753
2.021698 1.766197 0.219952
1.972728 1.788397 0.260324
1.972601 1.786912 0.301706
2.020612 1.787183 0.304557
2.021353 1.788769 0.262623
1.972935 1.764438 0.259443
1.972808 1.762953 0.300825
2.020819 1.763224 0.303676
2.021560 1.764810 0.261742
1.972621 1.786910 0.301749
1.972493 1.785427 0.343137
2.019891 1.785590 0.346525
2.020632 1.787181 0.304600
1.972787 1.762951 0.300866
1.972659 1.761468 0.342255
2.020058 1.761631 0.345642
2.020798 1.763222 0.303717
1.972501 1.785419 0.343328
1.973345 1.783421 0.384628
2.019905 1.783501 0.388310
2.019899 1.785582 0.346715
1.972651 1.761473 0.342148
1.973495 1.759475 0.383448
2.020055 1.759554 0.387130
2.020050 1.761635 0.345535
1.973356 1.783413 0.384784
1.974915 1.781034 0.426102
2.020515 1.781028 0.429672
2.019915 1.783492 0.388465
1.973486 1.759479 0.383376
1.975045 1.757099 0.424694
2.020645 1.757094 0.428264
2.020045 1.759558 0.387057
1.974928 1.781021 0.426297
1.974604 1.778109 0.467591
2.019430 1.778001 0.471074
2.020528 1.781015 0.429867
1.975032 1.757107 0.424581
1.974708 1.754195 0.465875
2.019534 1.754086 0.469358
2.020632 1.757101 0.428151
1.974629 1.778103 0.467678
1.973788 1.775039 0.508972
2.017837 1.774812 0.512473
2.019455 1.777995 0.471161
1.974681 1.754195 0.465872
1.973840 1.751132 0.507166
2.017888 1.750904 0.510667
2.019507 1.754087 0.469355
2.020279 1.794112 0.002329
2.020375 1.793580 0.051940
2.069229 1.794085 0.051090
2.069516 1.794552 0.003990
2.020512 1.770138 0.002082
2.020609 1.769607 0.051692
2.069462 1.770112 0.050843
2.069749 1.770579 0.003743
2.020363 1.793579 0.051994
2.020451 1.793084 0.094331
2.068921 1.793630 0.094420
2.069217 1.794085 0.051145
2.020620 1.769606 0.051729
2.020708 1.769111 0.094066
2.069178 1.769657 0.094155
2.069474 1.770111 0.050880
2.020437 1.793083 0.094383
2.020539 1.792559 0.136697
2.068652 1.793145 0.137730
2.068907 1.793630 0.094472
2.020722 1.769110 0.094100
2.020823 1.768586 0.136415
2.068937 1.769172 0.137448
2.069192 1.769657 0.094189
2.020536 1.792553 0.136952
2.021010 1.791360 0.178772
2.069441 1.791870 0.180237
2.068649 1.793140 0.137985
2.020827 1.768590 0.136246
2.021300 1.767396 0.178066
2.069731 1.767907 0.179530
2.068940 1.769176 0.137278
2.021026 1.791359 0.178814
2.021499 1.790162 0.220652
2.070251 1.790601 0.222555
2.069457 1.791869 0.180279
2.021285 1.767395 0.178108
2.021758 1.766198 0.219946
2.070510 1.766637 0.221849
2.069716 1.767905 0.179573
2.021512 1.790159 0.220747
2.021389 1.788772 0.262548
2.070041 1.789137 0.264888
2.070264 1.790598 0.222650
2.021745 1.766198 0.219936
2.021622 1.764811 0.261737
2.070274 1.765175 0.264077
2.070497 1.766637 0.221839
2.021402 1.788769 0.262647
2.020661 1.787182 0.304581
2.068700 1.787445 0.307468
2.070054 1.789133 0.264987
2.021608 1.764812 0.261723
2.020866 1.763225 0.303657
2.068905 1.763488 0.306544
2.070259 1.765176 0.264063
2.020678 1.787181 0.304625
2.019938 1.785589 0.346550
2.067360 1.785755 0.349995
2.068717 1.787443 0.307512
2.020847 1.763223 0.303698
2.020107 1.761632 0.345623
2.067529 1.761798 0.349068
2.068886 1.763486 0.306585
2.019943 1.785581 0.346736
2.019948 1.783500 0.388331
2.066544 1.783589 0.391977
2.067365 1.785747 0.350181
2.020100 1.761636 0.345521
2.020105 1.759555 0.387116
2.066700 1.759644 0.390761
2.067522 1.761803 0.348965
2.019958 1.783491 0.388494
2.020557 1.781027 0.429700
2.066187 1.781031 0.433253
2.066553 1.783580 0.392139
2.020096 1.759560 0.387036
2.020695 1.757095 0.428242
2.066325 1.757100 0.431795
2.066691 1.759648 0.390681
2.020568 1.781013 0.429900
2.019470 1.777999 0.471107
2.064313 1.777906 0.474572
2.066198 1.781018 0.433453
2.020682 1.757103 0.428125
2.019584 1.754089 0.469332
2.064428 1.753996 0.472797
2.066313 1.757108 0.431678
2.019493 1.777992 0.471198
2.017875 1.774810 0.512510
2.061933 1.774592 0.516017
2.064337 1.777899 0.474662
2.019557 1.754089 0.469325
2.017939 1.750907 0.510637
2.061997 1.750690 0.514144
2.064401 1.753996 0.472789
2.069874 1.794551 0.003984
2.069587 1.794084 0.051085
2.118300 1.793320 0.050395
2.119117 1.793727 0.006355
2.069489 1.770579 0.003749
2.069202 1.770112 0.050850
2.117915 1.769348 0.050160
2.118733 1.769755 0.006120
2.069578 1.794084 0.051133
2.069283 1.793630 0.094408
2.117466 1.792910 0.094487
2.118291 1.793319 0.050443
2.069209 1.770112 0.050891
2.068914 1.769658 0.094166
2.117097 1.768938 0.094245
2.117923 1.769347 0.050201
2.069271 1.793629 0.094460
2.069016 1.793145 0.137719
2.116660 1.792468 0.138597
2.117454 1.792909 0.094539
2.068924 1.769657 0.094202
2.068669 1.769173 0.137460
2.116313 1.768496 0.138338
2.117107 1.768937 0.094281
2.069008 1.793139 0.137991
2.069799 1.791870 0.180243
2.117195 1.791170 0.181659
2.116651 1.792462 0.138869
2.068678 1.769176 0.137274
2.069469 1.767907 0.179527
2.116865 1.767207 0.180942
2.116321 1.768499 0.138152
2.069803 1.791869 0.180286
2.070596 1.790600 0.222562
2.117729 1.789875 0.224540
2.117199 1.791168 0.181701
2.069467 1.767906 0.179569
2.070261 1.766637 0.221846
2.117393 1.765912 0.223824
2.116863 1.767205 0.180985
2.070596 1.790597 0.222662
2.070372 1.789135 0.264901
2.117233 1.788399 0.267170
2.117729 1.789872 0.224641
2.070261 1.766638 0.221830
2.070038 1.765176 0.264069
2.116898 1.764440 0.266338
2.117394 1.765912 0.223809
2.070370 1.789131 0.265010
2.069016 1.787443 0.307491
2.115510 1.786699 0.309853
2.117230 1.788395 0.267280
2.070038 1.765177 0.264045
2.068684 1.763489 0.306526
2.115178 1.762744 0.308888
2.116898 1.764441 0.266314
2.069018 1.787441 0.307535
2.067661 1.785753 0.350018
2.113789 1.784993 0.352458
2.115512 1.786697 0.309897
2.068679 1.763487 0.306567
2.067322 1.761799 0.349050
2.113450 1.761039 0.351491
2.115173 1.762743 0.308929
2.067654 1.785745 0.350197
2.066832 1.783587 0.391992
2.112344 1.782837 0.394530
2.113781 1.784985 0.352637
2.067326 1.761804 0.348956
2.066505 1.759645 0.390751
2.112016 1.758896 0.393289
2.113454 1.761043 0.351396
2.066824 1.783578 0.392158
2.066459 1.781029 0.433272
2.111153 1.780275 0.435878
2.112336 1.782828 0.394696
2.066510 1.759650 0.390669
2.066145 1.757101 0.431783
2.110839 1.756347 0.434389
2.112022 1.758900 0.393207
2.066453 1.781014 0.433485
2.064568 1.777902 0.474604
2.108876 1.777087 0.477624
2.111148 1.780260 0.436091
2.066148 1.757110 0.431652
2.064263 1.753999 0.472771
2.108570 1.753183 0.475791
2.110842 1.756356 0.434258
2.064575 1.777894 0.474703
2.062171 1.774588 0.516058
2.106210 1.773659 0.519719
2.108883 1.777079 0.477723
2.064251 1.754000 0.472755
2.061847 1.750693 0.514110
2.105885 1.749764 0.517770
2.108558 1.753184 0.475775
2.119422 1.793719 0.006352
2.118605 1.793311 0.050392
2.167177 1.791517 0.049829
2.168636 1.791873 0.005164
2.118526 1.769761 0.006123
2.117708 1.769353 0.050163
2.166280 1.767559 0.049600
2.167740 1.767915 0.004935
2.118596 1.793311 0.050438
2.117770 1.792902 0.094482
2.165682 1.791153 0.094557
2.167168 1.791517 0.049875
2.117715 1.769353 0.050206
2.116889 1.768943 0.094250
2.164802 1.767195 0.094326
2.166287 1.767558 0.049643
2.117761 1.792902 0.094533
2.116966 1.792460 0.138591
2.164201 1.790767 0.139336
2.165673 1.791153 0.094609
2.116896 1.768943 0.094288
2.116102 1.768501 0.138345
2.163336 1.766808 0.139090
2.164809 1.767194 0.094363
2.116956 1.792455 0.138866
2.117499 1.791162 0.181657
2.164032 1.789488 0.183033
2.164190 1.790762 0.139611
2.116112 1.768504 0.138157
2.116655 1.767212 0.180947
2.163188 1.765537 0.182324
2.163346 1.766811 0.138902
2.117496 1.791161 0.181699
2.118026 1.789868 0.224538
2.163844 1.788214 0.226562
2.164029 1.789487 0.183076
2.116659 1.767210 0.180991
2.117189 1.765917 0.223830
2.163007 1.764263 0.225853
2.163192 1.765536 0.182368
2.118017 1.789865 0.224641
2.117521 1.788392 0.267171
2.162901 1.786784 0.269409
2.163835 1.788211 0.226664
2.117199 1.765917 0.223813
2.116703 1.764445 0.266343
2.162084 1.762836 0.268581
2.163017 1.764263 0.225836
2.117506 1.788389 0.267287
2.115785 1.786692 0.309860
2.161012 1.785139 0.311815
2.162886 1.786780 0.269525
2.116715 1.764446 0.266311
2.114995 1.762749 0.308885
2.160221 1.761196 0.310839
2.162096 1.762837 0.268550
2.115772 1.786690 0.309903
2.114049 1.784986 0.352465
2.159111 1.783498 0.354141
2.160998 1.785137 0.311858
2.115005 1.762747 0.308927
2.113281 1.761043 0.351488
2.158343 1.759554 0.353165
2.160231 1.761194 0.310881
2.114028 1.784979 0.352636
2.112590 1.782832 0.394529
2.157223 1.781417 0.396183
2.159090 1.783491 0.354312
2.113299 1.761046 0.351401
2.111861 1.758899 0.393294
2.156494 1.757483 0.394948
2.158361 1.759558 0.353077
2.112566 1.782823 0.394695
2.111384 1.780270 0.435877
2.155329 1.778929 0.437750
2.157199 1.781408 0.396348
2.111881 1.758903 0.393212
2.110698 1.756350 0.434394
2.154643 1.755008 0.436268
2.156514 1.757488 0.394866
2.111361 1.780255 0.436105
2.109089 1.777082 0.477638
2.152967 1.775702 0.480291
2.155306 1.778913 0.437978
2.110717 1.756359 0.434250
2.108445 1.753186 0.475783
2.152323 1.751807 0.478435
2.154662 1.755018 0.436123
2.109079 1.777073 0.477744
2.106406 1.773653 0.519740
2.150418 1.772182 0.523525
2.152957 1.775694 0.480397
2.108450 1.753188 0.475760
2.105777 1.749767 0.517756
2.149789 1.748296 0.521541
2.152328 1.751808 0.478413
2.168687 1.791871 0.005156
2.167228 1.791515 0.049821
2.215796 1.789705 0.049258
2.217899 1.790019 0.003965
2.167786 1.767913 0.004941
2.166327 1.767557 0.049607
2.214894 1.765747 0.049043
2.216998 1.766061 0.003751
2.167219 1.791515 0.049866
2.165734 1.791152 0.094549
2.213649 1.789395 0.094617
2.215787 1.789705 0.049303
2.166332 1.767556 0.049651
2.164847 1.767193 0.094334
2.212762 1.765436 0.094402
2.214900 1.765746 0.049088
2.165723 1.791151 0.094599
2.164251 1.790765 0.139326
2.211488 1.789062 0.140066
2.213639 1.789394 0.094668
2.164854 1.767192 0.094374
2.163382 1.766806 0.139100
2.210618 1.765103 0.139840
2.212769 1.765435 0.094442
2.164239 1.790760 0.139609
2.164081 1.789486 0.183030
2.210628 1.787806 0.184388
2.211476 1.789057 0.140348
2.163391 1.766810 0.138907
2.163233 1.765535 0.182329
2.209780 1.763855 0.183687
2.210628 1.765106 0.139646
2.164077 1.789485 0.183074
2.163893 1.788212 0.226560
2.209728 1.786549 0.228563
2.210624 1.787805 0.184432
2.163236 1.765534 0.182373
2.163052 1.764262 0.225858
2.208887 1.762598 0.227862
2.209783 1.763854 0.183730
2.163884 1.788210 0.226657
2.162951 1.786783 0.269401
2.208338 1.785161 0.271645
2.209719 1.786547 0.228660
2.163059 1.764262 0.225849
2.162126 1.762834 0.268593
2.207514 1.761213 0.270837
2.208894 1.762598 0.227852
2.162935 1.786779 0.269516
2.161060 1.785137 0.311805
2.206289 1.783577 0.313774
2.208323 1.785157 0.271760
2.162138 1.762835 0.268564
2.160264 1.761194 0.310853
2.205493 1.759633 0.312822
2.207526 1.761214 0.270808
2.161047 1.785136 0.311847
2.159159 1.783497 0.354131
2.204229 1.781992 0.355812
2.206276 1.783576 0.313816
2.160273 1.761192 0.310895
2.158385 1.759552 0.353179
2.203454 1.758047 0.354860
2.205502 1.759631 0.312864
2.159137 1.783490 0.354295
2.157270 1.781416 0.396166
2.201925 1.779999 0.397818
2.204207 1.781985 0.355976
2.158403 1.759555 0.353098
2.156536 1.757481 0.394968
2.201191 1.756064 0.396621
2.203472 1.758050 0.354779
2.157246 1.781407 0.396332
2.155375 1.778928 0.437734
2.199345 1.777576 0.439597
2.201901 1.779991 0.397985
2.156556 1.757485 0.394885
2.154685 1.755006 0.436287
2.198655 1.753654 0.438150
2.201211 1.756068 0.396538
2.155351 1.778913 0.437972
2.153012 1.775701 0.480285
2.196889 1.774329 0.482930
2.199321 1.777561 0.439835
2.154705 1.755016 0.436134
2.152366 1.751805 0.478446
2.196243 1.750432 0.481091
2.198675 1.753664 0.437996
2.153007 1.775692 0.480407
2.150468 1.772180 0.523535
2.194477 1.770658 0.527302
2.196884 1.774319 0.483052
2.152366 1.751808 0.478410
2.149827 1.748295 0.521537
2.193837 1.746774 0.525305
2.196243 1.750435 0.481055
2.218232 1.790003 0.003979
2.216128 1.789688 0.049272
2.265105 1.786666 0.049105
2.267385 1.787005 0.003718
2.216763 1.766073 0.003736
2.214660 1.765758 0.049028
2.263636 1.762736 0.048862
2.265916 1.763076 0.003475
2.216136 1.789687 0.049318
2.213999 1.789377 0.094632
2.262840 1.786319 0.094537
2.265112 1.786665 0.049151
2.214648 1.765759 0.049073
2.212511 1.765449 0.094387
2.261352 1.762391 0.094292
2.263624 1.762736 0.048906
2.214005 1.789376 0.094682
2.211854 1.789044 0.140080
2.260593 1.785964 0.140069
2.262847 1.786318 0.094587
2.212500 1.765449 0.094428
2.210349 1.765116 0.139826
2.259087 1.762036 0.139815
2.261341 1.762391 0.094333
2.211850 1.789039 0.140346
2.211002 1.787787 0.184386
2.258956 1.784775 0.185333
2.260588 1.785959 0.140335
2.210350 1.765120 0.139650
2.209501 1.763869 0.183690
2.257456 1.760856 0.184637
2.259088 1.762040 0.139639
2.210988 1.787787 0.184430
2.210092 1.786532 0.228562
2.257295 1.783592 0.230483
2.258942 1.784775 0.185377
2.209513 1.763867 0.183735
2.208617 1.762611 0.227866
2.255820 1.759672 0.229787
2.257467 1.760854 0.184682
2.210078 1.786529 0.228663
2.208697 1.785144 0.271649
2.255244 1.782247 0.274235
2.257281 1.783590 0.230584
2.208628 1.762611 0.227853
2.207247 1.761226 0.270838
2.253794 1.758329 0.273424
2.255831 1.759672 0.229774
2.208694 1.785139 0.271779
2.206661 1.783559 0.313793
2.252611 1.780638 0.316555
2.255241 1.782243 0.274364
2.207247 1.761227 0.270794
2.205213 1.759647 0.312808
2.251164 1.756726 0.315570
2.253793 1.758331 0.273380
2.206671 1.783557 0.313835
2.204623 1.781973 0.355831
2.249977 1.779036 0.358796
2.252621 1.780635 0.316598
2.205199 1.759646 0.312850
2.203151 1.758062 0.354845
2.248505 1.755126 0.357810
2.251149 1.756725 0.315612
2.204621 1.781965 0.355991
2.202340 1.779979 0.397833
2.247066 1.777049 0.400951
2.249975 1.779029 0.358956
2.203147 1.758066 0.354769
2.200866 1.756080 0.396611
2.245592 1.753150 0.399729
2.248501 1.755130 0.357734
2.202332 1.779970 0.398003
2.199777 1.777556 0.439615
2.243853 1.774651 0.442823
2.247059 1.777040 0.401121
2.200868 1.756085 0.396525
2.198313 1.753670 0.438137
2.242389 1.750765 0.441345
2.245594 1.753154 0.399642
2.199758 1.777540 0.439851
2.197326 1.774309 0.482945
2.241232 1.771428 0.486206
2.243834 1.774635 0.443059
2.198326 1.753680 0.437986
2.195894 1.750448 0.481080
2.239800 1.747567 0.484341
2.242402 1.750775 0.441194
2.197305 1.774300 0.483072
2.194898 1.770638 0.527321
2.238881 1.767813 0.530708
2.241211 1.771419 0.486332
2.195910 1.750451 0.481042
2.193503 1.746789 0.525291
2.237486 1.743964 0.528678
2.239816 1.747570 0.484302
2.267519 1.786997 0.003730
2.265239 1.786657 0.049117
2.314531 1.783268 0.049069
2.316668 1.783641 0.003771
2.265880 1.763078 0.003463
2.263600 1.762738 0.048849
2.312892 1.759349 0.048801
2.315029 1.759722 0.003504
2.265241 1.786656 0.049162
2.262969 1.786311 0.094548
2.312407 1.782901 0.094408
2.314533 1.783267 0.049114
2.263594 1.762738 0.048895
2.261322 1.762393 0.094280
2.310759 1.758983 0.094141
2.312886 1.759349 0.048846
2.262970 1.786310 0.094596
2.260716 1.785955 0.140078
2.310277 1.782523 0.139886
2.312408 1.782900 0.094456
2.261316 1.762393 0.094324
2.259062 1.762038 0.139806
2.308623 1.758606 0.139613
2.310754 1.758983 0.094184
2.260704 1.785952 0.140318
2.259072 1.784768 0.185316
2.307884 1.781459 0.186166
2.310265 1.782519 0.140126
2.259070 1.762040 0.139657
2.257438 1.760857 0.184654
2.306250 1.757548 0.185505
2.308631 1.758608 0.139464
2.259046 1.784769 0.185361
2.257399 1.783586 0.230466
2.305460 1.780391 0.232368
2.307858 1.781459 0.186211
2.257459 1.760854 0.184701
2.255812 1.759672 0.229806
2.303873 1.756477 0.231708
2.306271 1.757545 0.185551
2.257375 1.783584 0.230577
2.255338 1.782242 0.274227
2.302702 1.779127 0.276883
2.305436 1.780389 0.232479
2.255831 1.759671 0.229786
2.253795 1.758328 0.273436
2.301159 1.755213 0.276092
2.303892 1.756476 0.231688
2.255325 1.782237 0.274381
2.252695 1.780632 0.316571
2.299370 1.777523 0.319459
2.302689 1.779122 0.277037
2.253802 1.758330 0.273369
2.251173 1.756725 0.315559
2.297848 1.753617 0.318447
2.301167 1.755215 0.276025
2.252700 1.780629 0.316614
2.250056 1.779031 0.358813
2.296049 1.775917 0.361922
2.299376 1.777521 0.319502
2.251161 1.756724 0.315601
2.248517 1.755126 0.357799
2.294510 1.752012 0.360909
2.297836 1.753616 0.318489
2.250048 1.779024 0.358962
2.247139 1.777044 0.400956
2.292414 1.773988 0.404209
2.296041 1.775911 0.362071
2.248519 1.755129 0.357735
2.245610 1.753149 0.399729
2.290884 1.750093 0.402982
2.294511 1.752015 0.360844
2.247122 1.777036 0.401124
2.243916 1.774646 0.442827
2.288413 1.771656 0.446100
2.292396 1.773980 0.404377
2.245621 1.753153 0.399645
2.242415 1.750763 0.441348
2.286912 1.747772 0.444621
2.290895 1.750097 0.402898
2.243887 1.774633 0.443050
2.241285 1.771425 0.486197
2.285416 1.768531 0.489484
2.288384 1.771642 0.446323
2.242438 1.750771 0.441210
2.239836 1.747564 0.484356
2.283968 1.744669 0.487644
2.286935 1.747781 0.444483
2.241258 1.771417 0.486318
2.238928 1.767812 0.530694
2.282905 1.764977 0.534074
2.285390 1.768522 0.489606
2.239858 1.747565 0.484322
2.237527 1.743960 0.528698
2.281505 1.741125 0.532078
2.283990 1.744671 0.487610
2.316828 1.783629 0.003778
2.314691 1.783256 0.049075
2.364008 1.779424 0.049071
2.365948 1.779797 0.003803
2.314967 1.759727 0.003497
2.312831 1.759354 0.048795
2.362148 1.755522 0.048790
2.364087 1.755895 0.003522
2.314687 1.783256 0.049120
2.312560 1.782890 0.094414
2.362066 1.779050 0.094385
2.364004 1.779424 0.049115
2.312831 1.759353 0.048841
2.310705 1.758987 0.094135
2.360210 1.755147 0.094106
2.362148 1.755522 0.048836
2.312555 1.782890 0.094460
2.310424 1.782512 0.139889
2.360119 1.778680 0.139856
2.362060 1.779049 0.094431
2.310706 1.758987 0.094180
2.308575 1.758609 0.139610
2.358270 1.754777 0.139577
2.360211 1.755146 0.094151
2.310414 1.782509 0.140113
2.308033 1.781448 0.186153
2.356923 1.777698 0.186912
2.360109 1.778676 0.140079
2.308580 1.758612 0.139478
2.306199 1.757551 0.185519
2.355090 1.753801 0.186278
2.358276 1.754779 0.139445
2.308018 1.781448 0.186199
2.305620 1.780380 0.232356
2.353710 1.776722 0.233909
2.356909 1.777698 0.186958
2.306208 1.757549 0.185566
2.303810 1.756481 0.231723
2.351900 1.752823 0.233275
2.355099 1.753799 0.186325
2.305604 1.780378 0.232476
2.302871 1.779115 0.276880
2.350436 1.775503 0.279208
2.353694 1.776720 0.234028
2.303820 1.756481 0.231695
2.301086 1.755218 0.276099
2.348651 1.751606 0.278427
2.351910 1.752823 0.233247
2.302864 1.779108 0.277062
2.299545 1.777510 0.319484
2.347019 1.773819 0.322340
2.350429 1.775496 0.279390
2.301086 1.755222 0.276005
2.297767 1.753623 0.318428
2.345241 1.749932 0.321283
2.348651 1.751610 0.278333
2.299555 1.777507 0.319527
2.296229 1.775904 0.361947
2.343626 1.772149 0.365344
2.347029 1.773816 0.322383
2.297751 1.753623 0.318470
2.294424 1.752019 0.360890
2.341821 1.748264 0.364287
2.345224 1.749932 0.321326
2.296226 1.775897 0.362087
2.292599 1.773975 0.404225
2.339559 1.770201 0.408166
2.343624 1.772142 0.365484
2.294419 1.752022 0.360835
2.290792 1.750100 0.402973
2.337751 1.746326 0.406915
2.341816 1.748267 0.364232
2.292587 1.773966 0.404391
2.288604 1.771642 0.446115
2.334587 1.767906 0.450600
2.339547 1.770192 0.408333
2.290796 1.750104 0.402891
2.286813 1.747780 0.444614
2.332795 1.744044 0.449099
2.337755 1.746330 0.406832
2.288587 1.771628 0.446331
2.285619 1.768516 0.489492
2.330549 1.764818 0.494104
2.334569 1.767892 0.450816
2.286822 1.747788 0.444483
2.283855 1.744677 0.487644
2.328785 1.740979 0.492256
2.332804 1.744052 0.448968
2.285618 1.768506 0.489619
2.283133 1.764960 0.534087
2.326929 1.761290 0.538715
2.330548 1.764808 0.494230
2.283849 1.744680 0.487605
2.281365 1.741135 0.532074
2.325160 1.737465 0.536702
2.328779 1.740983 0.492217
2.366270 1.779768 0.003809
2.364331 1.779396 0.049077
2.413755 1.774421 0.049066
