3.715135 0.471742 0.222989
3.711906 0.491576 0.241947
3.677769 0.489863 0.239098
3.680970 0.467824 0.221427
3.714911 0.498031 0.192896
3.711682 0.517866 0.211854
3.677545 0.516153 0.209005
3.680746 0.494114 0.191334
3.682064 0.468291 0.221775
3.678862 0.490331 0.239446
3.645318 0.485819 0.239162
3.647629 0.464308 0.220540
3.679585 0.493639 0.190983
3.676383 0.515678 0.208654
3.642839 0.511166 0.208369
3.645150 0.489656 0.189748
3.647407 0.462948 0.219329
3.645096 0.484459 0.237951
3.611599 0.479352 0.238206
3.612853 0.460432 0.216579
3.645304 0.491008 0.190956
3.642993 0.512518 0.209578
3.609496 0.507412 0.209833
3.610751 0.488491 0.188206
3.712572 0.491299 0.241680
3.708584 0.513314 0.258845
3.675851 0.508527 0.259312
3.678434 0.489586 0.238831
3.711010 0.518184 0.212158
3.707023 0.540199 0.229323
3.674290 0.535412 0.229790
3.676873 0.516471 0.209309
3.679401 0.488567 0.237744
3.676817 0.507508 0.258225
3.643864 0.503418 0.258071
3.645856 0.484055 0.237460
3.675840 0.517483 0.210394
3.673257 0.536424 0.230875
3.640304 0.532333 0.230721
3.642296 0.512971 0.210110
3.645891 0.484433 0.237844
3.643899 0.503795 0.258455
3.610915 0.500028 0.258055
3.612394 0.479326 0.238099
3.642195 0.512584 0.209726
3.640202 0.531947 0.230337
3.607218 0.528179 0.229937
3.608697 0.507478 0.209980
3.709892 0.512329 0.257745
3.706716 0.530676 0.278180
3.674439 0.526761 0.278463
3.677159 0.507542 0.258212
3.705709 0.541224 0.230461
3.702533 0.559570 0.250896
3.670256 0.555655 0.251179
3.672976 0.536437 0.230928
3.676575 0.507771 0.258526
3.673855 0.526989 0.278777
3.641550 0.523609 0.278525
3.643622 0.503680 0.258372
3.673494 0.536200 0.230615
3.670775 0.555419 0.250866
3.638470 0.552039 0.250613
3.640541 0.532110 0.230461
3.643508 0.503783 0.258488
3.641437 0.523712 0.278641
3.609112 0.520197 0.278513
3.610524 0.500015 0.258088
3.640589 0.532000 0.230344
3.638518 0.551929 0.250497
3.606193 0.548415 0.250370
3.607605 0.528232 0.229944
3.706568 0.531283 0.278818
3.703038 0.550950 0.298097
3.671552 0.547055 0.298925
3.674291 0.527368 0.279101
3.702676 0.559001 0.250298
3.699146 0.578668 0.269578
3.667660 0.574773 0.270405
3.670399 0.555086 0.250581
3.673803 0.527090 0.278885
3.671065 0.546777 0.298709
3.639419 0.543432 0.298980
3.641498 0.523710 0.278633
3.670822 0.555357 0.250798
3.668084 0.575044 0.270621
3.636438 0.571698 0.270893
3.638517 0.551977 0.250545
3.641410 0.523647 0.278578
3.639331 0.543368 0.298925
3.607701 0.540295 0.298926
3.609085 0.520132 0.278451
3.638541 0.552034 0.250600
3.636463 0.571755 0.270948
3.604832 0.568682 0.270948
3.606216 0.548520 0.250473
3.703232 0.551289 0.298392
3.699736 0.571274 0.317338
3.668881 0.567528 0.318583
3.671746 0.547394 0.299220
3.698946 0.578369 0.269321
3.695450 0.598354 0.288267
3.664595 0.594608 0.289512
3.667460 0.574474 0.270149
3.671375 0.547093 0.298985
3.668510 0.567227 0.318348
3.637660 0.563733 0.319339
3.639730 0.543748 0.299256
3.667769 0.574767 0.270385
3.664904 0.594902 0.289749
3.634053 0.591408 0.290740
3.636123 0.571422 0.270657
3.639570 0.543328 0.298858
3.637500 0.563314 0.318941
3.606582 0.559912 0.319838
3.607940 0.540255 0.298858
3.636220 0.571835 0.271057
3.634150 0.591821 0.291139
3.603232 0.588419 0.292037
3.604590 0.568762 0.271057
3.606775 0.559815 0.319713
3.578035 0.557563 0.321007
3.582645 0.537802 0.300107
3.608132 0.540158 0.298733
3.602981 0.588511 0.292163
3.574242 0.586258 0.293457
3.578852 0.566497 0.272557
3.604339 0.568853 0.271184
3.578021 0.557542 0.320986
3.549294 0.554958 0.322658
3.557109 0.535768 0.301144
3.582631 0.537781 0.300087
3.574202 0.586275 0.293480
3.545475 0.583691 0.295152
3.553290 0.564502 0.273638
3.578812 0.566514 0.272580
3.607976 0.540156 0.298752
3.582489 0.537800 0.300126
3.587251 0.518450 0.278844
3.609360 0.519994 0.278277
3.604501 0.568815 0.271123
3.579014 0.566459 0.272497
3.583776 0.547109 0.251214
3.605885 0.548653 0.250647
3.582524 0.537661 0.299975
3.557002 0.535648 0.301033
3.564845 0.516300 0.279681
3.587286 0.518311 0.278693
3.578931 0.566595 0.272650
3.553410 0.564583 0.273707
3.561252 0.545235 0.252356
3.583693 0.547245 0.251368
3.609039 0.520213 0.278536
3.586930 0.518669 0.279103
3.592298 0.498564 0.258571
3.610451 0.500030 0.258111
3.606213 0.548394 0.250347
3.584104 0.546851 0.250914
3.589472 0.526746 0.230382
3.607625 0.528212 0.229922
3.586952 0.518473 0.278902
3.564511 0.516463 0.279890
3.572342 0.497150 0.258508
3.592320 0.498368 0.258370
3.584040 0.547044 0.251116
3.561599 0.545033 0.252104
3.569430 0.525721 0.230722
3.589409 0.526938 0.230584
3.609918 0.500000 0.258124
3.591765 0.498534 0.258584
3.598909 0.478932 0.237779
3.611397 0.479298 0.238167
3.608166 0.528202 0.229868
3.590013 0.526736 0.230328
3.597156 0.507134 0.209524
3.609645 0.507500 0.209912
3.592106 0.498467 0.258491
3.572128 0.497249 0.258629
3.580091 0.477140 0.238022
3.599250 0.478865 0.237686
3.589637 0.526800 0.230421
3.569658 0.525582 0.230559
3.577621 0.505474 0.209952
3.596780 0.507199 0.209616
3.610557 0.478346 0.237179
3.598069 0.477980 0.236791
3.611812 0.459426 0.215552
3.610494 0.508420 0.210866
3.598006 0.508054 0.210477
3.611749 0.489499 0.189239
3.599552 0.478502 0.237279
3.580393 0.476776 0.237614
3.588232 0.457499 0.216216
3.613295 0.459947 0.216041
3.596497 0.507524 0.209982
3.577338 0.505799 0.210317
3.585178 0.486522 0.188918
3.610241 0.488970 0.188743
3.588657 0.457628 0.216298
3.580817 0.476905 0.237696
3.560460 0.487245 0.251402
3.565257 0.469066 0.231715
3.584710 0.486401 0.188851
3.576870 0.505679 0.210250
3.556513 0.516019 0.223956
3.561310 0.497839 0.204269
3.565525 0.468924 0.231523
3.560728 0.487103 0.251210
3.540383 0.497682 0.266672
3.542139 0.480311 0.247016
3.560998 0.498004 0.204492
3.556201 0.516183 0.224179
3.535856 0.526762 0.239641
3.537612 0.509391 0.219986
3.541502 0.479787 0.246524
3.539746 0.497158 0.266180
3.518436 0.508733 0.282998
3.518160 0.491201 0.262013
3.538204 0.509939 0.220509
3.536448 0.527309 0.240165
3.515137 0.538885 0.256983
3.514861 0.521353 0.235998
3.581895 0.477478 0.238083
3.573931 0.497587 0.258690
3.557814 0.504357 0.269696
3.561537 0.487818 0.251789
3.575780 0.505143 0.209903
3.567817 0.525252 0.230511
3.551700 0.532022 0.241517
3.555423 0.515483 0.223609
3.561598 0.487342 0.251291
3.557875 0.503881 0.269199
3.540731 0.514341 0.284580
3.541253 0.497922 0.266754
3.555325 0.515978 0.224135
3.551602 0.532517 0.242042
3.534458 0.542977 0.257424
3.534980 0.526557 0.239597
3.540932 0.497371 0.266221
3.540410 0.513791 0.284048
3.519956 0.526473 0.304021
3.519621 0.508946 0.283040
3.535261 0.527130 0.240163
3.534739 0.543550 0.257990
3.514286 0.556232 0.277963
3.513951 0.538706 0.256981
3.574630 0.497513 0.258446
3.566799 0.516825 0.279828
3.556519 0.516565 0.282557
3.558513 0.504283 0.269452
3.567108 0.525360 0.230792
3.559277 0.544673 0.252174
3.548997 0.544412 0.254902
3.550991 0.532130 0.241798
3.558484 0.504101 0.269274
3.556491 0.516382 0.282379
3.544405 0.528240 0.298121
3.541340 0.514561 0.284655
3.550991 0.532327 0.241998
3.548998 0.544608 0.255103
3.536913 0.556466 0.270845
3.533847 0.542787 0.257380
3.541757 0.513978 0.283896
3.544823 0.527657 0.297362
3.521697 0.544129 0.324909
3.521303 0.526660 0.303870
3.533394 0.543396 0.258178
3.536459 0.557075 0.271644
3.513334 0.573548 0.299191
3.512940 0.556078 0.278152
3.567375 0.517054 0.279887
3.559532 0.536401 0.301239
3.545010 0.528650 0.298358
3.557095 0.516793 0.282616
3.558686 0.544476 0.252150
3.550843 0.563824 0.273502
3.536321 0.556073 0.270622
3.548407 0.544215 0.254879
3.560850 0.536514 0.300868
3.553035 0.555703 0.322382
3.523203 0.545235 0.325535
3.546328 0.528763 0.297988
3.549499 0.563745 0.273916
3.541685 0.582934 0.295430
3.511852 0.572466 0.298583
3.534977 0.555994 0.271035
3.519016 0.492921 0.272733
3.528610 0.484927 0.263864
3.529691 0.505479 0.263987
3.492624 0.494489 0.242770
3.502218 0.486496 0.233901
3.503299 0.507047 0.234024
3.522308 0.484870 0.264764
3.532983 0.497427 0.256018
3.533260 0.514959 0.277003
3.523586 0.501891 0.283796
3.489330 0.502567 0.250763
3.500005 0.515125 0.242017
3.500281 0.532657 0.263002
3.490607 0.519589 0.269795
3.523833 0.502163 0.283542
3.533507 0.515231 0.276750
3.533841 0.532757 0.297731
3.525159 0.519195 0.302582
3.490362 0.519352 0.270088
3.500036 0.532420 0.263296
3.500370 0.549947 0.284278
3.491688 0.536384 0.289128
3.525429 0.519494 0.302275
3.534111 0.533057 0.297424
3.534505 0.550527 0.318464
3.526797 0.536488 0.321314
3.491420 0.536119 0.289475
3.500102 0.549681 0.284625
3.500496 0.567151 0.305664
3.492788 0.553113 0.308515
3.521636 0.500687 0.267762
3.520758 0.481157 0.283532
3.528762 0.467963 0.279392
3.531230 0.492694 0.258893
3.489999 0.486690 0.247762
3.489121 0.467159 0.263533
3.497125 0.453966 0.259393
3.499593 0.478696 0.238893
3.521168 0.481042 0.282937
3.520351 0.461504 0.298706
3.529171 0.467849 0.278798
3.488707 0.467243 0.264157
3.487890 0.447705 0.279927
3.496710 0.454050 0.260018
3.521134 0.460353 0.298075
3.520370 0.440820 0.313863
3.527194 0.441844 0.298486
3.529955 0.466698 0.278166
3.487107 0.448823 0.280581
3.486343 0.429290 0.296369
3.493167 0.430314 0.280992
3.495928 0.455168 0.260672
3.526135 0.485455 0.265740
3.547817 0.478417 0.252375
3.550559 0.494592 0.250375
3.527216 0.506006 0.265863
3.504723 0.485960 0.232005
3.526404 0.478922 0.218639
3.529147 0.495097 0.216640
3.505804 0.506511 0.232128
3.548128 0.479532 0.252153
3.569808 0.472529 0.238868
3.574256 0.484319 0.234659
3.550870 0.495707 0.250153
3.526138 0.477789 0.218832
3.547818 0.470786 0.205547
3.552267 0.482576 0.201339
3.528880 0.493964 0.216833
3.570250 0.473943 0.238430
3.591751 0.466872 0.224899
3.598098 0.474295 0.218804
3.574698 0.485733 0.234222
3.547421 0.469354 0.205956
3.568923 0.462282 0.192425
3.575269 0.469706 0.186330
3.551869 0.481144 0.201747
3.591578 0.474495 0.221868
3.570076 0.481567 0.235399
3.560914 0.469875 0.251490
3.574315 0.467496 0.242371
3.569078 0.454640 0.195480
3.547576 0.461712 0.209011
3.538414 0.450020 0.225102
3.551815 0.447641 0.215983
3.573992 0.467424 0.242693
3.560591 0.469802 0.251812
3.556106 0.460047 0.262572
3.552117 0.447699 0.215690
3.538716 0.450077 0.224809
3.534230 0.440322 0.235569
3.570170 0.481253 0.235550
3.548490 0.488256 0.248835
3.543186 0.470272 0.266461
3.561007 0.469561 0.251642
3.547445 0.462034 0.208885
3.525765 0.469037 0.222170
3.520461 0.451053 0.239795
3.538283 0.450342 0.224976
3.561068 0.469277 0.251792
3.543246 0.469987 0.266611
3.538839 0.452197 0.282498
3.556582 0.459521 0.262552
3.538211 0.450598 0.224857
3.520390 0.451309 0.239675
3.515983 0.433519 0.255563
3.533726 0.440843 0.235617
3.548517 0.488367 0.248730
3.526836 0.495405 0.262095
3.524367 0.470675 0.282595
3.543213 0.470384 0.266356
3.525698 0.468932 0.222304
3.504016 0.475970 0.235669
3.501548 0.451240 0.256169
3.520394 0.450948 0.239929
3.543651 0.469852 0.266351
3.524806 0.470143 0.282590
3.522045 0.445290 0.302911
3.539245 0.452062 0.282238
3.519948 0.451438 0.239971
3.501103 0.451729 0.256211
3.498342 0.426875 0.276531
3.515542 0.433648 0.255859
3.529709 0.543317 0.314486
3.527118 0.503850 0.315193
3.527105 0.512171 0.299847
3.528341 0.526323 0.295446
3.489866 0.546243 0.315350
3.487275 0.506776 0.316057
3.487261 0.515097 0.300711
3.488497 0.529249 0.296310
3.528361 0.526557 0.295935
3.527125 0.512405 0.300336
3.527174 0.506703 0.288184
3.527035 0.509525 0.276896
3.488476 0.529000 0.295788
3.487240 0.514848 0.300189
3.487289 0.509145 0.288037
3.487150 0.511967 0.276749
3.527104 0.512100 0.300151
3.527117 0.503779 0.315497
3.525947 0.497930 0.287189
3.527153 0.506398 0.287999
3.487260 0.515136 0.300389
3.487274 0.506815 0.315735
3.486103 0.500965 0.287427
3.487309 0.509434 0.288237
3.526980 0.508823 0.276775
3.527119 0.506001 0.288064
3.525913 0.497533 0.287254
3.525702 0.491802 0.257743
3.487203 0.512645 0.276844
3.487342 0.509823 0.288132
3.486136 0.501355 0.287322
3.485926 0.495624 0.257811
3.527138 0.504601 0.314618
3.526156 0.469381 0.309916
3.524826 0.473909 0.289294
3.525967 0.498752 0.286310
3.487251 0.505954 0.316620
3.486269 0.470735 0.311918
3.484939 0.475263 0.291297
3.486081 0.500105 0.288312
3.525984 0.498539 0.287338
3.524842 0.473697 0.290322
3.524896 0.473278 0.273597
3.525773 0.492809 0.257827
3.486063 0.500313 0.287237
3.484921 0.475471 0.290221
3.484975 0.475052 0.273497
3.485853 0.494582 0.257727
3.526126 0.468850 0.309826
3.523269 0.433887 0.304038
3.524033 0.453421 0.288249
3.524796 0.473378 0.289204
3.486295 0.471208 0.312004
3.483438 0.436246 0.306216
3.484202 0.455779 0.290427
3.484965 0.475737 0.291382
3.524846 0.473799 0.290363
3.524082 0.453841 0.289407
3.524900 0.473379 0.273638
3.484916 0.475334 0.290195
3.484152 0.455377 0.289240
3.484970 0.474915 0.273471
3.513237 0.501618 0.334321
3.478627 0.501395 0.347385
3.474502 0.475848 0.341833
3.512254 0.466398 0.329619
3.501118 0.508942 0.296954
3.466508 0.508719 0.310018
3.462383 0.483173 0.304466
3.500135 0.473723 0.292252
3.513087 0.467895 0.329562
3.475335 0.477345 0.341777
3.474994 0.450978 0.341719
3.510230 0.432932 0.323774
3.499299 0.472165 0.292300
3.461546 0.481615 0.304515
3.461206 0.455248 0.304457
3.496442 0.437202 0.286513
3.698055 0.585219 0.322783
3.698491 0.594902 0.323039
3.666716 0.592094 0.323377
3.667200 0.581473 0.324028
3.697127 0.584440 0.282842
3.697563 0.594124 0.283098
3.665788 0.591315 0.283435
3.666273 0.580694 0.284086
3.666991 0.582782 0.323963
3.666506 0.593403 0.323312
3.634688 0.590346 0.323780
3.636140 0.579288 0.324954
3.666420 0.579378 0.284152
3.665935 0.590000 0.283502
3.634117 0.586943 0.283969
3.635569 0.575885 0.285144
3.636329 0.579403 0.324940
3.634877 0.590461 0.323766
3.603102 0.587526 0.325042
3.605411 0.576001 0.325838
3.635318 0.575763 0.285159
3.633865 0.586821 0.283985
3.602091 0.583887 0.285261
3.604400 0.572361 0.286057
3.605582 0.575842 0.325846
3.603273 0.587368 0.325050
3.578243 0.584525 0.326090
3.576843 0.573590 0.327140
3.604171 0.572514 0.286050
3.601862 0.584040 0.285254
3.576832 0.581198 0.286293
3.575431 0.570262 0.287344
3.576874 0.574215 0.327076
3.578275 0.585150 0.326026
3.553293 0.582382 0.327042
3.548147 0.571631 0.328749
3.575346 0.569633 0.287409
3.576746 0.580568 0.286359
3.551765 0.577800 0.287375
3.546619 0.567049 0.289082
