1.961215 0.573276 -0.620135
1.961208 0.572899 -0.677151
1.937261 0.612771 -0.674964
1.936992 0.613418 -0.616338
1.930407 0.554722 -0.620040
1.930399 0.554345 -0.677056
1.906453 0.594217 -0.674869
1.906184 0.594863 -0.616243
1.961234 0.572855 -0.677219
1.961186 0.572424 -0.734241
1.937551 0.612077 -0.733658
1.937287 0.612727 -0.675032
1.930374 0.554387 -0.677104
1.930326 0.553956 -0.734126
1.906691 0.593609 -0.733543
1.906427 0.594259 -0.674917
1.946430 0.572863 -0.749345
2.021443 0.569282 -0.749680
2.037120 0.534564 -0.770270
1.979667 0.537843 -0.771565
1.945205 0.553439 -0.719102
2.020219 0.549858 -0.719438
2.035895 0.515140 -0.740028
1.978442 0.518419 -0.741323
2.021605 0.569231 -0.749706
2.096607 0.566907 -0.746856
2.094824 0.532262 -0.769869
2.037282 0.534513 -0.770296
2.020189 0.549903 -0.719410
2.095190 0.547579 -0.716560
2.093407 0.512934 -0.739573
2.035866 0.515185 -0.740000
2.098960 0.513465 -0.771890
2.102042 0.512947 -0.812915
2.043725 0.516833 -0.813339
2.039841 0.519295 -0.769995
2.096008 0.477637 -0.770868
2.099091 0.477119 -0.811893
2.040774 0.481005 -0.812318
2.036890 0.483467 -0.768973
2.045660 0.517804 -0.769738
2.049544 0.515343 -0.813082
1.996397 0.539205 -0.812603
1.986423 0.544508 -0.756744
2.030956 0.484988 -0.769223
2.034840 0.482526 -0.812567
1.981693 0.506388 -0.812088
1.971719 0.511692 -0.756229
1.991453 0.541125 -0.756310
2.001427 0.535821 -0.812169
1.957917 0.573918 -0.811677
1.958216 0.576145 -0.734089
1.966595 0.515137 -0.756646
1.976569 0.509833 -0.812504
1.933059 0.547930 -0.812013
1.933358 0.550157 -0.734425
2.167541 0.511682 -0.773545
2.166934 0.511378 -0.811836
2.101089 0.513005 -0.812577
2.098006 0.513523 -0.771552
2.166623 0.475731 -0.773200
2.166016 0.475427 -0.811491
2.100171 0.477054 -0.812233
2.097088 0.477573 -0.771208
2.094373 0.532644 -0.769631
2.167769 0.531726 -0.767701
2.167268 0.503799 -0.788234
2.097734 0.505641 -0.786242
2.093997 0.512487 -0.739849
2.167393 0.511569 -0.737920
2.166892 0.483642 -0.758452
2.097358 0.485483 -0.756460
2.094575 0.539258 -0.761440
2.129206 0.557108 -0.715240
2.165907 0.556666 -0.714281
2.167971 0.538340 -0.759511
2.093810 0.505918 -0.747976
2.128441 0.523768 -0.701776
2.165141 0.523326 -0.700817
2.167206 0.505001 -0.746046
2.129214 0.557127 -0.715194
2.163847 0.574975 -0.668995
2.165914 0.556684 -0.714235
2.128460 0.523780 -0.701746
2.163094 0.541628 -0.655547
2.165161 0.523338 -0.700787
2.164461 0.574459 -0.617581
2.163592 0.576293 -0.661991
2.095330 0.575751 -0.674902
2.094548 0.576292 -0.618424
2.164171 0.538499 -0.618041
2.163302 0.540333 -0.662452
2.095040 0.539791 -0.675363
2.094258 0.540332 -0.618885
2.096414 0.575235 -0.731768
2.021412 0.577559 -0.734618
2.021041 0.577716 -0.676833
2.095633 0.575746 -0.675293
2.095376 0.539287 -0.731568
2.020375 0.541611 -0.734419
2.020003 0.541768 -0.676634
2.094595 0.539798 -0.675094
2.021711 0.577547 -0.734609
1.946698 0.581128 -0.734273
1.946746 0.581559 -0.677252
2.021340 0.577704 -0.676824
2.019926 0.541628 -0.734430
1.944913 0.545209 -0.734094
1.944960 0.545640 -0.677073
2.019555 0.541785 -0.676645
2.095557 0.575748 -0.675257
2.020965 0.577718 -0.676797
2.020572 0.577975 -0.618991
2.094774 0.576289 -0.618779
2.094670 0.539796 -0.675015
2.020078 0.541766 -0.676556
2.019686 0.542023 -0.618749
2.093888 0.540337 -0.618538
2.021393 0.577702 -0.676773
1.946799 0.581557 -0.677201
1.946807 0.581934 -0.620184
2.021000 0.577959 -0.618967
2.019501 0.541788 -0.676581
1.944907 0.545643 -0.677009
1.944915 0.546020 -0.619992
2.019108 0.542045 -0.618775
1.966017 0.563019 -0.603957
1.964615 0.563440 -0.590301
2.029644 0.557740 -0.587793
2.030710 0.558033 -0.604699
1.963066 0.527177 -0.604046
1.961663 0.527597 -0.590390
2.026693 0.521897 -0.587882
2.027758 0.522191 -0.604788
2.029771 0.558073 -0.604119
2.028705 0.557780 -0.587213
2.094025 0.555787 -0.586903
2.094667 0.556668 -0.605070
2.028827 0.522144 -0.605367
2.027761 0.521850 -0.588461
2.093081 0.519857 -0.588151
2.093723 0.520738 -0.606319
2.094638 0.568501 -0.603815
2.020436 0.570187 -0.604027
2.029603 0.550316 -0.589951
2.094498 0.548911 -0.590902
2.094027 0.548106 -0.633431
2.019825 0.549792 -0.633642
2.028992 0.529921 -0.619566
2.093888 0.528515 -0.620518
2.020745 0.571325 -0.604890
1.946551 0.575300 -0.606107
1.965218 0.556440 -0.590072
2.029911 0.551454 -0.590814
2.019378 0.548660 -0.632779
1.945184 0.552635 -0.633997
1.963851 0.533775 -0.617961
2.028544 0.528789 -0.618703
2.094635 0.556665 -0.604986
2.093993 0.555785 -0.586818
2.161754 0.554568 -0.587250
2.162725 0.555035 -0.604075
2.093887 0.520737 -0.606403
2.093245 0.519857 -0.588236
2.161006 0.518640 -0.588668
2.161977 0.519107 -0.605492
2.164375 0.566417 -0.602800
2.094461 0.568250 -0.603643
2.094322 0.548659 -0.590730
2.162411 0.547029 -0.589819
2.164256 0.546521 -0.632759
2.094343 0.548354 -0.633603
2.094203 0.528764 -0.620689
2.162293 0.527133 -0.619778
2.463406 0.568407 -0.665982
2.465326 0.550301 -0.713324
2.405515 0.551517 -0.713558
2.403583 0.570065 -0.666635
2.462504 0.534886 -0.652985
2.464424 0.516780 -0.700326
2.404613 0.517996 -0.700560
2.402681 0.536544 -0.653638
2.403515 0.570009 -0.666782
2.405447 0.551461 -0.713705
2.345696 0.552761 -0.713990
2.343678 0.571465 -0.667534
2.402630 0.536603 -0.653492
2.404562 0.518054 -0.700415
2.344811 0.519355 -0.700700
2.342793 0.538058 -0.654244
2.343561 0.571445 -0.667591
2.345579 0.552741 -0.714047
2.285781 0.554002 -0.714337
2.283727 0.572447 -0.668551
2.342790 0.538081 -0.654188
2.344808 0.519377 -0.700644
2.285010 0.520637 -0.700934
2.282956 0.539083 -0.655148
2.283662 0.572447 -0.668557
2.285716 0.554001 -0.714342
2.225940 0.555327 -0.714414
2.223788 0.573631 -0.669033
2.282901 0.539086 -0.655144
2.284955 0.520640 -0.700929
2.225179 0.521966 -0.701001
2.223026 0.540270 -0.655620
2.223711 0.573628 -0.669044
2.225863 0.555324 -0.714425
2.165943 0.556689 -0.714221
2.163876 0.574980 -0.668981
2.222984 0.540276 -0.655610
2.225136 0.521971 -0.700991
2.165216 0.523337 -0.700786
2.163149 0.541628 -0.655546
2.465182 0.550286 -0.713371
2.467102 0.532127 -0.760686
2.407348 0.533037 -0.760575
2.405371 0.551502 -0.713605
2.464572 0.516758 -0.700374
2.466492 0.498600 -0.747689
2.406739 0.499510 -0.747578
2.404761 0.517974 -0.700607
2.405344 0.551451 -0.713735
2.407321 0.532987 -0.760705
2.347559 0.534062 -0.760524
2.345593 0.552752 -0.714021
2.404668 0.518027 -0.700478
2.406646 0.499562 -0.747448
2.346884 0.500637 -0.747266
2.344918 0.519327 -0.700763
2.345578 0.552727 -0.714084
2.347544 0.534037 -0.760587
2.287803 0.535556 -0.760193
2.285780 0.553987 -0.714374
2.344814 0.519355 -0.700699
2.346780 0.500665 -0.747203
2.287039 0.502185 -0.746808
2.285015 0.520615 -0.700989
2.285708 0.553984 -0.714385
2.287732 0.535553 -0.760204
2.228086 0.537000 -0.759833
2.225932 0.555309 -0.714457
2.284967 0.520621 -0.700978
2.286991 0.502190 -0.746797
2.227345 0.503637 -0.746426
2.225191 0.521946 -0.701050
2.225848 0.555303 -0.714479
2.228002 0.536993 -0.759855
2.167992 0.538343 -0.759503
2.165928 0.556668 -0.714274
2.225155 0.521956 -0.701028
2.227309 0.503647 -0.746404
2.167300 0.504996 -0.746052
2.165235 0.523321 -0.700823
2.461676 0.550213 -0.605138
2.401951 0.551059 -0.604936
2.403859 0.550246 -0.586452
2.464402 0.549255 -0.587288
2.461113 0.514292 -0.606816
2.401387 0.515139 -0.606614
2.403296 0.514326 -0.588130
2.463839 0.513335 -0.588966
2.401874 0.551061 -0.604948
2.342134 0.552007 -0.604939
2.343248 0.551051 -0.585952
2.403782 0.550248 -0.586464
2.401344 0.515139 -0.606601
2.341604 0.516084 -0.606592
2.342719 0.515129 -0.587604
2.403252 0.514326 -0.588117
2.342177 0.552004 -0.604900
2.282448 0.553230 -0.605273
2.282765 0.552322 -0.586207
2.343292 0.551049 -0.585913
2.341440 0.516089 -0.606631
2.281711 0.517315 -0.607004
2.282028 0.516407 -0.587938
2.342555 0.515134 -0.587644
2.282335 0.553233 -0.605306
2.222691 0.554244 -0.604921
2.222027 0.553427 -0.586632
2.282652 0.552325 -0.586240
2.281704 0.517313 -0.606971
2.222060 0.518325 -0.606586
2.221396 0.517507 -0.588297
2.282021 0.516405 -0.587905
2.222605 0.554253 -0.605083
2.162705 0.555037 -0.604113
2.161734 0.554570 -0.587289
2.221941 0.553435 -0.586794
2.222026 0.518318 -0.606424
2.162126 0.519102 -0.605454
2.161154 0.518636 -0.588630
2.221361 0.517501 -0.588135
2.460503 0.559107 -0.601906
2.401433 0.561209 -0.602045
2.401914 0.542717 -0.590592
2.461639 0.541871 -0.590794
2.460009 0.539889 -0.632300
2.400940 0.541991 -0.632439
2.401421 0.523499 -0.620987
2.461146 0.522653 -0.621189
2.401314 0.560987 -0.601905
2.342236 0.562765 -0.602129
2.342055 0.543441 -0.590444
2.401795 0.542495 -0.590452
2.400940 0.542216 -0.632579
2.341862 0.543994 -0.632803
2.341681 0.524670 -0.621118
2.401421 0.523724 -0.621127
2.342073 0.562713 -0.602096
2.282984 0.563857 -0.602520
2.282163 0.544615 -0.590783
2.341892 0.543389 -0.590411
2.341907 0.544048 -0.632837
2.282817 0.545192 -0.633261
2.281996 0.525950 -0.621524
2.341725 0.524724 -0.621152
2.283040 0.564018 -0.602619
2.223932 0.565032 -0.602711
2.222576 0.545787 -0.590498
2.282219 0.544775 -0.590882
2.282642 0.545034 -0.633162
2.223533 0.546048 -0.633254
2.222177 0.526803 -0.621041
2.281821 0.525792 -0.621425
2.223962 0.565345 -0.602911
2.164669 0.566272 -0.602708
2.162706 0.546883 -0.589727
2.222606 0.546099 -0.590697
2.223384 0.545737 -0.633054
2.164091 0.546664 -0.632851
2.162127 0.527276 -0.619870
2.222028 0.526492 -0.620841
2.597135 0.547491 -0.601099
2.529362 0.547814 -0.601401
2.531320 0.547982 -0.586327
2.598179 0.546583 -0.587373
2.596670 0.511541 -0.601973
2.528898 0.511863 -0.602276
2.530856 0.512032 -0.587202
2.597714 0.510633 -0.588248
2.529542 0.547812 -0.601477
2.461937 0.550223 -0.605613
2.464664 0.549266 -0.587763
2.531500 0.547980 -0.586403
2.528583 0.511868 -0.602202
2.460979 0.514279 -0.606338
2.463705 0.513322 -0.588488
2.530541 0.512036 -0.587128
2.460858 0.561651 -0.603863
2.461995 0.544415 -0.592751
2.529599 0.542004 -0.588615
2.528831 0.547713 -0.598499
2.459781 0.537335 -0.630339
2.460918 0.520099 -0.619228
2.528522 0.517688 -0.615091
2.527754 0.523397 -0.624975
2.528383 0.551122 -0.602740
2.529152 0.545413 -0.592856
2.596924 0.545090 -0.592554
2.528315 0.519978 -0.620725
2.529084 0.514269 -0.610841
2.596856 0.513946 -0.610539
2.599965 0.545361 -0.655966
2.532328 0.555783 -0.658257
2.530507 0.553404 -0.611637
2.599048 0.547372 -0.601450
2.595673 0.509655 -0.656212
2.528037 0.520077 -0.658503
2.526215 0.517698 -0.611883
2.594756 0.511666 -0.601697
2.533665 0.555537 -0.657309
2.466566 0.569242 -0.658361
2.463870 0.567095 -0.616052
2.531843 0.553157 -0.610689
2.526565 0.520346 -0.659460
2.459467 0.534051 -0.660513
2.456771 0.531904 -0.618204
2.524743 0.517967 -0.612840
2.466881 0.532113 -0.760728
2.464961 0.550272 -0.713413
2.532240 0.551411 -0.711106
2.533099 0.531974 -0.760049
2.466839 0.498613 -0.747645
2.464919 0.516772 -0.700330
2.532199 0.517911 -0.698023
2.533057 0.498474 -0.746966
2.535024 0.532518 -0.758047
2.534165 0.551955 -0.709104
2.600493 0.538507 -0.708136
2.601318 0.531944 -0.757545
2.531265 0.497923 -0.748966
2.530407 0.517360 -0.700023
2.596735 0.503912 -0.699055
2.597560 0.497349 -0.748464
2.466670 0.551000 -0.710744
2.464750 0.569106 -0.663402
2.531848 0.555401 -0.662350
2.533949 0.552139 -0.708437
2.463207 0.516072 -0.702905
2.461288 0.534178 -0.655563
2.528386 0.520473 -0.654511
2.530487 0.517211 -0.700598
2.535465 0.552283 -0.706217
2.533364 0.555545 -0.660129
2.601001 0.545122 -0.657838
2.601793 0.538835 -0.705248
2.529104 0.517050 -0.702815
2.527004 0.520311 -0.656728
2.594640 0.509889 -0.654437
2.595433 0.503601 -0.701846
2.167381 0.511685 -0.773544
2.227459 0.510954 -0.773213
2.227323 0.510537 -0.811462
2.166775 0.511381 -0.811835
2.166910 0.475726 -0.773201
2.226987 0.474995 -0.772870
2.226852 0.474578 -0.811119
2.166304 0.475421 -0.811492
2.227492 0.510952 -0.773314
2.287407 0.510423 -0.772920
2.287852 0.509673 -0.811548
2.227356 0.510536 -0.811563
2.227075 0.474995 -0.772769
2.286989 0.474466 -0.772375
2.287435 0.473716 -0.811004
2.226939 0.474578 -0.811018
2.287451 0.510419 -0.773117
2.347529 0.510050 -0.772652
2.348444 0.508748 -0.811996
2.287897 0.509668 -0.811745
2.287065 0.474469 -0.772178
2.347143 0.474100 -0.771713
2.348058 0.472798 -0.811057
2.287511 0.473719 -0.810806
2.347610 0.510044 -0.772807
2.407644 0.509413 -0.772700
2.409085 0.507964 -0.811630
2.348525 0.508742 -0.812151
2.347183 0.474105 -0.771557
2.407217 0.473473 -0.771449
2.408659 0.472024 -0.810380
2.348098 0.472803 -0.810901
2.407708 0.509412 -0.772718
2.467933 0.508647 -0.772762
2.469691 0.507298 -0.810776
2.409149 0.507963 -0.811649
2.407274 0.473474 -0.771430
2.467499 0.472709 -0.771473
2.469257 0.471360 -0.809487
2.408715 0.472024 -0.810360
2.466927 0.525891 -0.768782
2.467844 0.501239 -0.786652
2.407618 0.502004 -0.786608
2.407173 0.526800 -0.768671
2.466670 0.504793 -0.739658
2.467587 0.480142 -0.757527
2.407362 0.480907 -0.757484
2.406916 0.505703 -0.739547
2.407126 0.526787 -0.768682
2.407571 0.501991 -0.786619
2.347537 0.502622 -0.786726
2.347364 0.527862 -0.768500
2.406844 0.505719 -0.739536
2.407289 0.480922 -0.757473
2.347255 0.481554 -0.757581
2.347082 0.506794 -0.739355
2.347337 0.527861 -0.768501
2.347510 0.502621 -0.786728
2.287433 0.502990 -0.787192
2.287597 0.529380 -0.768107
2.346988 0.506796 -0.739354
2.347161 0.481557 -0.757580
2.287084 0.481925 -0.758045
2.287247 0.508316 -0.738959
2.287539 0.529403 -0.768091
2.287375 0.503012 -0.787177
2.227461 0.503541 -0.787571
2.227893 0.530850 -0.767720
2.287185 0.508295 -0.738975
2.287021 0.481905 -0.758060
2.227106 0.482434 -0.758454
2.227539 0.509742 -0.738604
2.227838 0.530907 -0.767679
2.227405 0.503599 -0.787529
2.167328 0.504329 -0.787860
2.167828 0.532257 -0.767328
2.227475 0.509687 -0.738645
2.227042 0.482378 -0.758496
2.166965 0.483109 -0.758826
2.167466 0.511036 -0.738294
2.599681 0.506904 -0.772772
2.600310 0.506390 -0.810424
2.534986 0.507194 -0.810386
2.533855 0.507464 -0.772992
2.599306 0.470944 -0.772405
2.599936 0.470430 -0.810057
2.534612 0.471233 -0.810019
2.533481 0.471504 -0.772625
2.533780 0.507462 -0.773188
2.534910 0.507191 -0.810581
2.469714 0.507305 -0.810511
2.467956 0.508654 -0.772497
2.533425 0.471507 -0.772430
2.534556 0.471237 -0.809823
2.469360 0.471351 -0.809752
2.467602 0.472700 -0.771739
2.599611 0.525455 -0.767394
2.599664 0.499765 -0.786915
2.533839 0.500325 -0.787136
2.533316 0.526030 -0.767896
2.599268 0.503799 -0.738684
2.599321 0.478109 -0.758205
2.533496 0.478669 -0.758425
2.532973 0.504373 -0.739186
2.533185 0.525872 -0.768015
2.533708 0.500167 -0.787255
2.467884 0.501360 -0.786564
2.466968 0.526011 -0.768694
2.532973 0.504533 -0.739067
2.533495 0.478828 -0.758306
2.467672 0.480020 -0.757615
2.466755 0.504672 -0.739746
2.902567 0.527658 -0.757157
2.904982 0.527289 -0.808385
2.845395 0.507558 -0.809436
2.844139 0.508309 -0.769535
2.913780 0.493498 -0.756285
2.916195 0.493129 -0.807513
2.856607 0.473398 -0.808565
2.855352 0.474149 -0.768664
2.848645 0.509163 -0.769576
2.849901 0.508412 -0.809477
2.787723 0.504568 -0.810133
2.786692 0.505746 -0.771649
2.850724 0.473272 -0.768632
2.851980 0.472521 -0.808533
2.789801 0.468677 -0.809189
2.788771 0.469855 -0.770705
2.787723 0.505770 -0.771805
2.788753 0.504592 -0.810288
2.725906 0.504595 -0.810766
2.724799 0.506130 -0.771679
2.787615 0.469828 -0.770550
2.788646 0.468650 -0.809034
2.725798 0.468653 -0.809512
2.724691 0.470188 -0.770425
2.724871 0.506131 -0.771636
2.725978 0.504596 -0.810724
2.663210 0.505506 -0.810773
2.662095 0.506512 -0.772406
2.724494 0.470188 -0.770468
2.725601 0.468653 -0.809555
2.662833 0.469563 -0.809605
2.661718 0.470569 -0.771237
2.662027 0.506519 -0.772177
2.663141 0.505512 -0.810545
2.600370 0.506387 -0.810596
2.599741 0.506901 -0.772944
2.661661 0.470564 -0.771467
2.662775 0.469557 -0.809834
2.600004 0.470432 -0.809885
2.599375 0.470946 -0.772233
2.907674 0.521291 -0.771132
2.849245 0.501942 -0.783511
2.846002 0.520573 -0.769580
2.908650 0.499872 -0.742259
2.850222 0.480523 -0.754637
2.846978 0.499154 -0.740707
2.846323 0.520624 -0.769549
2.849567 0.501993 -0.783480
2.787614 0.498575 -0.785553
2.784627 0.521818 -0.768143
2.846555 0.499096 -0.740741
2.849798 0.480465 -0.754672
2.787845 0.477048 -0.756745
2.784858 0.500290 -0.739335
2.784695 0.521868 -0.768105
2.787682 0.498626 -0.785516
2.724758 0.498986 -0.785390
2.723005 0.523272 -0.767030
2.784666 0.500240 -0.739372
2.787653 0.476997 -0.756782
2.724729 0.477358 -0.756657
2.722975 0.501644 -0.738296
2.723165 0.523321 -0.766992
2.724918 0.499034 -0.785353
2.662142 0.499415 -0.786122
2.661485 0.524397 -0.767177
2.722691 0.501598 -0.738334
2.724444 0.477311 -0.756694
2.661668 0.477692 -0.757464
2.661011 0.502674 -0.738519
2.661426 0.524410 -0.767168
2.662083 0.499428 -0.786113
2.599797 0.499810 -0.786879
2.599743 0.525500 -0.767358
2.660946 0.502662 -0.738529
2.661603 0.477680 -0.757474
2.599317 0.478063 -0.758240
2.599264 0.503753 -0.738719
2.988844 0.542609 -0.737947
3.038238 0.564232 -0.736877
3.039561 0.564153 -0.781436
2.988722 0.544099 -0.780908
3.002652 0.509403 -0.738293
3.052047 0.531027 -0.737223
3.053370 0.530947 -0.781782
3.002531 0.510894 -0.781254
3.038319 0.564255 -0.737680
3.087735 0.585816 -0.736611
3.090522 0.584153 -0.782769
3.039642 0.564175 -0.782239
3.052066 0.531046 -0.736420
3.101482 0.552607 -0.735351
3.104269 0.550944 -0.781509
3.053389 0.530966 -0.780979
3.087771 0.585787 -0.737345
3.137165 0.607405 -0.736276
3.141373 0.604243 -0.784034
3.090558 0.584124 -0.783502
3.101547 0.552678 -0.734617
3.150940 0.574296 -0.733549
3.155149 0.571134 -0.781307
3.104333 0.551015 -0.780775
3.034101 0.536442 -0.568787
3.068423 0.559434 -0.572226
3.051379 0.561112 -0.624917
3.012166 0.539491 -0.621794
3.051785 0.506134 -0.576664
3.086108 0.529125 -0.580104
3.069063 0.530804 -0.632795
3.029850 0.509183 -0.629671
3.013272 0.540316 -0.622866
3.052485 0.561937 -0.625990
3.038884 0.562593 -0.677096
2.990370 0.540921 -0.675171
3.028706 0.508361 -0.628704
3.067919 0.529982 -0.631827
3.054318 0.530638 -0.682933
3.005804 0.508966 -0.681008
2.990811 0.541385 -0.677618
3.039326 0.563057 -0.679543
3.037878 0.564069 -0.736473
2.988483 0.542446 -0.737542
3.005342 0.508504 -0.678671
3.053856 0.530176 -0.680596
3.052408 0.531188 -0.737526
3.003014 0.509565 -0.738595
3.068594 0.559795 -0.573438
3.103456 0.581972 -0.576877
3.092713 0.583093 -0.628718
3.051550 0.561474 -0.626129
3.086012 0.528808 -0.578898
3.120874 0.550985 -0.582337
3.110131 0.552105 -0.634178
3.068968 0.530487 -0.631589
3.052546 0.562141 -0.627200
3.093710 0.583759 -0.629789
3.087568 0.584457 -0.680347
3.038945 0.562796 -0.678307
3.067948 0.529822 -0.630621
3.109111 0.551441 -0.633210
3.102970 0.552138 -0.683768
3.054346 0.530478 -0.681728
3.039392 0.563089 -0.679647
3.088015 0.584749 -0.681687
3.087360 0.585662 -0.735507
3.037944 0.564101 -0.736576
3.053888 0.530187 -0.680494
3.102512 0.551847 -0.682534
3.101857 0.552760 -0.736354
3.052440 0.531199 -0.737423
3.103579 0.582214 -0.578177
3.138525 0.603996 -0.581616
3.135977 0.604908 -0.632080
3.092837 0.583335 -0.630018
3.120827 0.550786 -0.581042
3.155772 0.572568 -0.584481
3.153224 0.573480 -0.634945
3.110085 0.551907 -0.632883
3.093842 0.583896 -0.630770
3.136981 0.605469 -0.632832
3.136444 0.606199 -0.683491
3.087700 0.584593 -0.681328
3.109070 0.551348 -0.632234
3.152209 0.572921 -0.634296
3.151672 0.573651 -0.684955
3.102928 0.552045 -0.682792
3.088068 0.584775 -0.681776
3.136812 0.606381 -0.683939
3.136807 0.607307 -0.734527
3.087414 0.585688 -0.735596
3.102556 0.551865 -0.682447
3.151300 0.573471 -0.684610
3.151295 0.574397 -0.735199
3.101901 0.552778 -0.736267
2.943760 0.541871 -0.734027
2.969343 0.542945 -0.735808
2.968783 0.544525 -0.787998
2.942753 0.543604 -0.795446
2.945265 0.505954 -0.735095
2.970849 0.507028 -0.736876
2.970289 0.508608 -0.789066
2.944258 0.507687 -0.796514
2.969388 0.542945 -0.735755
2.994976 0.543953 -0.737537
2.994854 0.545443 -0.780498
2.968828 0.544525 -0.787945
2.970856 0.507030 -0.736924
2.996444 0.508038 -0.738706
2.996322 0.509528 -0.781667
2.970296 0.508610 -0.789114
2.942298 0.543078 -0.584438
2.992338 0.542220 -0.578718
2.980535 0.542099 -0.630238
2.944060 0.541640 -0.634315
2.942067 0.507120 -0.583862
2.992107 0.506261 -0.578142
2.980304 0.506141 -0.629662
2.943829 0.505681 -0.633739
2.943592 0.541639 -0.634063
2.980067 0.542098 -0.629986
2.970652 0.542201 -0.681211
2.943840 0.541443 -0.684275
2.944288 0.505681 -0.634093
2.980762 0.506141 -0.630015
2.971348 0.506244 -0.681240
2.944535 0.505486 -0.684305
2.943552 0.541434 -0.684131
2.970364 0.542192 -0.681067
2.969463 0.542955 -0.736077
2.943880 0.541881 -0.734296
2.944819 0.505495 -0.684552
2.971631 0.506253 -0.681487
2.970730 0.507016 -0.736498
2.945147 0.505942 -0.734716
2.992773 0.542211 -0.578085
3.043408 0.539249 -0.572386
3.021473 0.542298 -0.625394
2.980970 0.542091 -0.629605
2.991761 0.506268 -0.578765
3.042395 0.503306 -0.573066
3.020460 0.506355 -0.626074
2.979958 0.506148 -0.630285
2.980181 0.542099 -0.629791
3.020684 0.542306 -0.625580
2.997782 0.542911 -0.677884
2.970766 0.542202 -0.681016
2.980714 0.506141 -0.630203
3.021217 0.506348 -0.625992
2.998315 0.506954 -0.678296
2.971299 0.506244 -0.681428
2.970429 0.542193 -0.680975
2.997445 0.542903 -0.677843
2.995116 0.543964 -0.737767
2.969528 0.542956 -0.735985
2.971618 0.506254 -0.681578
2.998634 0.506963 -0.678446
2.996305 0.508024 -0.738371
2.970717 0.507016 -0.736589
2.940306 0.541366 -0.735547
2.904044 0.528056 -0.757685
2.904185 0.534811 -0.700250
2.939978 0.540919 -0.685382
2.948658 0.506446 -0.733485
2.912396 0.493136 -0.755623
2.912537 0.499891 -0.698188
2.948330 0.505999 -0.683320
2.942867 0.541368 -0.685329
2.907074 0.535261 -0.700196
2.907421 0.541273 -0.642772
2.942620 0.541564 -0.635117
2.945441 0.505556 -0.683266
2.909648 0.499448 -0.698133
2.909995 0.505460 -0.640709
2.945193 0.505752 -0.633054
2.944044 0.541631 -0.634652
2.908845 0.541340 -0.642307
2.910664 0.543612 -0.584654
2.942282 0.543070 -0.584775
2.943769 0.505690 -0.633411
2.908571 0.505398 -0.641066
2.910389 0.507670 -0.583413
2.942007 0.507128 -0.583534
2.901271 0.527179 -0.756595
2.937533 0.540489 -0.734457
2.936526 0.542222 -0.795876
2.903686 0.526811 -0.807823
2.915170 0.494011 -0.756823
2.951432 0.507321 -0.734685
2.950425 0.509053 -0.796104
2.917585 0.493642 -0.808051
2.660769 0.545391 -0.587448
2.723267 0.545038 -0.586771
2.722101 0.543594 -0.642908
2.660026 0.544732 -0.643047
2.660334 0.509436 -0.586764
2.722832 0.509083 -0.586087
2.721667 0.507639 -0.642224
2.659591 0.508777 -0.642363
2.723338 0.545032 -0.586959
2.786138 0.544459 -0.586460
2.785537 0.542597 -0.643016
2.722172 0.543589 -0.643096
2.722887 0.509087 -0.585898
2.785687 0.508513 -0.585399
2.785086 0.506652 -0.641955
2.721721 0.507643 -0.642035
2.786215 0.544456 -0.586527
2.848715 0.543654 -0.585970
2.848721 0.541745 -0.642943
2.785614 0.542594 -0.643083
2.785736 0.508515 -0.585331
2.848236 0.507713 -0.584774
2.848241 0.505804 -0.641747
2.785135 0.506653 -0.641887
2.848614 0.543652 -0.586028
2.910555 0.543611 -0.584693
2.908737 0.541339 -0.642346
2.848619 0.541744 -0.643001
2.848461 0.507713 -0.584715
2.910403 0.507671 -0.583379
2.908584 0.505399 -0.641032
2.848467 0.505804 -0.641687
2.598369 0.545350 -0.658246
2.660231 0.544603 -0.644880
2.660894 0.538699 -0.700075
2.599162 0.539062 -0.705656
2.597400 0.509649 -0.654018
2.659261 0.508901 -0.640652
2.659925 0.502998 -0.695847
2.598193 0.503361 -0.701428
2.660142 0.544628 -0.644671
2.722218 0.543491 -0.644532
2.722634 0.537567 -0.699824
2.660806 0.538725 -0.699867
2.659474 0.508874 -0.640851
2.721550 0.507736 -0.640711
2.721966 0.501813 -0.696004
2.660138 0.502971 -0.696046
2.722260 0.543486 -0.644570
2.785625 0.542494 -0.644490
2.785358 0.536311 -0.700247
2.722676 0.537562 -0.699862
2.721633 0.507739 -0.640673
2.784998 0.506747 -0.640593
2.784732 0.500564 -0.696350
2.722049 0.501816 -0.695966
2.785645 0.542486 -0.644553
2.848751 0.541637 -0.644413
2.847880 0.535211 -0.700806
2.785378 0.536303 -0.700310
2.785104 0.506752 -0.640530
2.848210 0.505903 -0.640390
2.847339 0.499477 -0.696783
2.784837 0.500569 -0.696287
2.848605 0.541645 -0.644355
2.908723 0.541240 -0.643700
2.908376 0.535228 -0.701125
2.847734 0.535219 -0.700749
2.848479 0.505894 -0.640447
2.908597 0.505489 -0.639792
2.908250 0.499478 -0.697216
2.847608 0.499468 -0.696841
2.598999 0.539028 -0.705958
2.660731 0.538665 -0.700377
2.661506 0.531375 -0.755177
2.599824 0.532466 -0.755367
2.598358 0.503382 -0.701229
2.660090 0.503019 -0.695649
2.660865 0.495729 -0.750448
2.599183 0.496820 -0.750638
2.660799 0.538665 -0.700368
2.722627 0.537507 -0.700326
2.723253 0.530299 -0.754983
2.661574 0.531375 -0.755168
2.660146 0.503017 -0.695655
2.721974 0.501860 -0.695612
2.722600 0.494651 -0.750269
2.660920 0.495727 -0.750455
2.722716 0.537505 -0.700329
2.785398 0.536254 -0.700713
2.785032 0.528893 -0.756062
2.723342 0.530297 -0.754986
2.722010 0.501859 -0.695610
2.784692 0.500608 -0.695994
2.784326 0.493247 -0.751342
2.722636 0.494651 -0.750267
2.785399 0.536252 -0.700726
2.847901 0.535160 -0.701222
2.846730 0.527696 -0.757481
2.785033 0.528891 -0.756074
2.784815 0.500607 -0.695983
2.847317 0.499514 -0.696479
2.846146 0.492051 -0.752738
2.784449 0.493246 -0.751332
2.847529 0.535179 -0.701081
2.908171 0.535189 -0.701457
2.908030 0.528434 -0.758893
2.846358 0.527716 -0.757340
2.847812 0.499494 -0.696622
2.908453 0.499504 -0.696998
2.908313 0.492749 -0.754433
2.846641 0.492031 -0.752881
1.747731 0.636917 -0.836428
1.823113 0.636563 -0.818390
1.822524 0.637628 -0.853330
1.747135 0.637508 -0.871377
1.747879 0.600963 -0.837283
1.823262 0.600609 -0.819245
1.822673 0.601674 -0.854185
1.747283 0.601555 -0.872231
1.823597 0.636556 -0.818274
1.899545 0.634805 -0.805672
1.898945 0.635814 -0.840617
1.823008 0.637621 -0.853215
1.822930 0.600614 -0.819330
1.898878 0.598862 -0.806727
1.898279 0.599872 -0.841673
1.822341 0.601679 -0.854270
1.930467 0.618865 -0.806654
1.929864 0.619859 -0.841599
1.908029 0.633182 -0.840861
1.908628 0.632173 -0.805915
1.911732 0.588171 -0.807211
1.911128 0.589165 -0.842156
1.889293 0.602489 -0.841418
1.889893 0.601479 -0.806472
1.936730 0.612421 -0.806953
1.961063 0.569894 -0.811910
1.960456 0.570881 -0.846858
1.936126 0.613415 -0.841897
1.905515 0.594559 -0.806918
1.929849 0.552032 -0.811876
1.929241 0.553019 -0.846824
1.904912 0.595553 -0.841863
2.101757 0.512968 -0.811950
2.101179 0.513976 -0.846894
2.042860 0.517845 -0.847321
2.043440 0.516855 -0.812374
2.099379 0.477097 -0.812936
2.098801 0.478105 -0.847880
2.040482 0.481973 -0.848307
2.041062 0.480983 -0.813360
2.049557 0.515336 -0.812533
2.048977 0.516326 -0.847480
1.995802 0.540162 -0.846999
1.996410 0.539197 -0.812054
2.034833 0.482530 -0.813201
2.034254 0.483520 -0.848147
1.981079 0.507357 -0.847666
1.981687 0.506392 -0.812722
2.000848 0.536351 -0.812216
2.000240 0.537316 -0.847160
1.956731 0.575435 -0.846672
1.957338 0.574448 -0.811724
1.977152 0.509300 -0.812559
1.976543 0.510265 -0.847504
1.933034 0.548384 -0.847015
1.933642 0.547397 -0.812067
2.166786 0.511374 -0.811188
2.227334 0.510531 -0.810815
2.226723 0.511537 -0.845759
2.166213 0.512378 -0.846134
2.166292 0.475428 -0.812213
2.226840 0.474585 -0.811840
2.226230 0.475591 -0.846784
2.165720 0.476432 -0.847159
2.227405 0.510530 -0.810817
2.287901 0.509667 -0.810802
2.287367 0.510661 -0.845750
2.226795 0.511537 -0.845761
2.226889 0.474584 -0.811837
2.287386 0.473722 -0.811823
2.286851 0.474716 -0.846771
2.226279 0.475591 -0.846781
2.287981 0.509666 -0.810808
2.348528 0.508746 -0.811059
2.347957 0.509730 -0.846003
2.287446 0.510660 -0.845756
2.287427 0.473721 -0.811817
2.347975 0.472800 -0.812068
2.347403 0.473785 -0.847011
2.286892 0.474715 -0.846765
2.348536 0.508746 -0.811055
2.409096 0.507968 -0.810534
2.408352 0.508975 -0.845485
2.347964 0.509730 -0.845999
2.348088 0.472799 -0.812071
2.408649 0.472021 -0.811550
2.407905 0.473028 -0.846501
2.347517 0.473783 -0.847015
2.409129 0.507967 -0.810538
2.469670 0.507303 -0.809665
2.469102 0.508267 -0.844609
2.408385 0.508974 -0.845489
2.408737 0.472020 -0.811545
2.469278 0.471355 -0.810672
2.468710 0.472319 -0.845616
2.407993 0.473027 -0.846496
2.166915 0.511372 -0.811191
2.166342 0.512375 -0.846137
2.100491 0.514007 -0.846877
2.101069 0.512999 -0.811932
2.166037 0.475433 -0.812211
2.165464 0.476437 -0.847157
2.099613 0.478068 -0.847897
2.100191 0.477060 -0.812952
2.600345 0.506384 -0.809768
2.599782 0.507377 -0.844712
2.534481 0.508186 -0.844679
2.535021 0.507187 -0.809730
2.599901 0.470437 -0.810786
2.599338 0.471430 -0.845729
2.534037 0.472239 -0.845696
2.534577 0.471240 -0.810747
2.534761 0.507189 -0.809734
2.534221 0.508188 -0.844683
2.468996 0.508268 -0.844607
2.469565 0.507303 -0.809663
2.534706 0.471239 -0.810743
2.534167 0.472238 -0.845692
2.468941 0.472318 -0.845616
2.469510 0.471354 -0.810672
2.904917 0.527263 -0.807402
2.904319 0.528320 -0.842349
2.844775 0.508499 -0.843399
2.845329 0.507532 -0.808454
2.916261 0.493156 -0.808576
2.915664 0.494212 -0.843523
2.856119 0.474391 -0.844573
2.856674 0.473424 -0.809628
2.849833 0.508407 -0.808516
2.849278 0.509373 -0.843461
2.787090 0.505577 -0.844120
2.787655 0.504563 -0.809172
2.852048 0.472526 -0.809568
2.851494 0.473493 -0.844513
2.789306 0.469696 -0.845172
2.789870 0.468683 -0.810224
2.788691 0.504596 -0.809188
2.788126 0.505609 -0.844136
2.725276 0.505569 -0.844611
2.725843 0.504599 -0.809666
2.788709 0.468646 -0.810209
2.788145 0.469660 -0.845157
2.725294 0.469620 -0.845631
2.725861 0.468649 -0.810686
2.726050 0.504598 -0.809680
2.725483 0.505568 -0.844625
2.662718 0.506485 -0.844678
2.663282 0.505507 -0.809729
2.725528 0.468651 -0.810673
2.724961 0.469622 -0.845618
2.662196 0.470539 -0.845671
2.662760 0.469561 -0.810722
2.663211 0.505508 -0.809723
2.662646 0.506486 -0.844672
2.599876 0.507376 -0.844718
2.600439 0.506383 -0.809774
2.662706 0.469562 -0.810728
2.662142 0.470540 -0.845677
2.599372 0.471429 -0.845723
2.599935 0.470436 -0.810779
2.902845 0.526423 -0.807386
2.935685 0.541835 -0.795439
2.935115 0.542792 -0.830384
2.902248 0.527479 -0.842333
2.918425 0.494031 -0.808580
2.951265 0.509443 -0.796632
2.950695 0.510400 -0.831578
2.917828 0.495088 -0.843526
3.180443 0.589450 -0.585483
3.181691 0.563215 -0.583488
3.177880 0.564218 -0.633067
3.176632 0.590454 -0.635063
3.144613 0.587952 -0.582760
3.145862 0.561717 -0.580764
3.142051 0.562720 -0.630343
3.140802 0.588956 -0.632339
3.176677 0.590546 -0.633721
3.177926 0.564311 -0.631725
3.177964 0.564752 -0.681587
3.176764 0.590989 -0.683587
3.140753 0.588865 -0.633781
3.142001 0.562629 -0.631785
3.142039 0.563071 -0.681646
3.140839 0.589307 -0.683647
3.176765 0.590972 -0.683685
3.177965 0.564735 -0.681684
3.177902 0.565114 -0.731726
3.176693 0.591352 -0.733722
3.140838 0.589325 -0.683649
3.142038 0.563089 -0.681648
3.141975 0.563468 -0.731690
3.140767 0.589706 -0.733686
3.176691 0.591355 -0.733952
3.177900 0.565117 -0.731955
3.177464 0.564119 -0.777144
3.176215 0.590352 -0.779140
3.140767 0.589703 -0.733552
3.141976 0.563465 -0.731556
3.141540 0.562467 -0.776745
3.140291 0.588700 -0.778740
1.944166 0.561217 -0.864816
1.987676 0.523098 -0.865304
1.986654 0.489271 -0.863807
1.940202 0.518926 -0.863258
1.945596 0.562565 -0.828905
1.989105 0.524446 -0.829394
1.988084 0.490618 -0.827896
1.941631 0.520273 -0.827348
1.987939 0.522904 -0.865305
2.041114 0.499068 -0.865786
2.042107 0.469745 -0.864329
1.986918 0.489077 -0.863807
1.988940 0.524584 -0.829394
2.042116 0.500747 -0.829875
2.043108 0.471425 -0.828418
1.987919 0.490756 -0.827897
2.041787 0.498910 -0.865785
2.100105 0.495041 -0.865359
2.103554 0.466452 -0.863610
2.042779 0.469587 -0.864328
2.041557 0.500880 -0.829876
2.099876 0.497012 -0.829449
2.103325 0.468422 -0.827700
2.042549 0.471557 -0.828419
2.100177 0.495065 -0.865359
2.166028 0.493433 -0.864620
2.167130 0.464978 -0.863289
2.103626 0.466475 -0.863610
2.099929 0.496983 -0.829447
2.165780 0.495352 -0.828708
2.166882 0.466897 -0.827377
2.103378 0.468394 -0.827699
2.166111 0.493463 -0.864621
2.226621 0.492623 -0.864246
2.235836 0.463964 -0.862544
2.167213 0.465008 -0.863290
2.165826 0.495319 -0.828706
2.226336 0.494478 -0.828331
2.235551 0.465820 -0.826629
2.166929 0.466864 -0.827375
2.226604 0.492342 -0.864229
2.287176 0.491467 -0.864218
2.296738 0.462739 -0.861991
2.235819 0.463684 -0.862528
2.226479 0.494757 -0.828347
2.287050 0.493882 -0.828336
2.296613 0.465154 -0.826109
2.235694 0.466099 -0.826645
2.287118 0.491178 -0.864197
2.347629 0.490248 -0.864443
2.351720 0.461187 -0.861888
2.296681 0.462450 -0.861970
2.287226 0.494169 -0.828357
2.347737 0.493239 -0.828604
2.351828 0.464178 -0.826049
2.296788 0.465441 -0.826130
2.347816 0.490301 -0.864447
2.408204 0.489545 -0.863933
2.407764 0.460499 -0.861799
2.351907 0.461239 -0.861892
2.347666 0.493185 -0.828599
2.408054 0.492429 -0.828086
2.407614 0.463383 -0.825951
2.351757 0.464123 -0.826044
2.408420 0.489689 -0.863943
2.469136 0.488982 -0.863062
2.460380 0.460120 -0.861128
2.407980 0.460643 -0.861808
2.407954 0.492284 -0.828075
2.468670 0.491576 -0.827195
2.459913 0.462714 -0.825260
2.407513 0.463238 -0.825941
2.469061 0.488768 -0.863046
2.534286 0.488689 -0.863122
2.510394 0.459417 -0.860340
2.460304 0.459906 -0.861112
2.468860 0.491789 -0.827210
2.534085 0.491709 -0.827285
2.510192 0.462438 -0.824504
2.460103 0.462927 -0.825275
2.534293 0.488300 -0.863085
2.599593 0.487491 -0.863118
2.592320 0.458788 -0.859817
2.510400 0.459029 -0.860303
2.534210 0.492097 -0.827322
2.599510 0.491288 -0.827355
2.592237 0.462585 -0.824054
2.510317 0.462826 -0.824540
2.599657 0.487199 -0.863084
2.662427 0.486310 -0.863039
2.644597 0.457960 -0.859397
2.592384 0.458497 -0.859783
2.599578 0.491578 -0.827388
2.662348 0.490688 -0.827342
2.644517 0.462339 -0.823701
2.592304 0.462876 -0.824087
2.662427 0.486219 -0.863027
2.725192 0.485303 -0.862974
2.696871 0.457050 -0.859336
2.644596 0.457870 -0.859386
2.662464 0.490777 -0.827353
2.725229 0.489860 -0.827300
2.696908 0.461608 -0.823662
2.644633 0.462428 -0.823712
2.725322 0.485417 -0.862988
2.788173 0.485458 -0.862514
2.759930 0.456145 -0.859340
2.697001 0.457165 -0.859351
2.725219 0.489744 -0.827285
2.788069 0.489784 -0.826811
2.759826 0.460472 -0.823637
2.696897 0.461491 -0.823648
2.788401 0.485667 -0.862536
2.850589 0.489463 -0.861877
2.817286 0.456246 -0.858965
2.760158 0.456354 -0.859362
2.787964 0.489576 -0.826788
2.850151 0.493373 -0.826128
2.816849 0.460156 -0.823217
2.759720 0.460264 -0.823614
2.851212 0.489433 -0.861856
2.910757 0.509254 -0.860806
2.884208 0.464547 -0.857636
2.817909 0.456216 -0.858944
2.849651 0.493419 -0.826148
2.909196 0.513240 -0.825098
2.882647 0.468533 -0.821927
2.816348 0.460202 -0.823236
2.914646 0.509217 -0.860205
2.947513 0.524530 -0.848257
2.947053 0.481729 -0.848282
2.888098 0.464510 -0.857034
2.905415 0.513307 -0.825687
2.938282 0.528619 -0.813739
2.937822 0.485819 -0.813764
2.878867 0.468600 -0.822517
1.940837 0.519274 -0.863281
1.987290 0.489619 -0.863830
1.997159 0.449513 -0.862440
1.944431 0.463984 -0.863234
1.940999 0.519839 -0.827322
1.987452 0.490184 -0.827871
1.997321 0.450078 -0.826481
1.944593 0.464549 -0.827275
1.987069 0.489005 -0.863807
2.042258 0.469673 -0.864329
2.052945 0.439120 -0.862669
1.996938 0.448899 -0.862417
1.987779 0.490761 -0.827893
2.042967 0.471430 -0.828415
2.053655 0.440877 -0.826755
1.997648 0.450656 -0.826503
2.042877 0.469548 -0.864325
2.103653 0.466413 -0.863607
2.113600 0.437351 -0.861726
2.053565 0.438996 -0.862665
2.042463 0.471537 -0.828418
2.103239 0.468402 -0.827700
2.113186 0.439340 -0.825820
2.053151 0.440985 -0.826759
2.103517 0.466373 -0.863605
2.167021 0.464876 -0.863284
2.176054 0.436185 -0.861832
2.113464 0.437311 -0.861725
2.103499 0.468439 -0.827701
2.167003 0.466941 -0.827379
2.176036 0.438251 -0.825928
2.113446 0.439377 -0.825820
2.167280 0.465012 -0.863290
2.235903 0.463968 -0.862544
2.242484 0.435190 -0.860954
2.176313 0.436321 -0.861838
2.166875 0.466803 -0.827373
2.235498 0.465759 -0.826627
2.242079 0.436981 -0.825037
2.175907 0.438112 -0.825921
2.235940 0.463842 -0.862537
2.296859 0.462898 -0.862000
2.308629 0.434479 -0.860161
2.242522 0.435064 -0.860947
2.235591 0.465883 -0.826632
2.296510 0.464938 -0.826096
2.308280 0.436520 -0.824256
2.242173 0.437105 -0.825042
2.296799 0.462667 -0.861986
2.351838 0.461403 -0.861905
2.359794 0.432957 -0.859719
2.308569 0.434248 -0.860146
2.296687 0.465167 -0.826109
2.351727 0.463904 -0.826028
2.359682 0.435458 -0.823842
2.308457 0.436749 -0.824270
2.351870 0.461242 -0.861892
2.407727 0.460502 -0.861799
2.416122 0.431231 -0.859413
2.359826 0.432796 -0.859707
2.351804 0.464063 -0.826039
2.407661 0.463323 -0.825946
2.416056 0.434052 -0.823560
2.359760 0.435617 -0.823854
2.407927 0.460574 -0.861803
2.460327 0.460050 -0.861123
2.467787 0.430819 -0.858986
2.416322 0.431303 -0.859417
2.407569 0.463249 -0.825941
2.459969 0.462726 -0.825261
2.467429 0.433495 -0.823123
2.415964 0.433979 -0.823555
2.460473 0.460129 -0.861127
2.510562 0.459640 -0.860356
2.517222 0.430541 -0.858185
2.467933 0.430898 -0.858990
2.459925 0.462646 -0.825255
2.510015 0.462157 -0.824484
2.516675 0.433058 -0.822314
2.467386 0.433415 -0.823118
2.510524 0.459401 -0.860338
2.592444 0.459161 -0.859851
2.587419 0.429945 -0.857135
2.517185 0.430303 -0.858168
2.510178 0.462395 -0.824500
2.592098 0.462154 -0.824014
2.587073 0.432938 -0.821298
2.516839 0.433296 -0.822330
2.592521 0.458840 -0.859821
2.644734 0.458304 -0.859435
2.652319 0.429321 -0.856214
2.587495 0.429624 -0.857105
2.592156 0.462474 -0.824043
2.644369 0.461938 -0.823657
2.651955 0.432955 -0.820436
2.587131 0.433258 -0.821327
2.644694 0.457970 -0.859398
2.696968 0.457151 -0.859349
2.701566 0.428556 -0.855577
2.652280 0.428988 -0.856177
2.644518 0.462270 -0.823692
2.696793 0.461450 -0.823643
2.701390 0.432856 -0.819871
2.652104 0.433287 -0.820472
2.696888 0.456969 -0.859326
2.759816 0.455949 -0.859315
2.756796 0.427365 -0.855617
2.701485 0.428374 -0.855554
2.696984 0.461630 -0.823666
2.759912 0.460611 -0.823655
2.756892 0.432027 -0.819957
2.701581 0.433036 -0.819893
2.759973 0.456105 -0.859335
2.817101 0.455997 -0.858938
2.819316 0.426557 -0.855572
2.756953 0.427522 -0.855637
2.759874 0.460453 -0.823635
2.817002 0.460345 -0.823238
2.819217 0.430905 -0.819872
2.756854 0.431869 -0.819937
2.817676 0.456247 -0.858957
2.883974 0.464578 -0.857648
2.882597 0.429580 -0.854042
2.819890 0.426808 -0.855591
2.816552 0.460099 -0.823217
2.882851 0.468430 -0.821908
2.881474 0.433432 -0.818303
2.818767 0.430660 -0.819852
2.885751 0.465640 -0.857590
2.944707 0.482859 -0.848837
2.944248 0.440021 -0.848859
2.884374 0.430642 -0.853984
2.881199 0.467388 -0.821958
2.940154 0.484607 -0.813205
2.939695 0.441769 -0.813227
2.879821 0.432390 -0.818352
1.944966 0.463937 -0.863228
1.997695 0.449466 -0.862434
2.006942 0.408993 -0.860824
1.948604 0.408725 -0.863017
1.944071 0.464500 -0.827280
1.996799 0.450030 -0.826485
2.006047 0.409556 -0.824875
1.947709 0.409288 -0.827069
1.997193 0.448821 -0.862417
2.053200 0.439043 -0.862669
2.064734 0.409368 -0.860810
2.006440 0.408348 -0.860807
1.997414 0.450663 -0.826501
2.053421 0.440884 -0.826752
2.064956 0.411209 -0.824894
2.006661 0.410190 -0.824891
2.053629 0.438921 -0.862660
2.113664 0.437277 -0.861721
2.123491 0.408252 -0.859872
2.065163 0.409246 -0.860801
2.053108 0.441000 -0.826760
2.113143 0.439355 -0.825821
2.122970 0.410331 -0.823971
2.064643 0.411325 -0.824901
2.113366 0.437240 -0.861720
2.175956 0.436114 -0.861828
2.181541 0.407818 -0.860328
2.123193 0.408216 -0.859871
2.113560 0.439390 -0.825821
2.176150 0.438264 -0.825929
2.181736 0.409969 -0.824429
2.123388 0.410366 -0.823972
2.176375 0.436200 -0.861831
2.242547 0.435069 -0.860947
2.240321 0.407189 -0.859307
2.181960 0.407905 -0.860331
2.175854 0.438176 -0.825925
2.242026 0.437045 -0.825041
2.239800 0.409164 -0.823401
2.181439 0.409881 -0.824425
2.242563 0.434959 -0.860940
2.308670 0.434374 -0.860154
2.298906 0.406397 -0.858522
2.240337 0.407079 -0.859300
2.242135 0.437153 -0.825046
2.308242 0.436568 -0.824260
2.298478 0.408591 -0.822628
2.239909 0.409273 -0.823406
2.308677 0.434290 -0.860149
2.359902 0.432999 -0.859721
2.357289 0.405672 -0.857827
2.298913 0.406313 -0.858517
2.308353 0.436651 -0.824264
2.359578 0.435360 -0.823836
2.356965 0.408032 -0.821942
2.298589 0.408674 -0.822632
2.359861 0.432916 -0.859716
2.416157 0.431351 -0.859422
2.415611 0.403338 -0.857434
2.357248 0.405588 -0.857822
2.359731 0.435440 -0.823841
2.416028 0.433875 -0.823547
2.415482 0.405862 -0.821559
2.357119 0.408112 -0.821946
2.416224 0.431456 -0.859429
2.467689 0.430973 -0.858997
2.474006 0.400672 -0.857206
2.415677 0.403443 -0.857441
2.416074 0.433767 -0.823539
2.467539 0.433283 -0.823108
2.473857 0.402983 -0.821317
2.415528 0.405754 -0.821552
2.468007 0.431049 -0.858998
2.517297 0.430692 -0.858194
2.532702 0.401316 -0.855991
2.474325 0.400749 -0.857207
2.467329 0.433205 -0.823105
2.516619 0.432848 -0.822301
2.532024 0.403471 -0.820098
2.473647 0.402905 -0.821314
2.517370 0.430379 -0.858171
2.587604 0.430021 -0.857139
2.591029 0.401690 -0.854491
2.532776 0.401002 -0.855968
2.516663 0.433162 -0.822322
2.586897 0.432804 -0.821290
2.590322 0.404473 -0.818642
2.532068 0.403785 -0.820118
2.587584 0.429699 -0.857111
2.652408 0.429396 -0.856220
2.650264 0.400857 -0.853405
2.591009 0.401368 -0.854463
2.587044 0.433126 -0.821315
2.651868 0.432822 -0.820424
2.649724 0.404284 -0.817609
2.590469 0.404794 -0.818667
2.652454 0.429228 -0.856203
2.701740 0.428797 -0.855602
2.708669 0.400274 -0.852348
2.650309 0.400690 -0.853388
2.651938 0.432989 -0.820439
2.701224 0.432558 -0.819839
2.708154 0.404035 -0.816585
2.649794 0.404450 -0.817624
2.701598 0.428419 -0.855559
2.756910 0.427410 -0.855623
2.766977 0.399335 -0.851655
2.708528 0.399896 -0.852305
2.701477 0.432935 -0.819880
2.756788 0.431926 -0.819943
2.766856 0.403851 -0.815976
2.708406 0.404412 -0.816626
2.756828 0.427255 -0.855602
2.819191 0.426291 -0.855538
2.825243 0.397362 -0.851862
2.766896 0.399180 -0.851635
2.756987 0.432078 -0.819964
2.819350 0.431114 -0.819899
2.825402 0.402185 -0.816223
2.767055 0.404004 -0.815996
2.819788 0.426686 -0.855580
2.882495 0.429459 -0.854032
2.884202 0.396706 -0.850547
2.825840 0.397757 -0.851905
2.818873 0.430718 -0.819855
2.881580 0.433491 -0.818306
2.883287 0.400738 -0.814822
2.824925 0.401789 -0.816179
2.883200 0.430654 -0.854096
2.943073 0.440033 -0.848971
2.942578 0.397221 -0.848910
2.884907 0.397902 -0.850611
2.880995 0.432301 -0.818237
2.940869 0.441680 -0.813112
2.940373 0.398868 -0.813052
2.882702 0.399548 -0.814753
1.947664 0.381306 -0.817373
1.948365 0.391884 -0.850608
2.006703 0.392153 -0.848414
2.006014 0.381070 -0.815368
1.947252 0.415491 -0.806210
1.947954 0.426069 -0.839444
2.006292 0.426338 -0.837251
2.005602 0.415255 -0.804204
2.006194 0.381100 -0.815449
2.006883 0.392182 -0.848495
2.065177 0.393202 -0.848498
2.064506 0.382298 -0.815385
2.005539 0.415227 -0.804121
2.006228 0.426309 -0.837168
2.064522 0.427329 -0.837171
2.063851 0.416425 -0.804057
2.064063 0.382269 -0.815301
2.064735 0.393172 -0.848415
2.123062 0.392178 -0.847485
2.122414 0.381423 -0.814224
2.064410 0.416455 -0.804139
2.065082 0.427358 -0.837253
2.123409 0.426365 -0.836323
2.122761 0.415609 -0.803061
2.122462 0.381420 -0.814217
2.123109 0.392176 -0.847478
2.181457 0.391779 -0.847935
2.180871 0.380888 -0.814775
2.122831 0.415611 -0.803068
2.123479 0.426366 -0.836329
2.181826 0.425969 -0.836786
2.181240 0.415078 -0.803626
2.180976 0.380914 -0.814856
2.181563 0.391804 -0.848017
2.239923 0.391088 -0.846993
2.239349 0.380026 -0.813878
2.181252 0.415051 -0.803544
2.181838 0.425942 -0.836704
2.240198 0.425226 -0.835681
2.239625 0.414164 -0.802566
2.239420 0.380041 -0.813925
2.239993 0.391103 -0.847040
2.298563 0.390422 -0.846262
2.297763 0.379340 -0.813149
2.239671 0.414147 -0.802516
2.240245 0.425209 -0.835631
2.298815 0.424527 -0.834853
2.298015 0.413445 -0.801741
2.297840 0.379334 -0.813134
2.298639 0.390416 -0.846246
2.357016 0.389775 -0.845556
2.356223 0.378770 -0.812420
2.298056 0.413450 -0.801755
2.298855 0.424532 -0.834867
2.357231 0.423890 -0.834177
2.356439 0.412886 -0.801041
2.355873 0.378716 -0.812236
2.356666 0.389721 -0.845373
2.415029 0.387471 -0.844986
2.414249 0.377134 -0.811664
2.356906 0.412937 -0.801223
2.357699 0.423941 -0.834359
2.416062 0.421691 -0.833972
2.415282 0.411354 -0.800650
2.414146 0.377026 -0.811305
2.414926 0.387363 -0.844627
2.473255 0.384592 -0.844392
2.472539 0.374987 -0.810826
2.415502 0.411458 -0.801009
2.416282 0.421795 -0.834331
2.474611 0.419024 -0.834096
2.473894 0.409419 -0.800530
2.473409 0.374980 -0.810847
2.474125 0.384585 -0.844413
2.532502 0.385151 -0.843196
2.531790 0.374677 -0.809912
2.473141 0.409424 -0.800507
2.473857 0.419029 -0.834073
2.532234 0.419596 -0.832856
2.531521 0.409122 -0.799572
2.531923 0.374815 -0.810348
2.532636 0.385290 -0.843632
2.590889 0.385977 -0.842155
2.590245 0.374670 -0.809125
2.531504 0.408984 -0.799134
2.532217 0.419458 -0.832418
2.590471 0.420145 -0.830941
2.589827 0.408839 -0.797911
2.590085 0.374723 -0.809286
2.590729 0.386030 -0.842316
2.649984 0.385519 -0.841258
2.648103 0.374434 -0.808179
2.590104 0.408786 -0.797748
2.590748 0.420093 -0.830778
2.650003 0.419582 -0.829720
2.648123 0.408497 -0.796640
2.648146 0.374418 -0.808133
2.650027 0.385504 -0.841212
2.708386 0.385088 -0.840172
2.706533 0.373968 -0.807108
2.648197 0.408511 -0.796684
2.650077 0.419597 -0.829764
2.708437 0.419181 -0.828724
2.706583 0.408061 -0.795659
2.706546 0.373956 -0.807071
2.708399 0.385075 -0.840136
2.766849 0.384515 -0.839486
2.764955 0.373564 -0.806316
2.706687 0.408073 -0.795694
2.708541 0.419192 -0.828759
2.766990 0.418632 -0.828109
2.765096 0.407681 -0.794940
2.764622 0.373511 -0.806138
2.766517 0.384462 -0.839308
2.824864 0.382643 -0.839535
2.823003 0.372274 -0.806194
2.765545 0.407732 -0.795117
2.767440 0.418683 -0.828286
2.825787 0.416864 -0.828513
2.823926 0.406495 -0.795173
2.823314 0.372229 -0.806075
2.825175 0.382599 -0.839415
2.883537 0.381548 -0.838058
2.881259 0.371093 -0.804985
2.823732 0.406536 -0.795291
2.825593 0.416906 -0.828632
2.883955 0.415855 -0.827274
2.881677 0.405400 -0.794202
2.881472 0.371107 -0.805035
2.883750 0.381563 -0.838108
2.941421 0.380882 -0.836407
2.939615 0.370301 -0.803204
2.881580 0.405384 -0.794149
2.883858 0.415839 -0.827221
2.941529 0.415159 -0.825520
2.939723 0.404577 -0.792318
1.751294 0.619225 -0.889331
1.826683 0.619345 -0.871284
1.827017 0.550725 -0.870602
1.754980 0.551885 -0.886959
1.743126 0.619771 -0.854311
1.818515 0.619890 -0.836265
1.818849 0.551271 -0.835582
1.746811 0.552431 -0.851939
1.825460 0.619631 -0.871525
1.901397 0.617824 -0.858928
1.898438 0.548700 -0.860140
1.825793 0.551012 -0.870842
1.819887 0.619601 -0.835995
1.895825 0.617794 -0.823398
1.892865 0.548670 -0.824610
1.820221 0.550981 -0.835313
1.754694 0.551692 -0.887019
1.826731 0.550532 -0.870662
1.827038 0.481916 -0.869810
1.758217 0.484367 -0.883967
1.747101 0.552488 -0.851875
1.819139 0.551328 -0.835518
1.819446 0.482712 -0.834666
1.750624 0.485163 -0.848823
1.825444 0.550915 -0.870894
1.898088 0.548603 -0.860191
1.895117 0.479483 -0.861307
1.825751 0.482299 -0.870041
1.820568 0.550941 -0.835262
1.893212 0.548629 -0.824559
1.890241 0.479509 -0.825675
1.820875 0.482325 -0.834410
1.757883 0.484354 -0.884036
1.826704 0.481903 -0.869879
1.827026 0.413298 -0.869094
1.761518 0.417010 -0.881403
1.750963 0.485040 -0.848751
1.819784 0.482589 -0.834594
1.820106 0.413983 -0.833809
1.754598 0.417695 -0.846117
1.825364 0.482248 -0.870090
1.894730 0.479432 -0.861355
1.891748 0.410298 -0.862482
1.825686 0.413642 -0.869305
1.821259 0.482238 -0.834361
1.890625 0.479422 -0.825626
1.887643 0.410289 -0.826753
1.821581 0.413633 -0.833576
1.759918 0.387824 -0.837234
1.758494 0.400376 -0.869770
1.824001 0.396664 -0.857461
1.824384 0.385933 -0.824440
1.759050 0.421697 -0.825180
1.757626 0.434249 -0.857716
1.823133 0.430537 -0.845407
1.823516 0.419806 -0.812386
1.823739 0.385754 -0.823920
1.823357 0.396485 -0.856942
1.889419 0.393141 -0.850118
1.888702 0.382518 -0.816887
1.824291 0.419979 -0.812886
1.823908 0.430710 -0.845907
1.889971 0.427366 -0.839084
1.889254 0.416743 -0.805853
