-0.573259 0.620480 0.445340
-0.573661 0.549392 0.448259
-0.576680 0.551548 0.501435
-0.658776 0.551882 0.498158
-0.651634 0.549546 0.445164
-0.573326 0.620478 0.445283
-0.576346 0.622634 0.498459
-0.658441 0.622968 0.495182
-0.651299 0.620632 0.442188
-0.651707 0.549552 0.445287
-0.658850 0.551888 0.498281
-0.738140 0.552210 0.495147
-0.729441 0.549663 0.442217
-0.651384 0.620626 0.442059
-0.658526 0.622962 0.495053
-0.737817 0.623284 0.491919
-0.729117 0.620738 0.438989
1.435664 0.344207 0.623752
1.439514 0.353309 0.629698
1.383468 0.374527 0.628323
1.379905 0.365344 0.622667
1.449612 0.377466 0.562421
1.453462 0.386567 0.568367
1.397416 0.407785 0.566992
1.393853 0.398602 0.561337
1.380045 0.365918 0.623003
1.383608 0.375101 0.628659
1.327043 0.396523 0.627287
1.323774 0.387271 0.621889
1.393600 0.398071 0.560998
1.397164 0.407254 0.566654
1.340598 0.428676 0.565282
1.337329 0.419424 0.559884
1.323823 0.387707 0.622122
1.327092 0.396959 0.627520
1.269914 0.418534 0.626064
1.267055 0.409242 0.620855
1.337167 0.419031 0.559649
1.340436 0.428283 0.565046
1.283258 0.449858 0.563591
1.280399 0.440566 0.558381
1.265399 0.406806 0.619091
1.268258 0.416098 0.624301
1.210222 0.436728 0.622004
1.208007 0.427946 0.614679
1.281940 0.443045 0.560140
1.284799 0.452337 0.565349
1.226763 0.472967 0.563052
1.224547 0.464186 0.555727
1.206603 0.423545 0.610986
1.208818 0.432327 0.618311
1.150298 0.453281 0.615983
1.148657 0.444852 0.606824
1.225835 0.468628 0.559413
1.228051 0.477410 0.566738
1.169530 0.498364 0.564410
1.167889 0.489935 0.555252
1.148422 0.443812 0.605785
1.150063 0.452241 0.614943
1.091407 0.474479 0.612473
1.089747 0.465071 0.603314
1.168007 0.491018 0.556285
1.169648 0.499447 0.565444
1.110992 0.521685 0.562973
1.109331 0.512277 0.553815
1.090267 0.465594 0.603998
1.091927 0.475002 0.613156
1.032339 0.496269 0.610875
1.030903 0.486667 0.601646
1.108693 0.511796 0.553126
1.110354 0.521205 0.562285
1.050765 0.542471 0.560003
1.049330 0.532869 0.550775
1.034869 0.486474 0.602576
1.036305 0.496076 0.611805
0.973740 0.509332 0.610762
0.972689 0.500007 0.602768
1.045241 0.533096 0.549842
1.046677 0.542698 0.559070
0.984112 0.555954 0.558027
0.983061 0.546629 0.550033
0.972944 0.501570 0.604118
0.973995 0.510894 0.612111
0.910851 0.524283 0.611046
0.910186 0.515224 0.604304
0.982680 0.545094 0.548683
0.983731 0.554418 0.556676
0.920587 0.567807 0.555611
0.919922 0.558748 0.548869
0.910515 0.517118 0.605745
0.911179 0.526178 0.612487
0.847452 0.539695 0.611457
0.847179 0.530953 0.605918
0.919467 0.556880 0.547427
0.920132 0.565940 0.554169
0.856404 0.579457 0.553139
0.856131 0.570715 0.547600
0.847627 0.533362 0.607484
0.847900 0.542104 0.613023
0.783581 0.555746 0.611959
0.783666 0.547089 0.607572
0.855555 0.568333 0.546032
0.855828 0.577075 0.551571
0.791509 0.590717 0.550507
0.791594 0.582060 0.546121
0.783829 0.549820 0.608994
0.783744 0.558477 0.613380
0.717902 0.563363 0.607551
0.718145 0.552720 0.603114
0.791301 0.579346 0.544693
0.791216 0.588003 0.549080
0.725373 0.592888 0.543251
0.725617 0.582246 0.538814
0.718128 0.554854 0.604009
0.717884 0.565497 0.608446
0.651326 0.569704 0.602233
0.651799 0.557761 0.598118
0.725502 0.580119 0.537907
0.725258 0.590761 0.542344
0.658700 0.594969 0.536131
0.659173 0.583026 0.532016
0.651802 0.559512 0.598735
0.651329 0.571455 0.602850
0.584133 0.575692 0.596695
0.584869 0.562480 0.592809
0.659037 0.581282 0.531386
0.658564 0.593225 0.535501
0.591368 0.597462 0.529346
0.592105 0.584249 0.525460
0.584853 0.563932 0.593243
0.584117 0.577145 0.597129
0.516298 0.581415 0.590911
0.517292 0.566888 0.587306
0.591986 0.582804 0.525015
0.591250 0.596016 0.528901
0.523431 0.600286 0.522683
0.524425 0.585759 0.519077
0.517277 0.568256 0.587653
0.516283 0.582783 0.591259
0.447831 0.587075 0.584981
0.449082 0.571224 0.581702
0.524304 0.584398 0.518717
0.523310 0.598925 0.522323
0.454858 0.603217 0.516045
0.456108 0.587367 0.512766
0.449081 0.572428 0.581962
0.447830 0.588278 0.585241
0.378733 0.592600 0.578974
0.380242 0.575410 0.575990
0.455972 0.586171 0.512494
0.454721 0.602021 0.515773
0.385625 0.606342 0.509506
0.387134 0.589153 0.506522
0.380843 0.576180 0.576187
0.379335 0.593370 0.579171
0.309619 0.596152 0.574019
0.311287 0.578340 0.571140
0.386393 0.588389 0.506314
0.384885 0.605578 0.509297
0.315168 0.608360 0.504146
0.316837 0.590548 0.501267
0.312606 0.578380 0.571226
0.310938 0.596191 0.574105
0.240162 0.595717 0.571362
0.242208 0.578601 0.568340
0.315377 0.590510 0.501173
0.313709 0.608322 0.504053
0.242933 0.607848 0.501310
0.244979 0.590732 0.498288
0.242147 0.578046 0.568237
0.240101 0.595161 0.571259
0.168643 0.594677 0.568494
0.171127 0.578268 0.565339
0.244898 0.591288 0.498386
0.242853 0.608403 0.501408
0.171394 0.607920 0.498643
0.173878 0.591510 0.495488
0.171070 0.577660 0.565216
0.168586 0.594069 0.568371
0.096500 0.593575 0.565606
0.099297 0.577877 0.562299
0.173792 0.592118 0.495605
0.171308 0.608527 0.498760
0.099222 0.608033 0.495995
0.102019 0.592335 0.492688
0.099227 0.577222 0.562154
0.096430 0.592920 0.565461
0.023697 0.592423 0.562651
0.026814 0.577442 0.559212
0.101944 0.592990 0.492827
0.099147 0.608688 0.496135
0.026415 0.608192 0.493325
0.029532 0.593211 0.489886
0.026749 0.576769 0.559049
0.023632 0.591750 0.562488
-0.049797 0.591243 0.559641
-0.046322 0.576979 0.556085
0.029451 0.593884 0.490043
0.026334 0.608865 0.493482
-0.047095 0.608358 0.490635
-0.043619 0.594094 0.487079
-0.046387 0.576253 0.555894
-0.049863 0.590516 0.559451
-0.124027 0.590006 0.556577
-0.120110 0.576467 0.552900
-0.043702 0.594820 0.487264
-0.047177 0.609084 0.490820
-0.121341 0.608573 0.487946
-0.117424 0.595034 0.484270
-0.120171 0.575645 0.552665
-0.124088 0.589184 0.556342
-0.198903 0.588666 0.553455
-0.194600 0.575862 0.549641
-0.117512 0.595856 0.484499
-0.121429 0.609394 0.488176
-0.196244 0.608877 0.485288
-0.191941 0.596073 0.481475
-0.194666 0.574941 0.549352
-0.198969 0.587744 0.553165
-0.274528 0.587229 0.550241
-0.269815 0.575165 0.546293
-0.192026 0.596994 0.481759
-0.196329 0.609798 0.485572
-0.271887 0.609283 0.482648
-0.267174 0.597219 0.478700
-0.269873 0.574127 0.545934
-0.274586 0.586191 0.549882
-0.350826 0.585670 0.546945
-0.345718 0.574360 0.542843
-0.267267 0.598258 0.479053
-0.271980 0.610322 0.483001
-0.348220 0.609801 0.480064
-0.343113 0.598491 0.475962
-0.345776 0.573207 0.542402
-0.350883 0.584516 0.546504
-0.427821 0.583990 0.543529
-0.422333 0.573434 0.539286
-0.343208 0.599644 0.476397
-0.348316 0.610954 0.480499
-0.425254 0.610427 0.477525
-0.419766 0.599871 0.473281
-0.422379 0.572144 0.538738
-0.427867 0.582700 0.542981
-0.505543 0.582161 0.540006
-0.499663 0.572378 0.535597
-0.419874 0.601160 0.473823
-0.425362 0.611716 0.478067
-0.503038 0.611178 0.475091
-0.497158 0.601394 0.470682
-0.499716 0.570986 0.534936
-0.505595 0.580769 0.539345
-0.583955 0.580222 0.536304
-0.577665 0.571197 0.531778
-0.497262 0.602786 0.471337
-0.503142 0.612570 0.475746
-0.581501 0.612022 0.472705
-0.575212 0.602997 0.468179
-0.577833 0.570394 0.531357
-0.584122 0.579419 0.535883
-0.663828 0.579696 0.532706
-0.659928 0.570727 0.528081
-0.575203 0.603800 0.468594
-0.581493 0.612825 0.473120
-0.661198 0.613103 0.469942
-0.657299 0.604134 0.465317
-0.660010 0.570742 0.528085
-0.663910 0.579711 0.532710
-0.743715 0.580048 0.529523
-0.739301 0.571064 0.524951
-0.657378 0.604120 0.465307
-0.661277 0.613089 0.469932
-0.741083 0.613426 0.466745
-0.736668 0.604442 0.462173
1.445420 0.369488 0.634590
1.455869 0.415306 0.635557
1.399550 0.435767 0.634094
1.389374 0.390706 0.633216
1.447570 0.370443 0.563481
1.458019 0.416261 0.564447
1.401700 0.436722 0.562984
1.391524 0.391661 0.562106
1.389342 0.390786 0.633216
1.399518 0.435847 0.634094
1.342862 0.456312 0.632614
1.332777 0.412208 0.631844
1.391443 0.391622 0.562103
1.401619 0.436684 0.562981
1.344963 0.457148 0.561501
1.334878 0.413045 0.560731
1.332713 0.412293 0.631843
1.342798 0.456396 0.632613
1.285588 0.476710 0.631084
1.275535 0.433868 0.630387
1.334828 0.413002 0.560729
1.344913 0.457106 0.561499
1.287703 0.477420 0.559970
1.277650 0.434578 0.559274
1.275052 0.433999 0.630371
1.285105 0.476841 0.631068
1.227230 0.496693 0.628808
1.217016 0.454628 0.628074
1.278017 0.434488 0.559286
1.288071 0.477331 0.559982
1.230196 0.497182 0.557723
1.219982 0.455118 0.556989
1.216938 0.454631 0.628071
1.227152 0.496696 0.628805
1.168683 0.516445 0.626487
1.158417 0.475585 0.625742
1.219943 0.455156 0.556987
1.230158 0.497220 0.557721
1.171689 0.516970 0.555403
1.161423 0.476110 0.554659
1.158248 0.475704 0.625736
1.168514 0.516564 0.626480
1.109487 0.536220 0.623801
1.099592 0.497942 0.623265
1.161475 0.476032 0.554661
1.171740 0.516892 0.555405
1.112713 0.536548 0.552727
1.102819 0.498270 0.552190
1.099701 0.498138 0.623270
1.109596 0.536416 0.623807
1.049561 0.554555 0.621214
1.040113 0.519405 0.620989
1.102590 0.498114 0.552180
1.112485 0.536393 0.552717
1.052450 0.554532 0.550124
1.043002 0.519381 0.549899
1.040891 0.519340 0.621011
1.050340 0.554490 0.621236
0.988641 0.568902 0.620219
0.978326 0.532596 0.619968
1.042102 0.519480 0.549873
1.051550 0.554630 0.550098
0.989851 0.569042 0.549081
0.979537 0.532735 0.548830
0.978262 0.532581 0.619967
0.988576 0.568888 0.620218
0.925879 0.581703 0.619208
0.915118 0.545970 0.618901
0.979476 0.532777 0.548829
0.989791 0.569084 0.549080
0.927093 0.581899 0.548070
0.916332 0.546166 0.547763
0.915078 0.545895 0.618900
0.925840 0.581629 0.619207
0.862351 0.593407 0.618284
0.851351 0.559412 0.617870
0.916245 0.546266 0.547762
0.927006 0.582000 0.548069
0.863517 0.593778 0.547145
0.852517 0.559783 0.546732
0.851246 0.559334 0.617868
0.862247 0.593329 0.618281
0.797968 0.603520 0.617277
0.786927 0.572976 0.616804
0.852493 0.559886 0.546732
0.863493 0.593880 0.547146
0.799215 0.604071 0.546141
0.788174 0.573527 0.545668
0.784534 0.573398 0.616684
0.795575 0.603942 0.617157
0.730332 0.610220 0.612029
0.718691 0.578283 0.610855
0.790437 0.573123 0.545781
0.801478 0.603667 0.546254
0.736235 0.609945 0.541126
0.724595 0.578008 0.539952
0.718273 0.578033 0.610818
0.729914 0.609970 0.611992
0.664082 0.614215 0.605883
0.651715 0.582241 0.604605
0.724881 0.578268 0.539977
0.736522 0.610205 0.541151
0.670690 0.614450 0.535042
0.658323 0.582475 0.533764
0.651717 0.582150 0.604605
0.664084 0.614125 0.605883
0.598081 0.617526 0.599917
0.584521 0.586387 0.598450
0.658188 0.582574 0.533752
0.670555 0.614548 0.535030
0.604553 0.617950 0.529065
0.590993 0.586811 0.527597
0.584457 0.586262 0.598443
0.598017 0.617401 0.599910
0.533011 0.620377 0.594076
0.516639 0.590532 0.592225
0.590923 0.586943 0.527592
0.604483 0.618082 0.529059
0.539477 0.621058 0.523225
0.523105 0.591213 0.521374
0.516538 0.590458 0.592215
0.532910 0.620302 0.594066
0.472218 0.622822 0.588508
0.448086 0.594750 0.585937
0.523074 0.591294 0.521372
0.539447 0.621139 0.523223
0.478754 0.623659 0.517665
0.454622 0.595587 0.515094
0.448080 0.594708 0.585936
0.472212 0.622780 0.588507
0.426509 0.624193 0.584358
0.454541 0.595642 0.515088
0.478673 0.623714 0.517658
0.432971 0.625126 0.513509
0.448030 0.594683 0.585932
0.426460 0.624167 0.584353
0.364862 0.626257 0.578771
0.378934 0.599004 0.579664
0.454501 0.595661 0.515084
0.432931 0.625146 0.513506
0.371333 0.627236 0.507924
0.385405 0.599983 0.508817
0.379623 0.598959 0.579719
0.365551 0.626213 0.578826
0.298327 0.627743 0.574474
0.309907 0.601741 0.574568
0.384582 0.600033 0.508752
0.370510 0.627286 0.507858
0.303285 0.628817 0.503506
0.314866 0.602814 0.503600
0.310943 0.601795 0.574625
0.299362 0.627798 0.574531
0.229783 0.628172 0.571845
0.240167 0.601321 0.571882
0.313691 0.602762 0.503536
0.302111 0.628764 0.503442
0.232532 0.629139 0.500756
0.242916 0.602288 0.500793
0.240101 0.601317 0.571880
0.229717 0.628168 0.571843
0.158936 0.628172 0.569121
0.168643 0.600833 0.569115
0.242840 0.602292 0.500790
0.232456 0.629142 0.500753
0.161675 0.629147 0.498031
0.171382 0.601808 0.498025
0.168583 0.600826 0.569112
0.158876 0.628165 0.569118
0.087219 0.628043 0.566382
0.096497 0.600331 0.566347
0.171299 0.601815 0.498022
0.161592 0.629154 0.498028
0.089935 0.629033 0.495292
0.099213 0.601320 0.495257
0.096412 0.600324 0.566344
0.087134 0.628036 0.566379
0.014746 0.627865 0.563584
0.023680 0.599827 0.563534
0.099153 0.601327 0.495255
0.089875 0.629039 0.495290
0.017487 0.628869 0.492495
0.026420 0.600831 0.492445
0.023592 0.599851 0.563531
0.014658 0.627889 0.563581
-0.058423 0.627701 0.560709
-0.049837 0.599344 0.560684
0.026362 0.600807 0.492443
0.017428 0.628844 0.492493
-0.055653 0.628657 0.489621
-0.047067 0.600300 0.489596
-0.049906 0.599387 0.560682
-0.058492 0.627744 0.560707
-0.132271 0.627543 0.557829
-0.124070 0.598876 0.557808
-0.047146 0.600256 0.489592
-0.055732 0.628613 0.489617
-0.129511 0.628412 0.486739
-0.121310 0.599745 0.486718
-0.124139 0.598906 0.557806
-0.132340 0.627573 0.557827
-0.206805 0.627372 0.554934
-0.198954 0.598388 0.554919
-0.121390 0.599715 0.486715
-0.129591 0.628382 0.486736
-0.204056 0.628181 0.483843
-0.196206 0.599197 0.483828
-0.199025 0.598395 0.554916
-0.206875 0.627379 0.554931
-0.282022 0.627180 0.552039
-0.274583 0.597880 0.551993
-0.196285 0.599189 0.483825
-0.204136 0.628173 0.483839
-0.279282 0.627974 0.480948
-0.271844 0.598674 0.480901
-0.274659 0.597881 0.551990
-0.282098 0.627181 0.552037
-0.357944 0.626986 0.549102
-0.350900 0.597361 0.549052
-0.271919 0.598672 0.480898
-0.279357 0.627972 0.480945
-0.355203 0.627777 0.478011
-0.348159 0.598151 0.477961
-0.350971 0.597356 0.549050
-0.358016 0.626981 0.549100
-0.434556 0.626791 0.546169
-0.427909 0.596829 0.546075
-0.348240 0.598155 0.477958
-0.355284 0.627781 0.478008
-0.431825 0.627591 0.475078
-0.425178 0.597629 0.474983
-0.427986 0.596830 0.546072
-0.434633 0.626792 0.546167
-0.511869 0.626623 0.543184
-0.505662 0.596292 0.543097
-0.425255 0.597627 0.474980
-0.431902 0.627588 0.475075
-0.509138 0.627419 0.472092
-0.502931 0.597088 0.472005
-0.505751 0.596305 0.543093
-0.511958 0.626636 0.543181
-0.589924 0.626547 0.540161
-0.584110 0.595757 0.540052
-0.502998 0.597074 0.472002
-0.509205 0.627405 0.472089
-0.587171 0.627316 0.469069
-0.581357 0.596526 0.468961
-0.584248 0.595791 0.540047
-0.590062 0.626581 0.540156
-0.668782 0.626754 0.536938
-0.663954 0.596069 0.536870
-0.581377 0.596492 0.468960
-0.587190 0.627282 0.469068
-0.665911 0.627455 0.465850
-0.661082 0.596770 0.465783
-0.664025 0.596134 0.536868
-0.668853 0.626820 0.536936
-0.747518 0.627077 0.533763
-0.743831 0.596472 0.533681
-0.661170 0.596705 0.465778
-0.665998 0.627390 0.465846
-0.744663 0.627647 0.462674
-0.740976 0.597042 0.462592
1.455847 0.415383 0.635557
1.466297 0.461205 0.636491
1.410020 0.480910 0.634951
1.399528 0.435844 0.634094
1.458061 0.416274 0.564448
1.468511 0.462096 0.565382
1.412234 0.481802 0.563843
1.401742 0.436736 0.562985
1.399488 0.435909 0.634093
1.409980 0.480975 0.634951
1.353378 0.500647 0.633410
1.342832 0.456373 0.632614
1.401669 0.436712 0.562983
1.412161 0.481778 0.563840
1.355560 0.501450 0.562299
1.345013 0.457176 0.561503
1.342767 0.456452 0.632612
1.353313 0.500725 0.633409
1.296142 0.520103 0.631785
1.285557 0.476766 0.631083
1.344965 0.457137 0.561501
1.355511 0.501411 0.562297
1.298340 0.520789 0.560673
1.287755 0.477452 0.559972
1.285144 0.476885 0.631070
1.295729 0.520222 0.631771
1.237846 0.538933 0.629560
1.227269 0.496737 0.628810
1.288052 0.477372 0.559982
1.298637 0.520709 0.560683
1.240754 0.539419 0.558472
1.230177 0.497224 0.557722
1.227175 0.496725 0.628806
1.237752 0.538921 0.629556
1.179253 0.557467 0.627266
1.168706 0.516474 0.626488
1.230155 0.497274 0.557722
1.240732 0.539470 0.558471
1.182233 0.558016 0.556182
1.171686 0.517023 0.555404
1.168419 0.516615 0.626476
1.178966 0.557607 0.627254
1.119924 0.576113 0.624387
1.109392 0.536271 0.623797
1.171856 0.516921 0.555411
1.182403 0.557914 0.556189
1.123361 0.576419 0.553322
1.112829 0.536577 0.552732
1.109438 0.536474 0.623800
1.119970 0.576316 0.624389
1.060034 0.593532 0.621507
1.049404 0.554613 0.621207
1.112663 0.536411 0.552724
1.123195 0.576252 0.553314
1.063259 0.593468 0.550431
1.052629 0.554550 0.550131
1.050341 0.554499 0.621236
1.060971 0.593417 0.621536
0.999446 0.606860 0.620502
0.988642 0.568911 0.620219
1.051569 0.554695 0.550098
1.062200 0.593614 0.550398
1.000675 0.607056 0.549364
0.989871 0.569108 0.549081
0.988608 0.568906 0.620219
0.999413 0.606855 0.620501
0.936887 0.618520 0.619529
0.925911 0.581722 0.619209
0.989780 0.569139 0.549080
1.000584 0.607088 0.549363
0.938059 0.618753 0.548391
0.927083 0.581954 0.548070
0.925885 0.581714 0.619208
0.936861 0.618512 0.619529
0.873556 0.629118 0.618583
0.862396 0.593492 0.618285
0.926982 0.581986 0.548068
0.937958 0.618785 0.548389
0.874653 0.629390 0.547443
0.863493 0.593764 0.547145
0.862315 0.593497 0.618284
0.873474 0.629123 0.618581
0.809419 0.638235 0.617619
0.798036 0.603688 0.617279
0.863447 0.593780 0.547144
0.874607 0.629406 0.547442
0.810552 0.638518 0.546480
0.799169 0.603971 0.546140
0.795948 0.603994 0.617186
0.807330 0.638541 0.617526
0.742403 0.644253 0.613098
0.730705 0.610273 0.612057
0.801128 0.603680 0.546227
0.812511 0.638227 0.546567
0.747583 0.643938 0.542139
0.735885 0.609958 0.541098
0.729977 0.610083 0.611998
0.741675 0.644063 0.613039
0.676143 0.647164 0.607094
0.664145 0.614328 0.605889
0.736482 0.610157 0.541147
0.748180 0.644137 0.542188
0.682649 0.647238 0.536243
0.670651 0.614402 0.535038
0.664134 0.614215 0.605888
0.676132 0.647050 0.607092
0.610298 0.649183 0.601179
0.598131 0.617616 0.599922
0.670531 0.614523 0.535028
0.682529 0.647359 0.536232
0.616696 0.649491 0.530320
0.604528 0.617924 0.529062
0.598103 0.617514 0.599919
0.610271 0.649081 0.601176
0.544904 0.650792 0.595416
0.533097 0.620490 0.594084
0.604424 0.618031 0.529054
0.616592 0.649598 0.530311
0.551225 0.651309 0.524551
0.539418 0.621006 0.523219
0.532956 0.620415 0.594071
0.544762 0.650717 0.595403
0.481236 0.652114 0.589644
0.472263 0.622935 0.588513
0.539432 0.621085 0.523221
0.551238 0.651388 0.524553
0.487712 0.652784 0.518793
0.478739 0.623605 0.517663
0.472235 0.622853 0.588510
0.481207 0.652033 0.589640
0.420734 0.653076 0.584202
0.426533 0.624266 0.584361
0.478652 0.623689 0.517656
0.487625 0.652868 0.518786
0.427151 0.653912 0.513348
0.432950 0.625101 0.513507
0.426471 0.624202 0.584354
0.420673 0.653013 0.584196
0.356134 0.654084 0.578384
0.364873 0.626292 0.578773
0.432895 0.625168 0.513503
0.427096 0.653978 0.513344
0.362557 0.655050 0.507533
0.371297 0.627258 0.507921
0.365829 0.626297 0.578845
0.357089 0.654089 0.578457
0.289399 0.654944 0.574515
0.298604 0.627828 0.574494
0.370211 0.627256 0.507838
0.361471 0.655047 0.507450
0.293781 0.655902 0.503508
0.302986 0.628786 0.503486
0.299348 0.627821 0.574531
0.290143 0.654938 0.574553
0.220679 0.655404 0.571857
0.229769 0.628196 0.571845
0.302105 0.628794 0.503442
0.292900 0.655910 0.503464
0.223436 0.656376 0.500768
0.232526 0.629168 0.500756
0.229709 0.628212 0.571843
0.220619 0.655420 0.571855
0.150069 0.655682 0.569142
0.158928 0.628216 0.569121
0.232445 0.629153 0.500753
0.223355 0.656361 0.500765
0.152804 0.656623 0.498052
0.161664 0.629157 0.498031
0.158869 0.628221 0.569119
0.150009 0.655687 0.569140
0.078637 0.655853 0.566420
0.087212 0.628100 0.566382
0.161581 0.629153 0.498028
0.152722 0.656618 0.498049
0.081349 0.656785 0.495329
0.089924 0.629031 0.495292
0.087121 0.628104 0.566379
0.078546 0.655858 0.566416
0.006452 0.655992 0.563619
0.014732 0.627934 0.563585
0.089871 0.629027 0.495289
0.081297 0.656780 0.495327
0.009203 0.656915 0.492530
0.017483 0.628856 0.492495
0.014635 0.627947 0.563581
0.006356 0.656006 0.563616
-0.066433 0.656121 0.560744
-0.058446 0.627760 0.560709
0.017434 0.628842 0.492493
0.009154 0.656901 0.492528
-0.063634 0.657016 0.489656
-0.055647 0.628654 0.489621
-0.058511 0.627786 0.560707
-0.066498 0.656147 0.560742
-0.139964 0.656258 0.557857
-0.132290 0.627585 0.557829
-0.055729 0.628628 0.489618
-0.063716 0.656990 0.489652
-0.137182 0.657100 0.486767
-0.129509 0.628427 0.486739
-0.132353 0.627600 0.557826
-0.140026 0.656273 0.557855
-0.214149 0.656383 0.554982
-0.206817 0.627399 0.554933
-0.129594 0.628412 0.486736
-0.137268 0.657085 0.486764
-0.211391 0.657195 0.483891
-0.204059 0.628211 0.483843
-0.206883 0.627409 0.554931
-0.214215 0.656393 0.554979
-0.289017 0.656509 0.552090
-0.282029 0.627210 0.552040
-0.204143 0.628202 0.483839
-0.211475 0.657186 0.483888
-0.286276 0.657303 0.480998
-0.279289 0.628003 0.480948
-0.282102 0.627203 0.552037
-0.289090 0.656502 0.552087
-0.364587 0.656623 0.549197
-0.357948 0.627007 0.549103
-0.279367 0.628010 0.480945
-0.286354 0.657310 0.480995
-0.361852 0.657431 0.478105
-0.355213 0.627815 0.478011
-0.358024 0.627010 0.549100
-0.364663 0.656626 0.549194
-0.440844 0.656754 0.546249
-0.434564 0.626820 0.546169
-0.355289 0.627812 0.478008
-0.361928 0.657428 0.478102
-0.438110 0.657555 0.475158
-0.431830 0.627621 0.475078
-0.434646 0.626838 0.546167
-0.440926 0.656772 0.546246
-0.517784 0.656914 0.543282
-0.511881 0.626668 0.543184
-0.431902 0.627603 0.475075
-0.438182 0.657537 0.475155
-0.515040 0.657680 0.472190
-0.509138 0.627434 0.472092
-0.511963 0.626666 0.543181
-0.517866 0.656913 0.543279
-0.595411 0.657096 0.540279
-0.589929 0.626577 0.540161
-0.509211 0.627436 0.472089
-0.515113 0.657682 0.472188
-0.592659 0.657866 0.469188
-0.587177 0.627346 0.469070
-0.590080 0.626551 0.540155
-0.595562 0.657070 0.540273
-0.673674 0.657314 0.537102
-0.668801 0.626725 0.536937
-0.587182 0.627372 0.469070
-0.592664 0.657892 0.469188
-0.670776 0.658135 0.466017
-0.665903 0.627546 0.465852
-0.668879 0.626749 0.536934
-0.673752 0.657338 0.537099
-0.751231 0.657610 0.533913
-0.747544 0.627006 0.533761
-0.665981 0.627522 0.465848
-0.670854 0.658111 0.466014
-0.748334 0.658384 0.462827
-0.744646 0.627779 0.462676
1.466294 0.461301 0.636492
1.476747 0.507125 0.637346
1.420869 0.526094 0.635780
1.410017 0.481007 0.634953
1.468535 0.462091 0.565383
1.478988 0.507915 0.566237
1.423110 0.526884 0.564670
1.412258 0.481796 0.563843
1.409974 0.481046 0.634952
1.420826 0.526133 0.635779
1.364441 0.545284 0.634213
1.353373 0.500717 0.633411
1.412188 0.481797 0.563841
1.423040 0.526884 0.564668
1.366655 0.546035 0.563102
1.355586 0.501468 0.562300
1.353280 0.500785 0.633408
1.364348 0.545351 0.634210
1.307257 0.564160 0.632513
1.296109 0.520162 0.631784
1.355566 0.501440 0.562299
1.366634 0.546006 0.563101
1.309543 0.564815 0.561404
1.298395 0.520818 0.560675
1.295765 0.520278 0.631773
1.306914 0.564275 0.632501
1.248765 0.581344 0.630280
1.237882 0.538988 0.629562
1.298623 0.520739 0.560683
1.309772 0.564737 0.561411
1.251623 0.581806 0.559190
1.240740 0.539450 0.558472
1.237802 0.538975 0.629558
1.248685 0.581330 0.630277
1.190011 0.598559 0.628047
1.179303 0.557521 0.627269
1.240704 0.539499 0.558471
1.251587 0.581855 0.559189
1.192913 0.599083 0.556959
1.182205 0.558045 0.556181
1.178880 0.557674 0.627250
1.189587 0.598712 0.628028
1.130760 0.617318 0.625005
1.119837 0.576179 0.624383
1.182511 0.557929 0.556194
1.193218 0.598967 0.556972
1.134391 0.617573 0.553950
1.123468 0.576434 0.553327
1.119829 0.576345 0.624383
1.130752 0.617483 0.625005
1.071419 0.636268 0.621946
1.059893 0.593560 0.621500
1.123358 0.576305 0.553322
1.134280 0.617444 0.553944
1.074948 0.636228 0.550885
1.063421 0.593521 0.550439
1.060935 0.593408 0.621536
1.072461 0.636116 0.621981
1.010557 0.646572 0.620818
0.999410 0.606851 0.620501
1.062258 0.593702 0.550400
1.073785 0.636410 0.550845
1.011881 0.646866 0.549682
1.000733 0.607145 0.549365
0.999433 0.606890 0.620502
1.010580 0.646611 0.620818
0.947912 0.656392 0.619832
0.936907 0.618556 0.619530
1.000586 0.607129 0.549363
1.011734 0.646849 0.549679
0.949066 0.656631 0.548693
0.938060 0.618794 0.548391
0.936865 0.618572 0.619529
0.947870 0.656409 0.619832
0.884637 0.666288 0.618864
0.873559 0.629178 0.618583
0.937977 0.618799 0.548389
0.948982 0.656635 0.548692
0.885750 0.666515 0.547725
0.874672 0.629404 0.547443
0.873498 0.629207 0.618582
0.884576 0.666317 0.618864
0.820768 0.676287 0.617885
0.809443 0.638319 0.617620
0.874606 0.629395 0.547442
0.885684 0.666505 0.547724
0.821875 0.676475 0.546746
0.810550 0.638507 0.546480
0.807693 0.638547 0.617551
0.819018 0.676515 0.617817
0.754303 0.680832 0.614033
0.742766 0.644258 0.613123
0.812171 0.638293 0.546544
0.823496 0.676262 0.546809
0.758780 0.680578 0.543026
0.747243 0.644005 0.542116
0.741766 0.644183 0.613047
0.753303 0.680757 0.613957
0.687794 0.681081 0.608163
0.676235 0.647284 0.607102
0.748112 0.644086 0.542182
0.759649 0.680660 0.543092
0.694139 0.680983 0.537298
0.682581 0.647187 0.536237
0.676183 0.647154 0.607097
0.687741 0.680951 0.608159
0.621639 0.681270 0.602313
0.610349 0.649287 0.601184
0.682501 0.647320 0.536230
0.694060 0.681116 0.537291
0.627958 0.681435 0.531446
0.616668 0.649452 0.530317
0.610320 0.649214 0.601182
0.621610 0.681197 0.602311
0.554910 0.681509 0.596442
0.544953 0.650925 0.595422
0.616565 0.649528 0.530308
0.627855 0.681511 0.531437
0.561155 0.681822 0.525568
0.551198 0.651239 0.524548
0.544834 0.650849 0.595411
0.554790 0.681433 0.596431
0.487487 0.681739 0.590474
0.481307 0.652245 0.589651
0.551186 0.651316 0.524547
0.561143 0.681900 0.525568
0.493839 0.682207 0.519611
0.487659 0.652713 0.518788
0.481247 0.652111 0.589645
0.487428 0.681605 0.590467
0.419520 0.681893 0.584431
0.420774 0.653154 0.584206
0.487589 0.652848 0.518783
0.493769 0.682343 0.519605
0.425861 0.682630 0.513569
0.427115 0.653892 0.513345
0.420709 0.653046 0.584199
0.419455 0.681785 0.584424
0.350931 0.682068 0.578347
0.356170 0.654118 0.578388
0.427050 0.654001 0.513340
0.425795 0.682740 0.513564
0.357271 0.683023 0.507488
0.362510 0.655073 0.507529
0.357262 0.654116 0.578468
0.352023 0.682066 0.578427
0.282749 0.682432 0.574633
0.289572 0.654971 0.574526
0.361283 0.655076 0.507439
0.356043 0.683026 0.507398
0.286769 0.683392 0.503605
0.293592 0.655931 0.503497
0.290131 0.654969 0.574552
0.283307 0.682430 0.574660
0.213298 0.682842 0.571943
0.220667 0.655435 0.571857
0.292896 0.655934 0.503464
0.286072 0.683395 0.503571
0.216063 0.683807 0.500854
0.223432 0.656400 0.500768
0.220603 0.655456 0.571855
0.213235 0.682863 0.571940
0.142627 0.683269 0.569198
0.150052 0.655718 0.569142
0.223355 0.656380 0.500765
0.215987 0.683787 0.500851
0.145379 0.684193 0.498108
0.152804 0.656642 0.498053
0.149992 0.655766 0.569140
0.142566 0.683317 0.569196
0.071340 0.683727 0.566445
0.078620 0.655932 0.566420
0.152723 0.656595 0.498049
0.145297 0.684145 0.498104
0.074071 0.684556 0.495353
0.081351 0.656761 0.495328
0.078533 0.655957 0.566417
0.071253 0.683751 0.566442
-0.000617 0.684163 0.563652
0.006439 0.656091 0.563620
0.081294 0.656738 0.495326
0.074014 0.684532 0.495351
0.002144 0.684944 0.492561
0.009201 0.656872 0.492529
0.006347 0.656083 0.563616
-0.000710 0.684155 0.563649
-0.073284 0.684569 0.560798
-0.066442 0.656198 0.560744
0.009148 0.656881 0.492527
0.002092 0.684953 0.492559
-0.070482 0.685367 0.489709
-0.063641 0.656996 0.489655
-0.066508 0.656187 0.560742
-0.073350 0.684559 0.560796
-0.146577 0.684974 0.557933
-0.139975 0.656298 0.557857
-0.063720 0.657007 0.489652
-0.070562 0.685378 0.489706
-0.143789 0.685793 0.486844
-0.137186 0.657117 0.486768
-0.140035 0.656303 0.557855
-0.146638 0.684978 0.557931
-0.220457 0.685401 0.555061
-0.214158 0.656413 0.554982
-0.137273 0.657113 0.486764
-0.143875 0.685789 0.486840
-0.217694 0.686211 0.483971
-0.211396 0.657223 0.483891
-0.214223 0.656417 0.554979
-0.220521 0.685405 0.555059
-0.295013 0.685833 0.552194
-0.289025 0.656534 0.552090
-0.211480 0.657220 0.483888
-0.217779 0.686207 0.483967
-0.292270 0.686636 0.481103
-0.286282 0.657337 0.480998
-0.289092 0.656538 0.552087
-0.295081 0.685837 0.552192
-0.370293 0.686271 0.549304
-0.364590 0.656659 0.549197
-0.286364 0.657333 0.480995
-0.292352 0.686633 0.481100
-0.367564 0.687067 0.478212
-0.361862 0.657454 0.478105
-0.364675 0.656663 0.549194
-0.370378 0.686275 0.549300
-0.446270 0.686708 0.546373
-0.440857 0.656790 0.546249
-0.361928 0.657451 0.478103
-0.367630 0.687064 0.478209
-0.443522 0.687496 0.475282
-0.438109 0.657579 0.475158
-0.440934 0.656795 0.546246
-0.446347 0.686712 0.546371
-0.522882 0.687144 0.543411
-0.517792 0.656938 0.543282
-0.438185 0.657574 0.475155
-0.443599 0.687492 0.475279
-0.520134 0.687924 0.472320
-0.515044 0.657717 0.472191
-0.517870 0.656943 0.543279
-0.522961 0.687150 0.543408
-0.600268 0.687583 0.540422
-0.595416 0.657127 0.540280
-0.515119 0.657712 0.472188
-0.520210 0.687918 0.472317
-0.597517 0.688351 0.469330
-0.592665 0.657896 0.469188
-0.595560 0.657108 0.540274
-0.600411 0.687564 0.540416
-0.679156 0.687905 0.537234
-0.673671 0.657352 0.537103
-0.592677 0.657915 0.469188
-0.597529 0.688371 0.469330
-0.676274 0.688711 0.466148
-0.670789 0.658158 0.466017
-0.673763 0.657323 0.537098
-0.679248 0.687876 0.537230
-0.754934 0.688199 0.534149
-0.751243 0.657595 0.533912
-0.670852 0.658188 0.466015
-0.676336 0.688741 0.466146
-0.752022 0.689064 0.463065
-0.748331 0.658460 0.462828
-0.754492 0.711333 0.525991
-0.678807 0.711010 0.529071
-0.675464 0.715822 0.525195
-0.754127 0.716172 0.522009
-0.752466 0.665965 0.471220
-0.676781 0.665642 0.474301
-0.673438 0.670454 0.470425
-0.752102 0.670804 0.467239
-0.678724 0.711046 0.529045
-0.599979 0.710705 0.532226
-0.597254 0.715528 0.528323
-0.675381 0.715858 0.525169
-0.676708 0.665606 0.474334
-0.597964 0.665265 0.477516
-0.595238 0.670088 0.473612
-0.673365 0.670417 0.470458
-0.599810 0.710767 0.532181
-0.522504 0.710334 0.535167
-0.519821 0.715217 0.531155
-0.597085 0.715590 0.528278
-0.597976 0.665202 0.477567
-0.520670 0.664769 0.480554
-0.517987 0.669652 0.476541
-0.595251 0.670025 0.473664
-0.522420 0.710517 0.535016
-0.445885 0.710085 0.537976
-0.443118 0.715032 0.533858
-0.519738 0.715399 0.531004
-0.520599 0.664586 0.480710
-0.444063 0.664154 0.483670
-0.441296 0.669101 0.479552
-0.517916 0.669468 0.476698
-0.445796 0.710267 0.537824
-0.369904 0.709835 0.540751
-0.367103 0.714836 0.536525
-0.443029 0.715214 0.533706
-0.443999 0.663972 0.483827
-0.368107 0.663539 0.486754
-0.365307 0.668541 0.482528
-0.441232 0.668919 0.479709
-0.369820 0.709991 0.540619
-0.294608 0.709557 0.543507
-0.291829 0.714628 0.539179
-0.367019 0.714993 0.536393
-0.368040 0.663382 0.486892
-0.292828 0.662948 0.489780
-0.290050 0.668020 0.485452
-0.365239 0.668384 0.482666
-0.294528 0.709687 0.543396
-0.220037 0.709259 0.546260
-0.217177 0.714390 0.541836
-0.291750 0.714759 0.539068
-0.292758 0.662816 0.489897
-0.218266 0.662388 0.492762
-0.215406 0.667518 0.488337
-0.289979 0.667888 0.485569
-0.219968 0.709405 0.546134
-0.146149 0.708983 0.549003
-0.143233 0.714175 0.544476
-0.217108 0.714536 0.541709
-0.218187 0.662241 0.492894
-0.144367 0.661818 0.495764
-0.141452 0.667010 0.491236
-0.215327 0.667371 0.488469
-0.146078 0.709119 0.548884
-0.072851 0.708704 0.551746
-0.069981 0.713956 0.547120
-0.143162 0.714311 0.544357
-0.144291 0.661681 0.495888
-0.071065 0.661266 0.498751
-0.068194 0.666518 0.494124
-0.141376 0.666873 0.491361
-0.072772 0.708860 0.551609
-0.000197 0.708446 0.554459
0.002666 0.713749 0.549718
-0.069901 0.714112 0.546982
-0.070999 0.661109 0.498894
0.001576 0.660695 0.501744
0.004439 0.665997 0.497003
-0.068128 0.666361 0.494267
-0.000109 0.708604 0.554318
0.071761 0.708192 0.557108
0.074695 0.713551 0.552267
0.002754 0.713906 0.549577
0.001632 0.660537 0.501891
0.073502 0.660125 0.504680
0.076436 0.665483 0.499839
0.004495 0.665839 0.497149
0.071833 0.708266 0.557042
0.143060 0.707855 0.559793
0.146008 0.713293 0.554875
0.074767 0.713624 0.552202
0.073573 0.660050 0.504751
0.144800 0.659640 0.507502
0.147748 0.665077 0.502584
0.076507 0.665409 0.499910
0.143133 0.707911 0.559744
0.213741 0.707506 0.562487
0.216733 0.713003 0.557477
0.146081 0.713349 0.554826
0.144868 0.659583 0.507557
0.215476 0.659177 0.510300
0.218468 0.664674 0.505289
0.147817 0.665020 0.502639
0.213819 0.707597 0.562404
0.283827 0.707186 0.565121
0.286833 0.712745 0.560018
0.216810 0.713095 0.557394
0.215539 0.659085 0.510388
0.285548 0.658673 0.513105
0.288553 0.664232 0.508002
0.218531 0.664582 0.505377
0.283404 0.707029 0.565249
0.352678 0.706663 0.569042
0.355760 0.712436 0.564009
0.286409 0.712588 0.560146
0.286111 0.658829 0.512984
0.355385 0.658463 0.516777
0.358467 0.664237 0.511744
0.289116 0.664389 0.507881
0.351765 0.706088 0.569498
0.420289 0.705805 0.575575
0.423396 0.712060 0.570507
0.354847 0.711861 0.564465
0.356436 0.659038 0.516332
0.424961 0.658754 0.522409
0.428067 0.665009 0.517341
0.359518 0.664811 0.511299
0.420300 0.704939 0.576317
0.488208 0.704651 0.582354
0.491320 0.711356 0.577217
0.423406 0.711194 0.571249
0.425087 0.659620 0.521678
0.492995 0.659332 0.527714
0.496108 0.666038 0.522578
0.428194 0.665875 0.516610
0.488231 0.703876 0.582980
0.555534 0.703570 0.588937
0.558640 0.710742 0.583747
0.491344 0.710582 0.577844
0.493107 0.660107 0.527100
0.560410 0.659800 0.533057
0.563517 0.666972 0.527867
0.496220 0.666812 0.521963
0.555553 0.702756 0.589558
0.622253 0.702444 0.595426
0.625361 0.710098 0.590217
0.558660 0.709928 0.584367
0.560525 0.660614 0.532448
0.627226 0.660302 0.538317
0.630333 0.667956 0.533108
0.563632 0.667785 0.527258
0.622272 0.701689 0.595970
0.688374 0.701370 0.601815
0.691519 0.709481 0.596560
0.625380 0.709343 0.590761
0.627340 0.661057 0.537785
0.693442 0.660738 0.543630
0.696587 0.668849 0.538375
0.630447 0.668711 0.532576
0.688410 0.700754 0.602239
0.753920 0.700430 0.608033
0.757096 0.708985 0.602712
0.691555 0.708865 0.596984
0.693538 0.661354 0.543218
0.759048 0.661030 0.549012
0.762224 0.669585 0.543691
0.696683 0.669464 0.537963
0.755989 0.699446 0.608773
0.820705 0.695130 0.612557
0.823925 0.704289 0.607034
0.759166 0.708001 0.603453
0.757108 0.662010 0.548280
0.821824 0.657694 0.552064
0.825045 0.666852 0.546541
0.760285 0.670565 0.542960
0.823655 0.694211 0.613022
0.887464 0.684241 0.614000
0.890789 0.694112 0.607993
0.826876 0.703370 0.607499
0.819002 0.658599 0.551603
0.882811 0.648629 0.552582
0.886136 0.658499 0.546575
0.822223 0.667757 0.546080
0.887542 0.684347 0.613933
0.950775 0.674467 0.614900
0.954237 0.685046 0.608427
0.890868 0.694217 0.607926
0.882860 0.648504 0.552650
0.946092 0.638624 0.553618
0.949554 0.649203 0.547145
0.886185 0.658374 0.546644
0.950845 0.674566 0.614836
1.013513 0.664785 0.615822
1.017086 0.676059 0.608869
0.954307 0.685146 0.608364
0.946148 0.638506 0.553683
1.008816 0.628725 0.554669
1.012389 0.639999 0.547715
0.949610 0.649085 0.547210
1.013698 0.664794 0.615802
1.075602 0.654338 0.616966
1.079409 0.666519 0.609469
1.017272 0.676068 0.608849
1.008755 0.628696 0.554690
1.070659 0.618241 0.555854
1.074466 0.630421 0.548357
1.012329 0.639970 0.547737
1.077636 0.654541 0.616613
1.136968 0.635757 0.619672
1.140755 0.647743 0.611436
1.081443 0.666722 0.609116
1.068746 0.618009 0.556210
1.128079 0.599224 0.559269
1.131865 0.611211 0.551033
1.072554 0.630189 0.548713
1.137495 0.637083 0.618745
1.196323 0.618477 0.621767
1.200058 0.630268 0.612811
1.141282 0.649070 0.610508
1.127670 0.597861 0.560202
1.186498 0.579254 0.563225
1.190233 0.591046 0.554269
1.131457 0.609847 0.551966
1.196005 0.618683 0.621679
1.254679 0.601455 0.623909
1.257960 0.612008 0.616586
1.199741 0.630475 0.612723
1.186933 0.579011 0.563319
1.245607 0.561783 0.565549
1.248888 0.572335 0.558226
1.190668 0.590803 0.554362
1.254268 0.600087 0.624853
1.312416 0.583018 0.627075
1.315249 0.592347 0.621371
1.257549 0.610639 0.617530
1.246135 0.563116 0.564611
1.304283 0.546047 0.566832
1.307116 0.555376 0.561128
1.249416 0.573668 0.557288
1.312871 0.581290 0.628007
1.369962 0.562481 0.629705
1.372710 0.571770 0.624548
1.315704 0.590619 0.622303
1.303943 0.547738 0.565905
1.361034 0.528929 0.567602
1.363781 0.538219 0.562445
1.306776 0.557067 0.560201
1.369918 0.561390 0.630276
1.426303 0.542240 0.631842
1.429132 0.551771 0.626883
1.372665 0.570679 0.625119
1.361192 0.529983 0.567034
1.417577 0.510832 0.568600
1.420406 0.520363 0.563641
1.363939 0.539272 0.561877
1.426080 0.541451 0.632252
1.481958 0.522482 0.633818
1.486632 0.531658 0.629097
1.428909 0.550982 0.627293
1.417913 0.511582 0.568194
1.473791 0.492614 0.569761
1.478465 0.501790 0.565040
1.420742 0.521114 0.563235
1.493897 0.552948 0.549452
1.437935 0.572059 0.547134
1.402913 0.582254 0.570897
1.444298 0.568495 0.572488
1.471305 0.485589 0.545653
1.415342 0.504700 0.543335
1.380320 0.514895 0.567097
1.421706 0.501136 0.568689
1.437865 0.572077 0.547236
1.381258 0.591053 0.544895
1.350057 0.600200 0.568771
1.402843 0.582272 0.570999
1.415308 0.504717 0.543229
1.358701 0.523694 0.540888
1.327500 0.532841 0.564763
1.380286 0.514913 0.566991
1.380835 0.591203 0.544708
1.323642 0.610154 0.542258
1.293039 0.618408 0.565695
1.349634 0.600350 0.568583
1.359012 0.523581 0.541070
1.301819 0.542533 0.538621
1.271216 0.550786 0.562058
1.327811 0.532728 0.564946
1.323309 0.610248 0.542471
1.265318 0.628667 0.539769
1.234749 0.636816 0.562948
1.292706 0.618501 0.565908
1.302037 0.542476 0.538402
1.244045 0.560895 0.535700
1.213477 0.569044 0.558879
1.271434 0.550729 0.561839
1.265225 0.628700 0.539719
1.206604 0.647127 0.537205
1.175943 0.655402 0.560525
1.234656 0.636848 0.562898
1.244021 0.560900 0.535745
1.185401 0.579327 0.533232
1.154740 0.587602 0.556551
1.213453 0.569049 0.558924
1.206548 0.647157 0.536985
1.147295 0.665654 0.535754
1.116590 0.674161 0.558589
1.175887 0.655432 0.560305
1.185339 0.579335 0.533448
1.126086 0.597832 0.532216
1.095381 0.606339 0.555051
1.154678 0.587610 0.556767
1.145779 0.665979 0.537284
1.085936 0.684600 0.536031
1.053807 0.688477 0.558971
1.115074 0.674486 0.560119
1.127482 0.597541 0.530683
1.067639 0.616162 0.529430
1.035510 0.620039 0.552370
1.096777 0.606048 0.553518
1.081359 0.685663 0.533117
1.018683 0.693815 0.532161
0.986455 0.697889 0.555134
1.049231 0.689539 0.556056
1.072092 0.615124 0.532342
1.009416 0.623276 0.531386
0.977188 0.627351 0.554360
1.039963 0.619001 0.555282
1.018478 0.693840 0.531263
0.955044 0.701542 0.530330
0.922844 0.706331 0.553311
0.986250 0.697914 0.554237
1.009495 0.623268 0.532282
0.946060 0.630970 0.531349
0.913860 0.635759 0.554330
0.977267 0.627342 0.555255
0.890673 0.709247 0.527458
0.826007 0.717049 0.526530
0.793812 0.722437 0.547365
0.858507 0.714728 0.550078
0.882086 0.638789 0.532365
0.817420 0.646590 0.531437
0.785226 0.651979 0.552272
0.849920 0.644270 0.554985
0.823077 0.717143 0.524966
0.757662 0.721082 0.521223
0.725404 0.722982 0.541583
0.790882 0.722532 0.545801
0.820220 0.646506 0.532996
0.754805 0.650445 0.529253
0.722547 0.652346 0.549612
0.788025 0.651895 0.553830
0.756730 0.721281 0.523277
0.690619 0.722259 0.517149
0.658359 0.723657 0.538135
0.724472 0.723182 0.543637
0.755605 0.650249 0.527189
0.689494 0.651226 0.521061
0.657234 0.652624 0.542047
0.723347 0.652149 0.547549
0.690381 0.722294 0.517850
0.623634 0.723117 0.511677
0.591375 0.723913 0.532941
0.658121 0.723692 0.538836
0.689599 0.651193 0.520348
0.622852 0.652016 0.514174
0.590592 0.652813 0.535438
0.657339 0.652591 0.541333
0.623468 0.723135 0.512301
0.556072 0.723741 0.506056
0.523820 0.724218 0.527560
0.591208 0.723931 0.533565
0.622884 0.651999 0.513538
0.555488 0.652606 0.507293
0.523236 0.653082 0.528797
0.590625 0.652796 0.534802
0.556039 0.723747 0.506803
0.487998 0.724658 0.500499
0.455740 0.724609 0.522299
0.523787 0.724223 0.528307
0.555385 0.652601 0.506533
0.487344 0.653512 0.500228
0.455086 0.653464 0.522028
0.523133 0.653078 0.528037
0.487866 0.724646 0.501334
0.419173 0.725640 0.494966
0.386887 0.724953 0.517319
0.455607 0.724598 0.523134
0.487340 0.653526 0.499381
0.418648 0.654520 0.493013
0.386362 0.653833 0.515366
0.455082 0.653478 0.521181
0.418989 0.725613 0.495703
0.349632 0.726473 0.489259
0.317268 0.725188 0.513189
0.386702 0.724926 0.518056
0.418694 0.654548 0.492264
0.349337 0.655408 0.485819
0.316973 0.654123 0.509749
0.386408 0.653861 0.514617
0.349497 0.726461 0.489503
0.279226 0.726754 0.486545
0.246950 0.725559 0.510088
0.317133 0.725176 0.513433
0.349332 0.655421 0.485567
0.279060 0.655715 0.482609
0.246784 0.654519 0.506152
0.316968 0.654137 0.509496
0.279156 0.726757 0.486503
0.208251 0.727088 0.483616
0.176015 0.725881 0.507112
0.246880 0.725561 0.510046
0.278988 0.655713 0.482645
0.208083 0.656044 0.479757
0.175847 0.654837 0.503254
0.246712 0.654518 0.506188
0.208147 0.727092 0.483543
0.136486 0.727325 0.480619
0.104360 0.726161 0.504193
0.175911 0.725885 0.507039
0.208044 0.656041 0.479824
0.136383 0.656273 0.476901
0.104257 0.655110 0.500474
0.175808 0.654834 0.503321
0.136413 0.727330 0.480525
0.064111 0.727543 0.477575
0.032079 0.726448 0.501264
0.104288 0.726166 0.504098
0.136311 0.656269 0.476990
0.064009 0.656482 0.474040
0.031977 0.655387 0.497729
0.104186 0.655106 0.500563
0.064091 0.727546 0.477518
-0.008955 0.727856 0.474545
-0.040806 0.726847 0.498353
0.032059 0.726451 0.501208
0.063884 0.656480 0.474090
-0.009162 0.656790 0.471117
-0.041013 0.655781 0.494925
0.031852 0.655385 0.497779
-0.009007 0.727857 0.474536
-0.082689 0.728284 0.471528
-0.114394 0.727222 0.495449
-0.040858 0.726847 0.498345
-0.009257 0.656791 0.471119
-0.082939 0.657217 0.468111
-0.114643 0.656156 0.492032
-0.041107 0.655781 0.494928
-0.082781 0.728283 0.471549
-0.157200 0.728664 0.468503
-0.188713 0.727576 0.492558
-0.114486 0.727221 0.495470
-0.082994 0.657219 0.468084
-0.157413 0.657600 0.465038
-0.188926 0.656512 0.489093
-0.114699 0.656157 0.492005
-0.157284 0.728665 0.468482
-0.232420 0.729003 0.465430
-0.263724 0.727935 0.489627
-0.188797 0.727577 0.492536
-0.157478 0.657599 0.465054
-0.232613 0.657937 0.462002
-0.263917 0.656869 0.486200
-0.188991 0.656511 0.489108
-0.232508 0.729006 0.465374
-0.308380 0.729317 0.462315
-0.339449 0.728266 0.486646
-0.263812 0.727938 0.489571
-0.232676 0.657935 0.462053
-0.308548 0.658246 0.458994
-0.339618 0.657195 0.483325
-0.263980 0.656867 0.486250
-0.308445 0.729320 0.462266
-0.385019 0.729636 0.459180
-0.415855 0.728636 0.483640
-0.339515 0.728268 0.486597
-0.308635 0.658244 0.459037
-0.385210 0.658561 0.455951
-0.416046 0.657561 0.480411
-0.339705 0.657193 0.483368
-0.385075 0.729637 0.459164
-0.462451 0.730033 0.456041
-0.493673 0.729028 0.480597
-0.415911 0.728637 0.483623
-0.385308 0.658560 0.455962
-0.462684 0.658957 0.452839
-0.493906 0.657952 0.477395
-0.416144 0.657561 0.480421
-0.462531 0.730033 0.456045
-0.540674 0.730435 0.452887
-0.575074 0.729431 0.477408
-0.493753 0.729029 0.480601
-0.462762 0.658957 0.452829
-0.540905 0.659359 0.449670
-0.575305 0.658356 0.474192
-0.493983 0.657953 0.477385
-0.540822 0.730436 0.452871
-0.749924 0.731325 0.444401
-0.667522 0.729798 0.473679
-0.575221 0.729432 0.477393
-0.540988 0.659359 0.449676
-0.750091 0.660248 0.441206
-0.667689 0.658721 0.470484
-0.575388 0.658356 0.474198
1.493931 0.552939 0.549417
1.444332 0.568486 0.572453
1.436137 0.569732 0.597088
1.493860 0.550408 0.598893
1.471315 0.485581 0.545727
1.421716 0.501128 0.568763
1.413522 0.502374 0.593398
1.471244 0.483050 0.595203
1.444162 0.568538 0.572537
1.402777 0.582297 0.570946
1.379501 0.588692 0.595408
1.435968 0.569784 0.597172
1.421783 0.501110 0.568688
1.380398 0.514869 0.567096
1.357122 0.521264 0.591559
1.413589 0.502356 0.593323
1.402734 0.582296 0.571198
1.349947 0.600225 0.568970
1.322453 0.607540 0.593416
1.379458 0.588691 0.595660
1.380337 0.514905 0.566840
1.327550 0.532833 0.564613
1.300056 0.540149 0.589058
1.357061 0.521300 0.591303
1.349353 0.600430 0.568755
1.292758 0.618487 0.565867
1.264158 0.626038 0.589360
1.321858 0.607746 0.593201
1.328033 0.532665 0.564822
1.271438 0.550722 0.561934
1.242838 0.558272 0.585427
1.300538 0.539980 0.589268
1.292653 0.618518 0.565912
1.234696 0.636832 0.562952
1.205833 0.644535 0.585542
1.264053 0.626068 0.589405
1.271427 0.550729 0.561882
1.213470 0.569043 0.558922
1.184608 0.576746 0.581512
1.242828 0.558279 0.585376
1.234718 0.636830 0.562872
1.176005 0.655384 0.560499
1.147078 0.663334 0.583159
1.205855 0.644533 0.585462
1.213332 0.569082 0.558996
1.154619 0.587636 0.556623
1.125693 0.595586 0.579283
1.184469 0.576785 0.581586
1.175969 0.655412 0.560190
1.116672 0.674141 0.558473
1.087731 0.682340 0.580530
1.147043 0.663362 0.582850
1.154536 0.587646 0.556928
1.095239 0.606376 0.555211
1.066299 0.614575 0.577268
1.125610 0.595597 0.579588
1.112568 0.675212 0.556265
1.051301 0.689202 0.555116
1.021489 0.692960 0.577702
1.083627 0.683411 0.578321
1.099223 0.605335 0.557417
1.037956 0.619326 0.556269
1.008144 0.623084 0.578854
1.070282 0.613535 0.579474
1.049459 0.689510 0.555714
0.986684 0.697860 0.554791
0.956869 0.702355 0.577794
1.019648 0.693268 0.578299
1.039673 0.619038 0.555671
0.976897 0.627388 0.554748
0.947082 0.631883 0.577751
1.009861 0.622796 0.578256
0.986626 0.697851 0.553665
0.923219 0.706268 0.552740
0.893441 0.711517 0.576167
0.956811 0.702346 0.576668
0.976829 0.627415 0.555872
0.913422 0.635832 0.554947
0.883644 0.641080 0.578374
0.947014 0.631909 0.578875
0.923153 0.706223 0.551599
0.859143 0.714661 0.550312
0.829461 0.720730 0.574531
0.893375 0.711472 0.575026
0.913362 0.635894 0.556087
0.849352 0.644332 0.554800
0.819670 0.650401 0.579019
0.883584 0.641143 0.579513
0.857402 0.714874 0.550523
0.792708 0.722583 0.547810
0.762961 0.724655 0.571160
0.827721 0.720943 0.574741
0.850963 0.644133 0.554585
0.786269 0.651843 0.551873
0.756522 0.653915 0.575223
0.821282 0.650203 0.578804
0.789698 0.722705 0.547393
0.724220 0.723156 0.543175
0.694410 0.724657 0.565015
0.759952 0.724777 0.570744
0.789148 0.651727 0.552281
0.723670 0.652177 0.548063
0.693860 0.653679 0.569903
0.759402 0.653799 0.575632
0.724110 0.723203 0.543974
0.657996 0.723678 0.538472
0.628161 0.724566 0.560015
0.694300 0.724704 0.565814
0.723648 0.652131 0.547254
0.657534 0.652606 0.541752
0.627699 0.653495 0.563295
0.693838 0.653632 0.569094
0.657800 0.723702 0.539105
0.591054 0.723924 0.533210
0.561264 0.724420 0.554798
0.627965 0.724591 0.560648
0.657597 0.652582 0.541107
0.590851 0.652804 0.535212
0.561060 0.653300 0.556800
0.627762 0.653470 0.562650
0.590950 0.723936 0.533846
0.523562 0.724223 0.527841
0.493863 0.724273 0.549531
0.561160 0.724433 0.555434
0.590820 0.652791 0.534564
0.523432 0.653078 0.528559
0.493733 0.653128 0.550249
0.561030 0.653287 0.556153
0.523453 0.724223 0.528594
0.455405 0.724609 0.522585
0.425840 0.724110 0.544316
0.493754 0.724273 0.550284
0.523406 0.653078 0.527794
0.455358 0.653465 0.521786
0.425793 0.652966 0.543516
0.493707 0.653128 0.549484
0.455251 0.724591 0.523370
0.386531 0.724946 0.517555
0.357136 0.723894 0.539059
0.425686 0.724092 0.545101
0.455375 0.653483 0.520989
0.386656 0.653838 0.515173
0.357261 0.652785 0.536677
0.425810 0.652983 0.542719
0.386518 0.724922 0.518140
0.317084 0.725185 0.513272
0.287773 0.724021 0.535780
0.357124 0.723870 0.539644
0.386530 0.653862 0.514579
0.317096 0.654125 0.509711
0.287785 0.652962 0.532219
0.357136 0.652810 0.536083
0.317122 0.725175 0.513451
0.246938 0.725558 0.510106
0.217789 0.724362 0.533334
0.287811 0.724012 0.535959
0.316918 0.654135 0.509525
0.246734 0.654518 0.506180
0.217585 0.653322 0.529409
0.287607 0.652972 0.532033
0.246857 0.725561 0.510053
0.175992 0.725881 0.507119
0.147056 0.724711 0.530630
0.217708 0.724365 0.533281
0.246674 0.654515 0.506228
0.175808 0.654835 0.503294
0.146873 0.653665 0.526806
0.217525 0.653319 0.529456
0.175910 0.725886 0.507022
0.104359 0.726162 0.504175
0.075734 0.725048 0.527860
0.146975 0.724716 0.530534
0.175748 0.654830 0.503385
0.104197 0.655107 0.500538
0.075572 0.653992 0.524223
0.146813 0.653660 0.526897
0.104298 0.726167 0.504075
0.032089 0.726449 0.501241
0.003732 0.725408 0.525070
0.075672 0.725053 0.527760
0.104115 0.655102 0.500633
0.031906 0.655384 0.497799
0.003549 0.654343 0.521628
0.075490 0.653988 0.524318
0.032045 0.726449 0.501230
-0.040820 0.726845 0.498376
-0.068879 0.725773 0.522323
0.003688 0.725409 0.525059
0.031805 0.655384 0.497804
-0.041059 0.655780 0.494950
-0.069119 0.654707 0.518897
0.003448 0.654343 0.521633
-0.040902 0.726845 0.498390
