1.882977 0.866334 0.862278
1.882530 0.875113 0.866010
1.882997 0.871879 0.870439
1.883343 0.865016 0.867616
1.863076 0.864896 0.863301
1.862629 0.873675 0.867034
1.863095 0.870441 0.871463
1.863441 0.863578 0.868640
1.882613 0.867645 0.856939
1.882062 0.878375 0.861581
1.882530 0.875123 0.866009
1.882977 0.866344 0.862276
1.862712 0.866191 0.857955
1.862161 0.876921 0.862597
1.862629 0.873670 0.867026
1.863076 0.864890 0.863293
1.882511 0.875440 0.866230
1.882010 0.882134 0.873043
1.882589 0.877445 0.875891
1.882977 0.872205 0.870659
1.862648 0.873363 0.866824
1.862147 0.880057 0.873636
1.862726 0.875369 0.876484
1.863114 0.870128 0.871252
1.882042 0.878701 0.861805
1.881431 0.886815 0.870198
1.882009 0.882143 0.873046
1.882510 0.875449 0.866233
1.862180 0.876612 0.862385
1.861569 0.884726 0.870779
1.862147 0.880055 0.873626
1.862648 0.873361 0.866814
1.881989 0.882350 0.873372
1.881514 0.885907 0.882227
1.882197 0.880514 0.883063
1.882569 0.877662 0.876219
1.862167 0.879849 0.873322
1.861691 0.883406 0.882177
1.862374 0.878013 0.883014
1.862746 0.875161 0.876169
1.881410 0.887030 0.870530
1.880828 0.891326 0.881396
1.881512 0.885916 0.882233
1.881988 0.882359 0.873377
1.861588 0.884522 0.870465
1.861006 0.888818 0.881331
1.861691 0.883408 0.882168
1.862166 0.879851 0.873312
1.881495 0.885982 0.882614
1.881113 0.885893 0.892164
1.881881 0.880587 0.890865
1.882179 0.880589 0.883450
1.861708 0.883335 0.881807
1.861326 0.883246 0.891357
1.862093 0.877939 0.890058
1.862391 0.877942 0.882643
1.880810 0.891397 0.881786
1.880347 0.891188 0.893471
1.881112 0.885898 0.892172
1.881494 0.885987 0.882623
1.861023 0.888751 0.880962
1.860560 0.888541 0.892647
1.861326 0.883252 0.891348
1.861708 0.883340 0.881798
1.881101 0.885815 0.892549
1.880875 0.882061 0.901340
1.881688 0.877684 0.898107
1.881868 0.880508 0.891250
1.861338 0.883321 0.890988
1.861113 0.879567 0.899779
1.861926 0.875190 0.896546
1.862106 0.878014 0.889689
1.880334 0.891105 0.893858
1.880060 0.886456 0.904582
1.880874 0.882062 0.901350
1.881100 0.885816 0.892559
1.860572 0.888620 0.892281
1.860298 0.883970 0.903006
1.861112 0.879576 0.899773
1.861338 0.883330 0.890982
1.880869 0.881840 0.901667
1.880830 0.875025 0.908360
1.881648 0.872214 0.903689
1.881682 0.877463 0.898434
1.861118 0.879779 0.899466
1.861079 0.872964 0.906159
1.861897 0.870154 0.901487
1.861931 0.875402 0.896233
1.880055 0.886231 0.904909
1.880013 0.877816 0.913041
1.880829 0.875022 0.908369
1.880869 0.881837 0.901676
1.860303 0.884183 0.902697
1.860261 0.875768 0.910829
1.861078 0.872974 0.906157
1.861117 0.879789 0.899464
1.880833 0.874697 0.908577
1.880989 0.865826 0.912154
1.881768 0.865045 0.906758
1.881650 0.871886 0.903906
1.861077 0.873278 0.905951
1.861233 0.864407 0.909528
1.862012 0.863626 0.904132
1.861895 0.870467 0.901280
1.880015 0.877484 0.913256
1.880210 0.866618 0.917557
1.880989 0.865819 0.912161
1.880832 0.874690 0.908585
1.860259 0.876082 0.910625
1.860453 0.865216 0.914926
1.861232 0.864418 0.909530
1.861076 0.873289 0.905953
1.880999 0.865439 0.912229
1.881326 0.855895 0.912145
1.882028 0.857233 0.906850
1.881778 0.864658 0.906833
1.861224 0.864778 0.909455
1.861550 0.855234 0.909371
1.862253 0.856571 0.904076
1.862002 0.863996 0.904059
1.880220 0.866229 0.917629
1.880624 0.854533 0.917445
1.881325 0.855887 0.912149
1.880999 0.865431 0.912234
1.860444 0.865584 0.914858
1.860848 0.853888 0.914673
1.861549 0.855242 0.909377
1.861223 0.864786 0.909462
1.881342 0.855510 0.912066
1.881790 0.846714 0.908334
1.882390 0.850001 0.903948
1.882045 0.856847 0.906771
1.861535 0.855603 0.909446
1.861983 0.846807 0.905714
1.862583 0.850095 0.901328
1.862237 0.856941 0.904151
1.880640 0.854146 0.917363
1.881189 0.843433 0.912720
1.881790 0.846704 0.908335
1.881342 0.855500 0.912067
1.860832 0.854255 0.914751
1.861381 0.843542 0.910108
1.861982 0.846812 0.905723
1.861533 0.855609 0.909455
1.881810 0.846387 0.908114
1.882310 0.839710 0.901301
1.882798 0.844418 0.898497
1.882410 0.849675 0.903728
1.861964 0.847119 0.905925
1.862464 0.840442 0.899112
1.862952 0.845150 0.896307
1.862563 0.850407 0.901539
1.881209 0.843107 0.912496
1.881822 0.834976 0.904103
1.882310 0.839701 0.901298
1.881810 0.846378 0.908111
1.861362 0.843851 0.910320
1.861975 0.835720 0.901926
1.862463 0.840444 0.899122
1.861963 0.847121 0.905935
1.882338 0.839538 0.900911
1.882815 0.835964 0.892056
1.883129 0.841411 0.891259
1.882826 0.844246 0.898107
1.862437 0.840605 0.899488
1.862914 0.837031 0.890632
1.863228 0.842478 0.889835
1.862925 0.845313 0.896683
1.881843 0.834760 0.903771
1.882424 0.830482 0.892905
1.882808 0.835911 0.892111
1.882330 0.839485 0.900967
1.861956 0.835924 0.902241
1.862537 0.831645 0.891374
1.862920 0.837074 0.890580
1.862443 0.840648 0.899436
1.882828 0.835906 0.891772
1.883208 0.836011 0.882221
1.883509 0.841337 0.883563
1.883142 0.841352 0.890975
1.862902 0.837087 0.890900
1.863282 0.837193 0.881350
1.863583 0.842518 0.882692
1.863216 0.842533 0.890103
1.882442 0.830410 0.892516
1.882906 0.830603 0.880831
1.883206 0.835945 0.882172
1.882826 0.835840 0.891722
1.862520 0.831713 0.891742
1.862984 0.831905 0.880057
1.863283 0.837248 0.881399
1.862903 0.837142 0.890949
1.883219 0.836029 0.881795
1.883446 0.839766 0.873005
1.883699 0.844196 0.876280
1.883520 0.841355 0.883137
1.863272 0.837178 0.881760
1.863499 0.840915 0.872969
1.863752 0.845345 0.876245
1.863573 0.842504 0.883101
1.882919 0.830686 0.880444
1.883192 0.835352 0.869719
1.883446 0.839765 0.872995
1.883219 0.836028 0.881785
1.862972 0.831827 0.880424
1.863245 0.836493 0.869699
1.863499 0.840906 0.872974
1.863271 0.837169 0.881765
1.883452 0.839987 0.872678
1.883489 0.846819 0.865985
1.883739 0.849649 0.870699
1.883704 0.844417 0.875954
1.863494 0.840704 0.873282
1.863531 0.847535 0.866588
1.863781 0.850365 0.871303
1.863746 0.845134 0.876558
1.883198 0.835577 0.869393
1.883241 0.843975 0.861261
1.883489 0.846821 0.865975
1.883451 0.839990 0.872669
1.863239 0.836280 0.870008
1.863283 0.844678 0.861876
1.863531 0.847525 0.866590
1.863493 0.840693 0.873283
1.883487 0.847147 0.865767
1.883331 0.856001 0.862191
1.883618 0.856836 0.867629
1.883736 0.849977 0.870482
1.863533 0.847221 0.866796
1.863378 0.856075 0.863220
1.863665 0.856909 0.868658
1.863783 0.850051 0.871511
1.883238 0.844307 0.861045
1.883042 0.855190 0.856744
1.883331 0.856007 0.862183
1.883486 0.847154 0.865760
1.863285 0.844364 0.862080
1.863089 0.855247 0.857779
1.863377 0.856065 0.863217
1.863533 0.847211 0.866794
1.883321 0.856387 0.862115
1.882994 0.865948 0.862200
1.883359 0.864630 0.867538
1.883608 0.857222 0.867554
1.863387 0.855705 0.863292
1.863060 0.865266 0.863376
1.863425 0.863948 0.868715
1.863675 0.856539 0.868731
1.883032 0.855579 0.856672
1.882629 0.867258 0.856857
1.882993 0.865957 0.862195
1.883320 0.856396 0.862110
1.863099 0.854879 0.857848
1.862696 0.866558 0.858032
1.863060 0.865257 0.863370
1.863387 0.855696 0.863286
1.883159 0.863410 0.874750
1.883368 0.864633 0.868535
1.883022 0.871495 0.871357
1.882912 0.868574 0.876543
1.863207 0.862734 0.873947
1.863416 0.863957 0.867732
1.863070 0.870820 0.870554
1.862960 0.867899 0.875740
1.882951 0.862169 0.880971
1.883159 0.863408 0.874756
1.882912 0.868573 0.876549
1.882706 0.867845 0.882287
1.862999 0.861493 0.880169
1.863207 0.862733 0.873953
1.862960 0.867897 0.875747
1.862754 0.867170 0.881485
1.882742 0.860945 0.887193
1.882951 0.862168 0.880977
1.882706 0.867844 0.882293
1.882495 0.866987 0.888277
1.862790 0.860270 0.886391
1.862999 0.861492 0.880175
1.862753 0.867169 0.881491
1.862542 0.866312 0.887475
1.882742 0.860944 0.887199
1.882494 0.866986 0.888283
1.882321 0.865351 0.893961
1.882547 0.859450 0.893305
1.862790 0.860268 0.886397
1.862542 0.866310 0.887480
1.862369 0.864675 0.893159
1.862595 0.858775 0.892502
1.882742 0.860938 0.887198
1.882548 0.859444 0.893304
1.882815 0.853683 0.891504
1.883003 0.854729 0.885957
1.862790 0.860263 0.886395
1.862595 0.858769 0.892501
1.862862 0.853008 0.890701
1.863050 0.854054 0.885154
1.882951 0.862162 0.880976
1.882743 0.860939 0.887192
1.883003 0.854731 0.885951
1.883175 0.856289 0.880353
1.862999 0.861486 0.880174
1.862790 0.860263 0.886390
1.863050 0.854055 0.885149
1.863223 0.855613 0.879551
1.883159 0.863403 0.874755
1.882951 0.862164 0.880971
1.883175 0.856290 0.880347
1.883355 0.857914 0.874511
1.863207 0.862727 0.873952
1.862999 0.861487 0.880168
1.863223 0.855614 0.879545
1.863403 0.857238 0.873709
1.883618 0.857218 0.868549
1.883368 0.864626 0.868533
1.883160 0.863403 0.874748
1.883356 0.857914 0.874505
1.863665 0.856543 0.867747
1.863416 0.863951 0.867732
1.863207 0.862728 0.873947
1.863403 0.857239 0.873703
1.883736 0.850353 0.871402
1.883618 0.857212 0.868549
1.883356 0.857908 0.874505
1.883519 0.852663 0.874858
1.863783 0.849678 0.870601
1.863665 0.856536 0.867748
1.863403 0.857233 0.873704
1.863566 0.851988 0.874057
1.883702 0.845117 0.876660
1.883736 0.850348 0.871406
1.883519 0.852658 0.874862
1.883421 0.850094 0.879454
1.863749 0.844441 0.875858
1.863784 0.849673 0.870604
1.863566 0.851983 0.874060
1.863469 0.849418 0.878652
1.883522 0.842272 0.883522
1.883702 0.845113 0.876666
1.883421 0.850090 0.879460
1.883268 0.848396 0.884678
1.863570 0.841597 0.882720
1.863749 0.844438 0.875864
1.863469 0.849415 0.878657
1.863316 0.847721 0.883875
1.883154 0.842228 0.890992
1.883522 0.842213 0.883581
1.883268 0.848336 0.884736
1.883060 0.848062 0.890145
1.863203 0.841669 0.890086
1.863570 0.841654 0.882674
1.863316 0.847778 0.883830
1.863108 0.847503 0.889239
1.882856 0.845037 0.897761
1.883158 0.842202 0.890913
1.883064 0.848036 0.890066
1.882842 0.848588 0.895105
1.862896 0.844532 0.897025
1.863198 0.841697 0.890177
1.863103 0.847531 0.889330
1.862882 0.848083 0.894369
1.882463 0.850382 0.903031
1.882852 0.845125 0.897799
1.882838 0.848676 0.895143
1.882595 0.853182 0.897398
1.862511 0.849707 0.902228
1.862899 0.844450 0.896997
1.862886 0.848001 0.894340
1.862643 0.852506 0.896596
1.882118 0.857234 0.905857
1.882463 0.850388 0.903034
1.882595 0.853187 0.897401
1.882337 0.858427 0.899393
1.862165 0.856558 0.905054
1.862510 0.849712 0.902231
1.862642 0.852512 0.896599
1.862385 0.857751 0.898590
1.881867 0.864665 0.905842
1.882117 0.857240 0.905858
1.882337 0.858432 0.899394
1.882148 0.863859 0.899540
1.861914 0.863990 0.905039
1.862165 0.856565 0.905055
1.862384 0.857758 0.898592
1.862195 0.863184 0.898737
1.881749 0.871513 0.902989
1.881866 0.864672 0.905841
1.882147 0.863866 0.899539
1.882009 0.868796 0.898811
1.861797 0.870837 0.902186
1.861914 0.863995 0.905038
1.862195 0.863189 0.898736
1.862057 0.868119 0.898008
1.881783 0.876766 0.897731
1.881749 0.871517 0.902986
1.882009 0.868800 0.898808
1.882104 0.871139 0.894482
1.861831 0.876091 0.896928
1.861797 0.870842 0.902183
1.862057 0.868125 0.898005
1.862152 0.870465 0.893680
1.881964 0.879593 0.890869
1.881783 0.876769 0.897725
1.882104 0.871142 0.894477
1.882239 0.873151 0.889440
1.862011 0.878919 0.890067
1.861831 0.876094 0.896923
1.862152 0.870468 0.893675
1.862286 0.872476 0.888638
1.882262 0.879597 0.883448
1.881964 0.879595 0.890863
1.882239 0.873153 0.889434
1.882446 0.873536 0.883969
1.862309 0.878922 0.882645
1.862011 0.878920 0.890060
1.862286 0.872478 0.888632
1.862494 0.872861 0.883166
1.882634 0.876744 0.876597
1.882262 0.879596 0.883442
1.882446 0.873535 0.883963
1.882661 0.873131 0.878950
1.862682 0.876069 0.875794
1.862309 0.878921 0.882639
1.862494 0.872860 0.883160
1.862709 0.872456 0.878147
1.882912 0.868579 0.876546
1.883022 0.871500 0.871360
1.882634 0.876740 0.876592
1.882662 0.873127 0.878945
1.862960 0.867905 0.875744
1.863069 0.870826 0.870558
1.862682 0.876066 0.875790
1.862709 0.872453 0.878142
1.882706 0.867850 0.882289
1.882912 0.868578 0.876550
1.882661 0.873126 0.878949
1.882446 0.873530 0.883962
1.862753 0.867175 0.881487
1.862959 0.867903 0.875749
1.862709 0.872451 0.878147
1.862494 0.872855 0.883160
1.882494 0.866993 0.888278
1.882706 0.867850 0.882295
1.882446 0.873530 0.883968
1.882239 0.873147 0.889433
1.862542 0.866317 0.887476
1.862753 0.867174 0.881492
1.862494 0.872854 0.883166
1.862287 0.872471 0.888631
1.882321 0.865357 0.893962
1.882494 0.866992 0.888284
1.882239 0.873146 0.889439
1.882104 0.871137 0.894476
1.862368 0.864681 0.893159
1.862542 0.866316 0.887481
1.862286 0.872470 0.888636
1.862152 0.870461 0.893673
1.882321 0.865355 0.893967
1.882104 0.871135 0.894480
1.882010 0.868796 0.898806
1.882148 0.863866 0.899533
1.862368 0.864679 0.893165
1.862152 0.870459 0.893678
1.862057 0.868119 0.898004
1.862195 0.863190 0.898731
1.882547 0.859449 0.893310
1.882321 0.865349 0.893967
1.882148 0.863860 0.899533
1.882337 0.858433 0.899388
1.862595 0.858774 0.892508
1.862368 0.864674 0.893165
1.862195 0.863185 0.898731
1.862384 0.857758 0.898586
1.882814 0.853682 0.891509
1.882547 0.859443 0.893309
1.882337 0.858428 0.899387
1.882595 0.853189 0.897395
1.862862 0.853007 0.890707
1.862595 0.858768 0.892507
1.862385 0.857752 0.898584
1.862642 0.852513 0.896593
1.882815 0.853678 0.891507
1.882595 0.853184 0.897393
1.882838 0.848678 0.895138
1.883060 0.848126 0.890099
1.862862 0.853001 0.890705
1.862643 0.852508 0.896591
1.862886 0.848002 0.894336
1.863107 0.847450 0.889297
1.883003 0.854723 0.885956
1.882815 0.853678 0.891502
1.883060 0.848126 0.890094
1.883268 0.848401 0.884685
1.863051 0.854048 0.885153
1.862863 0.853002 0.890699
1.863107 0.847451 0.889291
1.863315 0.847725 0.883882
1.883421 0.850096 0.879461
1.883175 0.856282 0.880352
1.883003 0.854724 0.885950
1.883268 0.848402 0.884679
1.863468 0.849421 0.878659
1.863223 0.855607 0.879550
1.863051 0.854049 0.885147
1.863316 0.847726 0.883877
1.883176 0.856284 0.880347
1.883421 0.850098 0.879456
1.883518 0.852663 0.874864
1.883356 0.857908 0.874511
1.863223 0.855609 0.879545
1.863469 0.849423 0.878654
1.863566 0.851988 0.874062
1.863403 0.857233 0.873709
