3.159560 0.602449 0.730131
3.159540 0.602541 0.680074
3.144886 0.566323 0.680821
3.144932 0.566720 0.731407
3.159589 0.566485 0.730240
3.159570 0.566578 0.680183
1.748578 0.626945 0.834924
1.823928 0.626774 0.816748
1.822273 0.625490 0.744512
1.742967 0.625658 0.757871
1.748625 0.590987 0.835541
1.823975 0.590815 0.817365
1.822320 0.589531 0.745129
1.743014 0.589700 0.758488
1.743113 0.625660 0.758270
1.822418 0.625491 0.744911
1.820344 0.625784 0.683765
1.739911 0.626530 0.692452
1.742863 0.589698 0.757950
1.822168 0.589529 0.744591
1.820094 0.589823 0.683446
1.739661 0.590569 0.692133
1.740089 0.626528 0.692499
1.820522 0.625782 0.683813
1.818976 0.626280 0.620417
1.741632 0.627980 0.626530
1.739481 0.590573 0.691957
1.819914 0.589827 0.683270
1.818368 0.590325 0.619874
1.741024 0.592026 0.625988
1.741631 0.627967 0.626977
1.818975 0.626267 0.620864
1.819949 0.628305 0.588231
1.741254 0.628799 0.592246
1.741026 0.592041 0.625442
1.818370 0.590341 0.619328
1.819344 0.592379 0.586695
1.740650 0.592873 0.590710
1.824319 0.626771 0.816737
1.900246 0.625247 0.803981
1.901725 0.624102 0.733111
1.822664 0.625486 0.744501
1.823739 0.590816 0.817348
1.899666 0.589293 0.804592
1.901146 0.588148 0.733722
1.822084 0.589532 0.745112
1.822663 0.625488 0.744875
1.901724 0.624104 0.733485
1.901787 0.624749 0.673937
1.820588 0.625782 0.683730
1.822084 0.589530 0.744605
1.901146 0.588146 0.733215
1.901209 0.588790 0.673667
1.820010 0.589824 0.683460
1.820523 0.625783 0.683701
1.901721 0.624750 0.673909
1.901785 0.625413 0.614361
1.818977 0.626281 0.620305
1.820074 0.589823 0.683367
1.901272 0.588790 0.673574
1.901336 0.589454 0.614026
1.818528 0.590322 0.619971
1.819117 0.626261 0.620927
1.901925 0.625393 0.614983
1.898893 0.626216 0.587011
1.820091 0.628299 0.588294
1.818386 0.590344 0.619257
1.901195 0.589476 0.613312
1.898163 0.590299 0.585340
1.819360 0.592382 0.586623
1.931848 0.609483 0.731666
1.910628 0.621602 0.733440
1.909148 0.622747 0.804310
1.930999 0.609438 0.804876
1.913563 0.578515 0.731607
1.892343 0.590634 0.733380
1.890863 0.591778 0.804251
1.912714 0.578469 0.804817
1.910203 0.623223 0.614423
1.910139 0.622559 0.673970
1.930976 0.611058 0.673132
1.930625 0.612295 0.614515
1.893021 0.591632 0.613956
1.892957 0.590969 0.673504
1.913794 0.579467 0.672665
1.913443 0.580704 0.614049
1.910364 0.622434 0.674030
1.910301 0.621789 0.733578
1.931522 0.609670 0.731805
1.931201 0.610933 0.673191
1.892732 0.591092 0.673563
1.892670 0.590447 0.733111
1.913890 0.578328 0.731337
1.913570 0.579591 0.672724
1.930014 0.613087 0.586526
1.906700 0.624295 0.586105
1.909732 0.623472 0.614077
1.930154 0.612544 0.614170
1.913772 0.581000 0.586664
1.890458 0.592208 0.586243
1.893490 0.591385 0.614215
1.913912 0.580456 0.614308
1.937491 0.605986 0.586019
1.937631 0.605443 0.613663
1.962028 0.565375 0.617019
1.961341 0.562561 0.587067
1.906342 0.588047 0.587174
1.906481 0.587504 0.614817
1.930879 0.547437 0.618174
1.930191 0.544622 0.588222
1.958337 0.569711 0.615397
1.977094 0.551870 0.599230
1.975430 0.549553 0.585345
1.957649 0.566896 0.585445
1.934612 0.543042 0.619791
1.953370 0.525201 0.603625
1.951706 0.522884 0.589739
1.933925 0.540227 0.589839
1.938231 0.603079 0.731931
1.937382 0.603033 0.805142
1.961775 0.560490 0.809651
1.961992 0.563498 0.732083
1.907226 0.584865 0.731343
1.906377 0.584819 0.804554
1.930770 0.542276 0.809063
1.930987 0.545284 0.731495
1.961824 0.565738 0.617771
1.937427 0.605806 0.614414
1.937778 0.604569 0.673030
1.961846 0.564745 0.674782
1.931084 0.547074 0.617510
1.906686 0.587141 0.614153
1.907038 0.585905 0.672769
1.931106 0.546080 0.674521
1.961878 0.564691 0.674848
1.937810 0.604516 0.673096
1.938130 0.603254 0.731709
1.961891 0.563673 0.731861
1.931074 0.546131 0.674571
1.907006 0.585956 0.672819
1.907327 0.584693 0.731432
1.931088 0.545112 0.731584
1.947149 0.563913 0.746980
1.980510 0.528777 0.768818
2.037970 0.525676 0.767433
2.022171 0.560562 0.747216
1.945954 0.544793 0.716543
1.979315 0.509657 0.738381
2.036775 0.506557 0.736996
2.020976 0.541443 0.716779
2.022333 0.560508 0.747243
2.038132 0.525622 0.767460
2.095680 0.523544 0.766961
2.097343 0.558430 0.744307
2.020946 0.541491 0.716750
2.036746 0.506605 0.736967
2.094293 0.504527 0.736468
2.095957 0.539413 0.713814
2.099877 0.504725 0.768771
2.040742 0.510407 0.766997
2.044679 0.507497 0.810314
2.103004 0.503748 0.809780
2.097015 0.468903 0.767359
2.037880 0.474585 0.765585
2.041817 0.471675 0.808902
2.100143 0.467925 0.808368
2.046564 0.508935 0.766707
1.987240 0.535609 0.754061
1.997296 0.529764 0.809846
2.050501 0.506024 0.810023
2.031943 0.476088 0.765869
1.972619 0.502762 0.753223
1.982675 0.496917 0.809009
2.035880 0.473177 0.809186
1.992271 0.532250 0.753584
1.958910 0.567385 0.731747
1.958693 0.564378 0.809314
2.002327 0.526405 0.809370
1.967493 0.506183 0.753682
1.934132 0.541319 0.731844
1.933915 0.538311 0.809412
1.977549 0.500338 0.809468
2.168462 0.503086 0.770330
2.098925 0.504784 0.768441
2.102053 0.503807 0.809450
2.167904 0.502348 0.808619
2.167630 0.467140 0.769580
2.098093 0.468837 0.767690
2.101221 0.467860 0.808699
2.167072 0.466402 0.807869
2.095236 0.523911 0.766738
2.098687 0.496733 0.783041
2.168224 0.495035 0.784931
2.168637 0.523203 0.764726
2.094877 0.504095 0.736728
2.098328 0.476917 0.753031
2.167865 0.475219 0.754921
2.168277 0.503387 0.734715
2.095411 0.530624 0.758609
2.168811 0.529917 0.756597
2.166650 0.548713 0.711566
2.129951 0.549054 0.712568
2.094716 0.497427 0.744793
2.168117 0.496720 0.742781
2.165955 0.515515 0.697750
2.129256 0.515857 0.698752
2.129960 0.549073 0.712520
2.166659 0.548732 0.711519
2.164497 0.567494 0.666474
2.129274 0.515868 0.698723
2.165973 0.515527 0.697721
2.163812 0.534289 0.652676
2.165062 0.567537 0.615063
2.095145 0.569179 0.615989
2.095981 0.568026 0.672457
2.164230 0.568885 0.659491
2.164865 0.531574 0.615132
2.094948 0.533216 0.616059
2.095785 0.532062 0.672526
2.164033 0.532922 0.659561
2.097110 0.566913 0.729305
2.096275 0.568018 0.672837
2.021681 0.569726 0.674465
2.022099 0.568992 0.732241
2.096182 0.530966 0.728737
2.095348 0.532070 0.672268
2.020754 0.533778 0.673897
2.021172 0.533044 0.731673
2.022400 0.568981 0.732229
2.021981 0.569715 0.674453
1.947364 0.573350 0.674981
1.947378 0.572331 0.731994
2.020722 0.533060 0.731687
2.020304 0.533794 0.673911
1.945687 0.537429 0.674439
1.945700 0.536410 0.731451
2.096191 0.568020 0.672806
2.095355 0.569174 0.616339
2.021142 0.570579 0.616638
2.021597 0.569728 0.674435
2.095431 0.532070 0.672184
2.094595 0.533223 0.615717
2.020382 0.534628 0.616016
2.020837 0.533778 0.673813
2.022040 0.569713 0.674410
2.021586 0.570564 0.616612
1.947401 0.574341 0.617926
1.947423 0.573348 0.674937
2.020244 0.533798 0.673840
2.019790 0.534649 0.616043
1.945605 0.538427 0.617356
1.945627 0.537433 0.674367
1.966587 0.556245 0.598661
2.031285 0.551269 0.599294
2.030051 0.548974 0.582208
1.964924 0.553927 0.584776
1.963959 0.520805 0.604185
2.028657 0.515829 0.604817
2.027424 0.513534 0.587732
1.962296 0.518487 0.590299
2.030241 0.551485 0.600827
2.095091 0.549659 0.601619
2.094443 0.549564 0.583495
2.029008 0.549190 0.583741
2.029831 0.515607 0.603284
2.094681 0.513781 0.604076
2.094032 0.513686 0.585952
2.028597 0.513313 0.586198
2.095272 0.561649 0.601369
2.095179 0.542190 0.588239
2.030329 0.544016 0.587447
2.021059 0.563054 0.601667
2.094682 0.540730 0.630617
2.094589 0.521270 0.617487
2.029739 0.523097 0.616695
2.020469 0.542135 0.630915
2.021367 0.564326 0.602677
2.030637 0.545288 0.588457
1.965940 0.550263 0.587824
1.947182 0.568104 0.603991
2.020022 0.540869 0.629905
2.029292 0.521831 0.615685
1.964595 0.526806 0.615052
1.945837 0.544647 0.631219
2.095325 0.549697 0.602745
2.163408 0.548278 0.601752
2.162432 0.548207 0.584946
2.094676 0.549602 0.584620
2.094581 0.513741 0.602950
2.162664 0.512322 0.601958
2.161688 0.512251 0.585151
2.093932 0.513646 0.584826
2.164981 0.559660 0.600198
2.163055 0.540423 0.587002
2.094971 0.541842 0.587995
2.095064 0.561302 0.601124
2.164945 0.539432 0.629934
2.163019 0.520196 0.616739
2.094936 0.521615 0.617731
2.095028 0.541074 0.630860
2.464076 0.561716 0.663097
2.404249 0.563209 0.663828
2.406281 0.544185 0.710557
2.466094 0.543075 0.710222
2.463231 0.528336 0.649738
2.403404 0.529830 0.650469
2.405436 0.510805 0.697197
2.465249 0.509695 0.696862
2.404172 0.563156 0.663965
2.344333 0.564445 0.664792
2.346450 0.545268 0.711048
2.406203 0.544131 0.710694
2.403362 0.529886 0.650333
2.343523 0.531175 0.651159
2.345640 0.511998 0.697415
2.405393 0.510861 0.697061
2.344226 0.564425 0.664849
2.284395 0.565287 0.665883
2.286540 0.546378 0.711478
2.346343 0.545247 0.711105
2.343511 0.531198 0.651104
2.283680 0.532061 0.652139
2.285824 0.513151 0.697734
2.345628 0.512021 0.697360
2.284319 0.565286 0.665891
2.224436 0.566306 0.666442
2.226686 0.547532 0.711622
2.286464 0.546376 0.711486
2.283636 0.532064 0.652133
2.223753 0.533085 0.652683
2.226003 0.514311 0.697863
2.285781 0.513155 0.697728
2.224361 0.566302 0.666455
2.164523 0.567499 0.666460
2.166684 0.548737 0.711505
2.226611 0.547528 0.711635
2.223708 0.533091 0.652670
2.163870 0.534289 0.652675
2.166031 0.515527 0.697720
2.225958 0.514317 0.697850
2.465954 0.543060 0.710267
2.406141 0.544169 0.710602
2.408218 0.525192 0.757361
2.467977 0.524411 0.757388
2.465392 0.509673 0.696910
2.405579 0.510782 0.697246
2.407656 0.491805 0.744004
2.467415 0.491024 0.744031
2.406102 0.544116 0.710735
2.346349 0.545253 0.711089
2.348410 0.526068 0.757386
2.408179 0.525139 0.757493
2.405499 0.510837 0.697113
2.345746 0.511974 0.697468
2.347806 0.492789 0.743765
2.407576 0.491860 0.743872
2.346340 0.545227 0.711153
2.286537 0.546358 0.711527
2.288657 0.527423 0.757134
2.348401 0.526042 0.757450
2.345635 0.512003 0.697404
2.285832 0.513133 0.697778
2.287953 0.494198 0.743385
2.347696 0.492817 0.743701
2.286456 0.546355 0.711538
2.226679 0.547510 0.711674
2.228924 0.528718 0.756849
2.288577 0.527420 0.757145
2.285793 0.513139 0.697766
2.226015 0.514294 0.697902
2.228260 0.495502 0.743077
2.287913 0.494204 0.743373
2.226598 0.547505 0.711690
2.166671 0.548715 0.711560
2.168833 0.529919 0.756591
2.228843 0.528712 0.756866
2.225976 0.514302 0.697885
2.166049 0.515512 0.697755
2.168211 0.496716 0.742785
2.228221 0.495509 0.743060
2.462317 0.544241 0.601841
2.465013 0.543310 0.583974
2.404477 0.544071 0.583205
2.402586 0.544918 0.601710
2.461875 0.508320 0.603542
2.464571 0.507389 0.585675
2.404035 0.508149 0.584906
2.402144 0.508997 0.603411
2.402542 0.544921 0.601760
2.404434 0.544073 0.583255
2.343903 0.544853 0.582789
2.342797 0.545716 0.601796
2.402066 0.508996 0.603360
2.403958 0.508148 0.584856
2.343427 0.508927 0.584390
2.342321 0.509791 0.603397
2.342803 0.545715 0.601771
2.343909 0.544851 0.582765
2.283365 0.545867 0.583144
2.283079 0.546776 0.602226
2.342194 0.509794 0.603421
2.343300 0.508930 0.584415
2.282756 0.509946 0.584794
2.282470 0.510855 0.603876
2.282989 0.546780 0.602270
2.283274 0.545870 0.583188
2.222655 0.546893 0.583677
2.223336 0.547603 0.601979
2.282440 0.510854 0.603832
2.282726 0.509945 0.584751
2.222106 0.510967 0.585239
2.222787 0.511677 0.603541
2.223295 0.547616 0.602346
2.222614 0.546906 0.584044
2.162418 0.548202 0.584634
2.163394 0.548273 0.601441
2.222708 0.511666 0.603174
2.222027 0.510956 0.584872
2.161831 0.512253 0.585462
2.162807 0.512324 0.602269
2.461117 0.553189 0.598929
2.462295 0.536073 0.587620
2.402564 0.536750 0.587489
2.402042 0.555095 0.599153
2.460716 0.533623 0.629102
2.461893 0.516507 0.617793
2.402162 0.517184 0.617662
2.401640 0.535529 0.629326
2.401935 0.554884 0.599016
2.402456 0.536539 0.587352
2.342711 0.537334 0.587389
2.342857 0.556521 0.599318
2.401629 0.535743 0.629462
2.402151 0.517397 0.617798
2.342405 0.518193 0.617834
2.342552 0.537380 0.629763
2.342684 0.556477 0.599289
2.342538 0.537290 0.587360
2.282814 0.538351 0.587814
2.283587 0.557437 0.599789
2.342606 0.537427 0.629793
2.342459 0.518240 0.617864
2.282735 0.519301 0.618318
2.283508 0.538387 0.630294
2.283641 0.557587 0.599884
2.282868 0.538501 0.587909
2.223215 0.539324 0.587618
2.224535 0.558443 0.600048
2.283335 0.538239 0.630199
2.282562 0.519153 0.618224
2.222909 0.519976 0.617932
2.224229 0.539095 0.630363
2.224573 0.558743 0.600245
2.223254 0.539625 0.587815
2.163352 0.540282 0.586910
2.165278 0.559519 0.600105
2.224072 0.538796 0.630165
2.222752 0.519677 0.617735
2.162850 0.520334 0.616831
2.164776 0.539571 0.630026
2.597769 0.542006 0.598296
2.598804 0.541656 0.584595
2.531942 0.542789 0.583620
2.529999 0.542118 0.598661
2.597438 0.506046 0.597860
2.598473 0.505696 0.584158
2.531611 0.506829 0.583183
2.529668 0.506158 0.598224
2.530120 0.542117 0.598352
2.532063 0.542789 0.583311
2.465210 0.543327 0.584732
2.462514 0.544258 0.602598
2.529412 0.506160 0.598535
2.531355 0.506832 0.583494
2.464501 0.507370 0.584915
2.461805 0.508301 0.602782
2.461468 0.555719 0.600921
2.529477 0.542032 0.595327
2.530252 0.536462 0.585365
2.462645 0.538603 0.589612
2.460492 0.531084 0.627105
2.528502 0.517397 0.621511
2.529277 0.511827 0.611549
2.461670 0.513968 0.615795
2.529025 0.545404 0.599638
2.597570 0.539722 0.589311
2.529800 0.539834 0.589676
2.529067 0.514015 0.617192
2.597613 0.508333 0.606866
2.529842 0.508445 0.607230
2.600675 0.539160 0.652704
2.599700 0.541887 0.598216
2.531154 0.547570 0.608543
2.533011 0.549393 0.655185
2.596483 0.503442 0.652502
2.595507 0.506169 0.598014
2.526962 0.511851 0.608341
2.528819 0.513674 0.654983
2.534345 0.549162 0.654227
2.532488 0.547339 0.607585
2.464479 0.561026 0.613178
2.467213 0.562645 0.655509
2.527349 0.513927 0.655951
2.525492 0.512104 0.609309
2.457483 0.525791 0.614903
2.460217 0.527410 0.657233
2.467744 0.524395 0.757433
2.533960 0.524418 0.756667
2.532998 0.544403 0.707952
2.465721 0.543044 0.710311
2.467775 0.491040 0.743985
2.533991 0.491063 0.743220
2.533029 0.511048 0.694505
2.465752 0.509689 0.696864
2.535882 0.524987 0.754677
2.602177 0.524587 0.754098
2.601280 0.531712 0.704764
2.534919 0.544972 0.705962
2.532202 0.490488 0.745208
2.598497 0.490087 0.744629
2.597601 0.497213 0.695295
2.531240 0.510473 0.696493
2.467418 0.543804 0.707661
2.534695 0.545163 0.705302
2.532533 0.548962 0.659255
2.465400 0.562445 0.660537
2.464052 0.508959 0.699420
2.531328 0.510318 0.697061
2.529166 0.514117 0.651014
2.462034 0.527600 0.652296
2.536216 0.545336 0.703081
2.602577 0.532076 0.701883
2.601718 0.538902 0.654554
2.534054 0.549134 0.657034
2.529941 0.510128 0.699278
2.596302 0.496868 0.698080
2.595443 0.503695 0.650750
2.527779 0.513927 0.653231
2.168303 0.503089 0.770333
2.167746 0.502351 0.808623
2.228290 0.501648 0.808172
2.228385 0.502513 0.769933
2.167917 0.467135 0.769577
2.167359 0.466397 0.807866
2.227903 0.465694 0.807415
2.227998 0.466559 0.769177
2.228418 0.502510 0.770036
2.228322 0.501645 0.808274
2.288824 0.500933 0.808188
2.288331 0.502128 0.769569
2.228086 0.466561 0.769074
2.227991 0.465696 0.807312
2.288493 0.464984 0.807226
2.288000 0.466179 0.768607
2.288375 0.502122 0.769767
2.288868 0.500926 0.808385
2.349416 0.500148 0.808559
2.348457 0.501908 0.769236
2.288076 0.466185 0.768409
2.288569 0.464989 0.807028
2.349116 0.464210 0.807202
2.348157 0.465971 0.767878
2.348531 0.501901 0.769380
2.349491 0.500141 0.808704
2.410055 0.499562 0.808114
2.408567 0.501412 0.769201
2.348203 0.465976 0.767733
2.349162 0.464216 0.807056
2.409726 0.463638 0.806466
2.408238 0.465488 0.767553
2.408643 0.501411 0.769216
2.410131 0.499561 0.808129
2.470673 0.499016 0.807183
2.468873 0.500793 0.769191
2.408283 0.465488 0.767537
2.409771 0.463638 0.806450
2.470314 0.463093 0.805504
2.468513 0.464870 0.767512
2.467818 0.518071 0.765428
2.408059 0.518852 0.765401
2.408583 0.493838 0.783035
2.468812 0.493220 0.783010
2.467577 0.497320 0.736056
2.407818 0.498101 0.736028
2.408341 0.473087 0.753662
2.468571 0.472469 0.753637
2.408010 0.518835 0.765413
2.348241 0.519763 0.765307
2.348498 0.494310 0.783227
2.408533 0.493821 0.783048
2.407747 0.498120 0.736016
2.347978 0.499048 0.735909
2.348235 0.473595 0.753829
2.408270 0.473106 0.753650
2.348214 0.519763 0.765307
2.288470 0.521144 0.764991
2.288389 0.494524 0.783759
2.348470 0.494310 0.783227
2.347885 0.499050 0.735909
2.288142 0.500431 0.735592
2.288061 0.473810 0.754360
2.348142 0.473597 0.753829
2.288413 0.521170 0.764973
2.228760 0.522468 0.764677
2.228419 0.494931 0.784208
2.288332 0.494549 0.783741
2.288079 0.500408 0.735610
2.228426 0.501706 0.735314
2.228085 0.474169 0.754844
2.287998 0.473787 0.754378
2.228703 0.522528 0.764635
2.168693 0.523735 0.764360
2.168281 0.495567 0.784565
2.228362 0.494991 0.784166
2.228363 0.501647 0.735356
2.168353 0.502854 0.735081
2.167940 0.474686 0.755286
2.228022 0.474110 0.754886
2.600620 0.499388 0.769042
2.534791 0.499766 0.769332
2.535961 0.499115 0.806720
2.601289 0.498482 0.806683
2.600341 0.463433 0.768302
2.534512 0.463811 0.768592
2.535682 0.463159 0.805981
2.601010 0.462526 0.805944
2.534714 0.499762 0.769536
2.468885 0.500803 0.768925
2.470685 0.499026 0.806918
2.535884 0.499110 0.806924
2.534457 0.463817 0.768388
2.468627 0.464858 0.767777
2.470428 0.463081 0.805770
2.535627 0.463165 0.805776
2.600496 0.517990 0.763869
2.534201 0.518390 0.764448
2.534809 0.492475 0.783405
2.600638 0.492097 0.783115
2.600180 0.496644 0.734927
2.533885 0.497045 0.735505
2.534492 0.471129 0.754462
2.600322 0.470751 0.754172
2.534075 0.518224 0.764570
2.467858 0.518201 0.765335
2.468853 0.493350 0.782916
2.534682 0.492309 0.783527
2.533878 0.497212 0.735384
2.467662 0.497189 0.736149
2.468657 0.472338 0.753730
2.534486 0.471296 0.754341
2.903445 0.521050 0.753319
2.845067 0.501464 0.765556
2.846381 0.500262 0.805446
2.905904 0.520190 0.804537
2.914742 0.486929 0.752079
2.856364 0.467343 0.764317
2.857678 0.466141 0.804206
2.917201 0.486069 0.803297
2.849579 0.502329 0.765615
2.787644 0.498752 0.767727
2.788720 0.497153 0.806194
2.850893 0.501127 0.805504
2.851731 0.466455 0.764266
2.789796 0.462878 0.766379
2.790872 0.461279 0.804846
2.853045 0.465253 0.804155
2.788665 0.498776 0.767879
2.725740 0.498975 0.767828
2.726896 0.497009 0.806893
2.789741 0.497177 0.806347
2.788650 0.462850 0.766228
2.725725 0.463049 0.766176
2.726881 0.461083 0.805242
2.789726 0.461251 0.804695
2.725807 0.498976 0.767787
2.663034 0.499172 0.768624
2.664189 0.497737 0.806978
2.726964 0.497011 0.806853
2.725531 0.463048 0.766217
2.662759 0.463243 0.767054
2.663913 0.461809 0.805408
2.726688 0.461082 0.805283
2.662972 0.499181 0.768390
2.600683 0.499383 0.769222
2.601352 0.498477 0.806863
2.664127 0.497747 0.806744
2.662696 0.463235 0.767290
2.600407 0.463437 0.768121
2.601076 0.462530 0.805763
2.663850 0.461800 0.805643
2.908596 0.514539 0.767230
2.846923 0.513734 0.765752
2.850217 0.494953 0.779468
2.909569 0.493447 0.738117
2.847896 0.492642 0.736638
2.851190 0.473861 0.750355
2.847234 0.513790 0.765718
2.785527 0.514850 0.764385
2.788594 0.491432 0.781546
2.850528 0.495009 0.779434
2.847483 0.492578 0.736676
2.785775 0.493638 0.735344
2.788842 0.470220 0.752505
2.850777 0.473797 0.750393
2.785592 0.514906 0.764345
2.723897 0.516159 0.763353
2.725733 0.491687 0.781454
2.788659 0.491488 0.781505
2.785586 0.493582 0.735384
2.723891 0.494835 0.734392
2.725727 0.470363 0.752493
2.788653 0.470164 0.752545
2.724053 0.516209 0.763315
2.662368 0.517110 0.763570
2.663116 0.491932 0.782253
2.725889 0.491737 0.781416
2.723611 0.494787 0.734430
2.661926 0.495688 0.734685
2.662674 0.470510 0.753369
2.725447 0.470314 0.752531
2.662310 0.517122 0.763561
2.600627 0.518040 0.763831
2.600769 0.492146 0.783076
2.663058 0.491944 0.782245
2.661860 0.495676 0.734695
2.600177 0.496594 0.734964
2.600319 0.470700 0.754210
2.662608 0.470498 0.753378
2.989709 0.536322 0.734173
2.989650 0.537326 0.777143
3.040473 0.557443 0.777815
3.039066 0.558022 0.733255
3.003563 0.503133 0.734121
3.003503 0.504138 0.777092
3.054327 0.524255 0.777763
3.052919 0.524834 0.733203
3.039169 0.558046 0.734040
3.040577 0.557467 0.778600
3.091429 0.577478 0.779260
3.088609 0.579581 0.733131
3.052916 0.524852 0.732418
3.054323 0.524273 0.776977
3.105175 0.544285 0.777638
3.102356 0.546388 0.731509
3.088628 0.579538 0.733849
3.091447 0.577435 0.779979
3.142256 0.597606 0.780661
3.137981 0.601223 0.732932
3.102438 0.546473 0.730790
3.105257 0.544370 0.776920
3.156066 0.564540 0.777602
3.151792 0.568157 0.729873
3.034361 0.532819 0.565112
3.013057 0.534581 0.618147
3.052308 0.556094 0.621428
3.069299 0.554846 0.568743
3.051702 0.502135 0.572267
3.030398 0.503897 0.625302
3.069649 0.525410 0.628583
3.086640 0.524162 0.575898
3.013997 0.535249 0.619022
2.991176 0.535300 0.671350
3.039683 0.556985 0.673435
3.053248 0.556762 0.622303
3.029420 0.503230 0.624531
3.006600 0.503282 0.676860
3.055106 0.524966 0.678944
3.068672 0.524744 0.627812
2.991595 0.535729 0.673809
2.989353 0.536164 0.733745
3.038710 0.557865 0.732827
3.040102 0.557413 0.675893
3.006161 0.502854 0.674511
3.003919 0.503290 0.734447
3.053276 0.524990 0.733529
3.054667 0.524538 0.676596
3.069173 0.554996 0.569879
3.052182 0.556245 0.622564
3.093456 0.577628 0.625348
3.103586 0.577845 0.573516
3.086841 0.524055 0.574769
3.069850 0.525303 0.627453
3.111124 0.546687 0.630238
3.121253 0.546903 0.578406
3.053347 0.556966 0.623462
3.039782 0.557189 0.674593
3.088406 0.578810 0.676781
3.094621 0.578349 0.626246
3.068661 0.524583 0.626659
3.055096 0.524805 0.677790
3.103721 0.546427 0.679978
3.109935 0.545966 0.629443
3.040194 0.557456 0.675995
3.038802 0.557908 0.732929
3.088242 0.579443 0.732019
3.088818 0.579077 0.678183
3.054673 0.524539 0.676495
3.053282 0.524991 0.733429
3.102722 0.546527 0.732520
3.103298 0.546160 0.678683
3.103612 0.578028 0.575099
3.093482 0.577811 0.626931
3.136485 0.599622 0.629108
3.138791 0.600785 0.578764
3.121304 0.546765 0.576830
3.111175 0.546548 0.628662
3.154177 0.568359 0.630839
3.156483 0.569522 0.580495
3.094654 0.578432 0.627217
3.088439 0.578892 0.677752
3.137171 0.600546 0.680085
3.137657 0.600242 0.629394
3.109993 0.545927 0.628477
3.103778 0.546388 0.679012
3.152510 0.568042 0.681346
3.152996 0.567738 0.630655
3.088842 0.579088 0.678276
3.088266 0.579455 0.732113
3.137619 0.601139 0.731195
3.137573 0.600743 0.680610
3.103372 0.546192 0.678590
3.102796 0.546558 0.732427
3.152150 0.568243 0.731510
3.152104 0.567846 0.680924
2.944629 0.535574 0.730315
2.943711 0.536573 0.791748
2.969732 0.537633 0.784276
2.970213 0.536618 0.732066
2.946167 0.499649 0.730971
2.945249 0.500647 0.792403
2.971270 0.501707 0.784932
2.971751 0.500693 0.732721
2.970231 0.536618 0.732005
2.969750 0.537632 0.784216
2.995762 0.538682 0.776734
2.995821 0.537677 0.733763
2.971784 0.500696 0.732776
2.971303 0.501710 0.784987
2.997316 0.502760 0.777504
2.997375 0.501755 0.734534
2.942934 0.538457 0.580808
2.944765 0.536389 0.630663
2.981225 0.536893 0.626539
2.992991 0.537906 0.575089
2.942789 0.502511 0.579700
2.944620 0.500443 0.629555
2.981079 0.500946 0.625431
2.992845 0.501960 0.573981
2.944335 0.536393 0.630327
2.944642 0.535682 0.680532
2.971454 0.536487 0.677442
2.980795 0.536896 0.626203
2.945041 0.500437 0.629993
2.945348 0.499727 0.680198
2.972159 0.500531 0.677108
2.981500 0.500941 0.625869
2.944358 0.535675 0.680406
2.944764 0.535581 0.730577
2.970348 0.536626 0.732327
2.971169 0.536480 0.677315
2.945627 0.499733 0.680429
2.946033 0.499640 0.730600
2.971617 0.500684 0.732350
2.972438 0.500538 0.677338
2.993391 0.537909 0.574537
2.981626 0.536896 0.625987
3.022115 0.537205 0.621732
3.043419 0.535443 0.568697
2.992533 0.501956 0.574523
2.980767 0.500942 0.625973
3.021257 0.501251 0.621718
3.042561 0.499489 0.568683
2.980890 0.536899 0.626004
2.971548 0.536489 0.677243
2.998558 0.537260 0.674077
3.021379 0.537208 0.621749
2.981471 0.500939 0.626060
2.972130 0.500530 0.677300
2.999140 0.501300 0.674134
3.021960 0.501249 0.621805
2.971202 0.536481 0.677219
2.970380 0.536627 0.732230
2.995971 0.537686 0.733988
2.998212 0.537251 0.674052
2.972458 0.500539 0.677434
2.971636 0.500685 0.732446
2.997227 0.501745 0.734204
2.999468 0.501309 0.674268
2.941179 0.535049 0.731828
2.940774 0.535143 0.681656
2.905011 0.528855 0.696513
2.904952 0.521452 0.753861
2.949555 0.500161 0.729368
2.949150 0.500254 0.679197
2.913388 0.493967 0.694053
2.913328 0.486564 0.751402
2.943642 0.535595 0.681578
2.943335 0.536306 0.631373
2.908147 0.535841 0.639065
2.907880 0.529308 0.696434
2.946281 0.499809 0.679168
2.945974 0.500520 0.628962
2.910786 0.500055 0.636654
2.910519 0.493522 0.694024
2.944799 0.536376 0.630988
2.942968 0.538444 0.581133
2.911352 0.539075 0.581074
2.909611 0.535912 0.638680
2.944510 0.500456 0.629239
2.942678 0.502524 0.579384
2.911063 0.503155 0.579326
2.909322 0.499991 0.636931
2.902200 0.520595 0.752761
2.904659 0.519736 0.803979
2.937510 0.535191 0.792160
2.938428 0.534192 0.730727
2.916081 0.487418 0.752612
2.918540 0.486559 0.803831
2.951390 0.502014 0.792011
2.952308 0.501015 0.730579
2.661465 0.541074 0.584419
2.660769 0.538880 0.639934
2.722849 0.537937 0.639728
2.723960 0.540597 0.583651
2.661044 0.505147 0.582849
2.660347 0.502953 0.638364
2.722427 0.502010 0.638159
2.723538 0.504669 0.582081
2.724127 0.540595 0.583637
2.723016 0.537935 0.639715
2.786384 0.537100 0.639552
2.786918 0.539248 0.583002
2.723496 0.504670 0.582094
2.722385 0.502010 0.638172
2.785753 0.501175 0.638009
2.786286 0.503322 0.581459
2.786817 0.539250 0.582984
2.786283 0.537102 0.639534
2.849393 0.536358 0.639316
2.849318 0.538969 0.582362
2.786513 0.503319 0.581476
2.785980 0.501171 0.638026
2.849090 0.500426 0.637808
2.849014 0.503038 0.580854
2.849292 0.538963 0.582514
2.849368 0.536351 0.639467
2.909484 0.535911 0.638714
2.911224 0.539074 0.581109
2.849164 0.503045 0.580701
2.849239 0.500433 0.637655
2.909355 0.499993 0.636902
2.911096 0.503156 0.579296
2.599082 0.539117 0.654976
2.599941 0.532291 0.702306
2.661669 0.532135 0.696659
2.660933 0.538738 0.641539
2.598208 0.503467 0.650317
2.599067 0.496641 0.697646
2.660795 0.496484 0.692000
2.660059 0.503088 0.636880
2.660836 0.538765 0.641340
2.661573 0.532161 0.696460
2.723405 0.531209 0.696342
2.722916 0.537822 0.641135
2.660279 0.503060 0.637069
2.661015 0.496456 0.692189
2.722848 0.495504 0.692071
2.722359 0.502117 0.636864
2.722967 0.537817 0.641165
2.723456 0.531204 0.696373
2.786146 0.530135 0.696687
2.786336 0.536982 0.641002
2.722433 0.502119 0.636834
2.722922 0.495506 0.692041
2.785611 0.494437 0.692355
2.785801 0.501284 0.636671
2.786373 0.536975 0.641058
2.786183 0.530128 0.696742
2.848687 0.529149 0.697150
2.849482 0.536230 0.640839
2.785890 0.501289 0.636615
2.785700 0.494442 0.692300
2.848204 0.493463 0.692707
2.848999 0.500545 0.636397
2.849360 0.536241 0.640757
2.848564 0.529160 0.697067
2.909209 0.529268 0.697374
2.909476 0.535801 0.640004
2.849245 0.500533 0.636479
2.848450 0.493451 0.692790
2.909094 0.493559 0.693096
2.909362 0.500092 0.635726
2.599783 0.532255 0.702590
2.600679 0.525130 0.751925
2.662362 0.524212 0.751656
2.661511 0.532099 0.696944
2.599227 0.496663 0.697464
2.600123 0.489537 0.746799
2.661807 0.488620 0.746529
2.660955 0.496506 0.691818
2.661569 0.532099 0.696936
2.662421 0.524212 0.751647
2.724105 0.523312 0.751392
2.723402 0.531146 0.696818
2.661020 0.496504 0.691824
2.661871 0.488618 0.746535
2.723556 0.487717 0.746280
2.722852 0.495552 0.691706
2.723495 0.531143 0.696830
2.724198 0.523308 0.751404
2.785893 0.522055 0.752396
2.786184 0.530074 0.697144
2.722884 0.495553 0.691695
2.723587 0.487718 0.746269
2.785282 0.486465 0.747261
2.785573 0.494484 0.692009
2.786197 0.530072 0.697154
2.785906 0.522053 0.752406
2.847613 0.520993 0.753739
2.848701 0.529093 0.697562
2.785685 0.494483 0.692000
2.785394 0.486464 0.747252
2.847101 0.485404 0.748584
2.848188 0.493504 0.692407
2.848338 0.529114 0.697417
2.847250 0.521014 0.753594
2.908923 0.521819 0.755072
2.908983 0.529222 0.697723
2.848675 0.493482 0.692554
2.847587 0.485382 0.748731
2.909260 0.486187 0.750209
2.909319 0.493590 0.692860
1.748526 0.626948 0.835100
1.747998 0.627005 0.870058
1.823347 0.627441 0.851874
1.823876 0.626776 0.816924
1.748679 0.590986 0.835474
1.748151 0.591043 0.870432
1.823501 0.591480 0.852248
1.824030 0.590814 0.817298
1.824338 0.626771 0.816766
1.823809 0.627436 0.851716
1.899725 0.625884 0.838967
1.900264 0.625247 0.804010
1.823720 0.590818 0.817426
1.823191 0.591484 0.852376
1.899107 0.589931 0.839627
1.899647 0.589294 0.804670
1.931205 0.609314 0.804758
1.909353 0.622623 0.804192
1.908814 0.623260 0.839149
1.930669 0.609978 0.839711
1.912507 0.578594 0.805042
1.890656 0.591903 0.804476
1.890116 0.592540 0.839433
1.911972 0.579258 0.839995
1.937474 0.602878 0.804966
1.936939 0.603543 0.839919
1.961350 0.561007 0.844433
1.961867 0.560335 0.809475
1.906284 0.584973 0.804839
1.905749 0.585638 0.839792
1.930161 0.543102 0.844306
1.930677 0.542430 0.809348
2.102718 0.503778 0.808783
2.044393 0.507528 0.809317
2.043858 0.508182 0.844271
2.102184 0.504478 0.843736
2.100432 0.467893 0.809442
2.042106 0.471643 0.809976
2.041571 0.472296 0.844931
2.099897 0.468592 0.844396
2.050520 0.506020 0.809454
1.997315 0.529760 0.809277
1.996766 0.530409 0.844231
2.049984 0.506674 0.844409
2.035868 0.473178 0.809839
1.982663 0.496918 0.809662
1.982114 0.497568 0.844616
2.035332 0.473832 0.844794
2.001749 0.526930 0.809393
1.958115 0.564903 0.809338
1.957599 0.565575 0.844296
2.001200 0.527580 0.844347
1.978131 0.499809 0.809546
1.934497 0.537782 0.809490
1.933980 0.538454 0.844448
1.977582 0.500459 0.844499
2.167752 0.502351 0.807931
2.167214 0.503019 0.842884
2.227727 0.502356 0.842435
2.228296 0.501648 0.807480
2.167352 0.466397 0.808631
2.166813 0.467064 0.843584
2.227326 0.466401 0.843136
2.227896 0.465693 0.808181
2.228373 0.501648 0.807478
2.227803 0.502355 0.842433
2.288373 0.501610 0.842344
2.288874 0.500935 0.807392
2.227941 0.465693 0.808182
2.227371 0.466400 0.843137
2.287941 0.465655 0.843048
2.288442 0.464981 0.808096
2.288947 0.500935 0.807394
2.288446 0.501609 0.842346
2.348961 0.500857 0.842522
2.349495 0.500156 0.807567
2.288490 0.464980 0.808094
2.287989 0.465655 0.843047
2.348505 0.464902 0.843223
2.349038 0.464202 0.808267
2.349502 0.500156 0.807571
2.348969 0.500857 0.842526
2.409356 0.500234 0.841936
2.410066 0.499577 0.806981
2.349152 0.464200 0.808263
2.348618 0.464901 0.843218
2.409006 0.464278 0.842628
2.409716 0.463622 0.807673
2.410104 0.499577 0.806985
2.409394 0.500234 0.841940
2.470114 0.499713 0.840995
2.470646 0.499032 0.806039
2.409799 0.463621 0.807668
2.409089 0.464277 0.842623
2.469808 0.463757 0.841677
2.470341 0.463076 0.806722
2.167887 0.502349 0.807936
2.102035 0.503808 0.808766
2.101500 0.504507 0.843720
2.167348 0.503017 0.842889
2.167091 0.466401 0.808627
2.101239 0.467859 0.809457
2.100704 0.468558 0.844411
2.166552 0.467068 0.843580
2.601323 0.498482 0.806014
2.535994 0.499115 0.806051
2.535487 0.499768 0.841004
2.600792 0.499145 0.840969
2.600978 0.462526 0.806686
2.535649 0.463159 0.806723
2.535142 0.463812 0.841676
2.600447 0.463189 0.841641
2.535737 0.499116 0.806043
2.470538 0.499032 0.806037
2.470005 0.499713 0.840992
2.535230 0.499769 0.840996
2.535775 0.463158 0.806730
2.470576 0.463075 0.806723
2.470043 0.463756 0.841679
2.535268 0.463811 0.841683
2.905846 0.520178 0.803607
2.846323 0.500250 0.804516
2.845812 0.500816 0.839472
2.905342 0.520707 0.838565
2.917261 0.486081 0.804307
2.857738 0.466153 0.805216
2.857227 0.466719 0.840172
2.916757 0.486610 0.839265
2.850821 0.501132 0.804556
2.788648 0.497158 0.805246
2.788129 0.497738 0.840202
2.850310 0.501698 0.839512
2.853118 0.465247 0.805178
2.790945 0.461273 0.805868
2.790426 0.461852 0.840824
2.852606 0.465813 0.840134
2.789687 0.497193 0.805253
2.726842 0.497025 0.805799
2.726308 0.497630 0.840755
2.789168 0.497772 0.840208
2.789781 0.461234 0.805863
2.726936 0.461066 0.806410
2.726402 0.461671 0.841366
2.789262 0.461814 0.840819
2.727036 0.497024 0.805792
2.664262 0.497751 0.805917
2.663732 0.498374 0.840871
2.726502 0.497629 0.840748
2.726616 0.461068 0.806418
2.663841 0.461794 0.806543
2.663312 0.462418 0.841497
2.726082 0.461673 0.841373
2.664203 0.497751 0.805902
2.601428 0.498481 0.806022
2.600898 0.499144 0.840977
2.663673 0.498375 0.840856
2.663775 0.461796 0.806558
2.601000 0.462525 0.806677
2.600470 0.463189 0.841632
2.663245 0.462419 0.841512
2.903818 0.519354 0.803574
2.903314 0.519883 0.838532
2.936145 0.535414 0.826708
2.936669 0.534809 0.791754
2.919381 0.486941 0.804328
2.918877 0.487469 0.839286
2.951708 0.503000 0.827462
2.952232 0.502396 0.792508
3.181117 0.584812 0.581905
3.177379 0.585380 0.631533
3.178710 0.559169 0.629274
3.182502 0.558598 0.579725
3.145292 0.583185 0.579204
3.141554 0.583753 0.628832
3.142885 0.557542 0.626572
3.146676 0.556971 0.577023
3.177422 0.585499 0.630189
3.177521 0.585478 0.680033
3.178899 0.559268 0.677807
3.178754 0.559288 0.627929
3.141507 0.583635 0.630276
3.141605 0.583615 0.680120
3.142983 0.557404 0.677894
3.142838 0.557424 0.628016
3.177522 0.585464 0.680135
3.177541 0.585371 0.730192
3.178842 0.559160 0.727924
3.178900 0.559253 0.677909
3.141604 0.583629 0.680118
3.141624 0.583537 0.730175
3.142925 0.557326 0.727907
3.142982 0.557419 0.677892
3.177541 0.585349 0.730430
3.177083 0.583866 0.775607
3.178448 0.557659 0.773328
3.178842 0.559138 0.728162
3.141624 0.583557 0.730033
3.141166 0.582073 0.775209
3.142531 0.555867 0.772931
3.142925 0.557346 0.727764
1.945124 0.551173 0.862339
1.941258 0.508911 0.860440
1.987771 0.479339 0.860626
1.988726 0.513178 0.862391
1.946452 0.552818 0.826438
1.942585 0.510556 0.824538
1.989098 0.480984 0.824724
1.990053 0.514823 0.826489
1.988975 0.513011 0.862390
1.988020 0.479172 0.860625
2.043257 0.459986 0.860952
2.042194 0.489275 0.862568
1.989904 0.514935 0.826490
1.988948 0.481096 0.824725
2.044185 0.461910 0.825052
2.043122 0.491199 0.826668
2.042858 0.489146 0.862567
2.043921 0.459857 0.860951
2.104696 0.456846 0.860132
2.101184 0.485442 0.862032
2.042572 0.491304 0.826669
2.043635 0.462014 0.825053
2.104409 0.459004 0.824234
2.100898 0.487600 0.826134
2.101255 0.485461 0.862032
2.104767 0.456865 0.860133
2.168278 0.455551 0.859702
2.167103 0.483971 0.861202
2.100951 0.487576 0.826132
2.104463 0.458981 0.824232
2.167974 0.457666 0.823801
2.166799 0.486086 0.825301
2.167177 0.484003 0.861203
2.168352 0.455583 0.859703
2.236972 0.454689 0.858903
2.227690 0.483340 0.860754
2.166854 0.486052 0.825299
2.168029 0.457632 0.823799
2.236649 0.456738 0.822999
2.227368 0.485389 0.824850
2.227683 0.483063 0.860736
2.236965 0.454412 0.858885
2.297888 0.453652 0.858245
2.288253 0.482318 0.860647
2.227500 0.485664 0.824867
2.236782 0.457014 0.823016
2.297705 0.456253 0.822376
2.288070 0.484919 0.824778
2.288189 0.482022 0.860624
2.297823 0.453356 0.858221
2.352863 0.452208 0.858085
2.348704 0.481270 0.860800
2.288253 0.485213 0.824801
2.297888 0.456547 0.822399
2.352928 0.455399 0.822263
2.348768 0.484461 0.824978
2.348905 0.481306 0.860802
2.353065 0.452245 0.858088
2.408925 0.451680 0.857853
2.409293 0.480684 0.860213
2.348683 0.484423 0.824974
2.352843 0.455361 0.822260
2.408703 0.454797 0.822025
2.409070 0.483800 0.824385
2.409488 0.480816 0.860222
2.409121 0.451813 0.857862
2.461520 0.451398 0.857159
2.470208 0.480296 0.859276
2.408989 0.483666 0.824374
2.408622 0.454663 0.822015
2.461021 0.454248 0.821311
2.469709 0.483145 0.823429
2.470146 0.480074 0.859258
2.461459 0.451177 0.857140
2.511549 0.450849 0.856268
2.535371 0.480129 0.859262
2.469885 0.483367 0.823446
2.461197 0.454469 0.821328
2.511287 0.454142 0.820456
2.535110 0.483422 0.823450
2.535368 0.479738 0.859222
2.511545 0.450457 0.856228
2.593465 0.450394 0.855673
2.600673 0.479115 0.859187
2.535244 0.483813 0.823490
2.511421 0.454533 0.820496
2.593341 0.454470 0.819941
2.600549 0.483191 0.823455
2.600745 0.478818 0.859150
2.593537 0.450097 0.855637
2.645750 0.449717 0.855168
2.663521 0.478048 0.859029
2.600609 0.483487 0.823491
2.593401 0.454766 0.819977
2.645614 0.454386 0.819508
2.663384 0.482718 0.823370
2.663514 0.477956 0.859017
2.645744 0.449625 0.855155
2.698023 0.448898 0.855053
2.726284 0.477211 0.858894
2.663506 0.482809 0.823382
2.645736 0.454477 0.819520
2.698015 0.453750 0.819418
2.726276 0.482063 0.823258
2.726426 0.477298 0.858905
2.698165 0.448985 0.855064
2.761093 0.448138 0.854914
2.789286 0.477440 0.858358
2.726255 0.481975 0.823247
2.697993 0.453662 0.819406
2.760921 0.452815 0.819256
2.789115 0.482117 0.822700
2.789501 0.477651 0.858382
2.761307 0.448349 0.854938
2.818444 0.448325 0.854499
2.851682 0.481612 0.857693
2.789022 0.481908 0.822674
2.760829 0.452606 0.819230
2.817966 0.452582 0.818791
2.851203 0.485869 0.821985
2.852325 0.481550 0.857666
2.819087 0.448263 0.854472
2.885358 0.456773 0.853090
2.911855 0.501440 0.856759
2.850683 0.485947 0.822010
2.817445 0.452660 0.818816
2.883717 0.461170 0.817433
2.910213 0.505838 0.821103
2.915732 0.501411 0.856152
2.889236 0.456744 0.852482
2.948159 0.474112 0.843855
2.948564 0.516942 0.844328
2.906444 0.505898 0.821699
2.879948 0.461231 0.818029
2.938871 0.478598 0.809402
2.939276 0.521429 0.809875
1.941875 0.509286 0.860465
1.945584 0.453990 0.859958
1.998351 0.439660 0.859050
1.988389 0.479714 0.860651
1.941971 0.510095 0.824510
1.945680 0.454798 0.824003
1.998447 0.440468 0.823095
1.988485 0.480523 0.824696
1.988165 0.479146 0.860627
1.998127 0.439091 0.859026
2.054152 0.429416 0.859175
2.043402 0.459960 0.860954
1.988814 0.481055 0.824720
1.998776 0.441000 0.823119
2.054801 0.431325 0.823268
2.044051 0.461869 0.825047
2.044014 0.459862 0.860950
2.054765 0.429318 0.859172
2.114808 0.427841 0.858181
2.104789 0.456852 0.860132
2.043554 0.461950 0.825050
2.054305 0.431406 0.823271
2.114348 0.429929 0.822280
2.104329 0.458940 0.824231
2.104661 0.456831 0.860131
2.114680 0.427820 0.858180
2.177270 0.426827 0.858191
2.168172 0.455517 0.859700
2.104580 0.458957 0.824230
2.114599 0.429946 0.822279
2.177189 0.428954 0.822290
2.168091 0.457643 0.823799
2.168425 0.455632 0.859705
2.177523 0.426942 0.858195
2.243701 0.426008 0.857186
2.237045 0.454738 0.858905
2.167969 0.457526 0.823793
2.177067 0.428836 0.822284
2.243245 0.427902 0.821275
2.236589 0.456632 0.822994
2.237084 0.454601 0.858897
2.243740 0.425871 0.857178
2.309845 0.425433 0.856318
2.298008 0.453840 0.858256
2.236681 0.456768 0.823000
2.243337 0.428038 0.821282
2.309441 0.427600 0.820422
2.297604 0.456007 0.822360
2.297953 0.453596 0.858240
2.309791 0.425189 0.856302
2.361021 0.424062 0.855742
2.352993 0.452449 0.858104
2.297775 0.456250 0.822375
2.309612 0.427842 0.820437
2.360843 0.426715 0.819876
2.352815 0.455102 0.822239
2.353028 0.452285 0.858091
2.361056 0.423898 0.855729
2.417354 0.422454 0.855365
2.408888 0.451721 0.857857
2.352890 0.455263 0.822251
2.360918 0.426877 0.819889
2.417216 0.425432 0.819525
2.408750 0.454699 0.822017
2.409085 0.451776 0.857860
2.417550 0.422510 0.855368
2.469016 0.422193 0.854788
2.461484 0.451361 0.857156
2.408662 0.454642 0.822013
2.417127 0.425375 0.819521
2.468593 0.425058 0.818941
2.461061 0.454227 0.821309
2.461620 0.451426 0.857159
2.469152 0.422257 0.854791
2.518441 0.422000 0.853973
2.511710 0.451098 0.856287
2.461026 0.454162 0.821304
2.468558 0.424993 0.818936
2.517847 0.424736 0.818118
2.511116 0.453834 0.820432
2.511680 0.450854 0.856267
2.518410 0.421756 0.853953
2.588641 0.421612 0.852760
2.593599 0.450791 0.855713
2.511273 0.454078 0.820450
2.518003 0.424980 0.818137
2.588235 0.424836 0.816944
2.593192 0.454015 0.819896
2.593671 0.450449 0.855678
2.588713 0.421270 0.852725
2.653535 0.421102 0.851774
2.645884 0.450069 0.855209
2.593255 0.454357 0.819929
2.588298 0.425178 0.816977
2.653119 0.425010 0.816025
2.645469 0.453977 0.819460
2.645853 0.449725 0.855168
2.653504 0.420757 0.851733
2.702786 0.420478 0.851009
2.698132 0.448998 0.855066
2.645609 0.454321 0.819500
2.653259 0.425353 0.816065
2.702542 0.425074 0.815341
2.697888 0.453593 0.819397
2.698052 0.448808 0.855040
2.702706 0.420288 0.850984
2.758020 0.419373 0.850973
2.760980 0.447961 0.854890
2.698078 0.453782 0.819422
2.702732 0.425262 0.815366
2.758045 0.424347 0.815354
2.761006 0.452935 0.819272
2.761136 0.448100 0.854909
2.758176 0.419512 0.850991
2.820533 0.418712 0.850761
2.818273 0.448077 0.854469
2.760969 0.452794 0.819253
2.758008 0.424206 0.815335
2.820366 0.423406 0.815105
2.818105 0.452771 0.818813
2.818843 0.448330 0.854490
2.821103 0.418966 0.850781
2.883810 0.421836 0.849226
2.885114 0.456840 0.853107
2.817660 0.452522 0.818791
2.819920 0.423158 0.815082
2.882627 0.426028 0.813527
2.883931 0.461032 0.817408
2.886897 0.457900 0.853056
2.885593 0.422896 0.849174
2.945423 0.432471 0.843959
2.945820 0.475268 0.844428
2.882272 0.459992 0.817452
2.880968 0.424988 0.813570
2.940799 0.434563 0.808355
2.941196 0.477360 0.808824
1.946102 0.454002 0.859952
1.949868 0.398822 0.859522
2.008198 0.399202 0.857303
1.998868 0.439672 0.859044
1.945176 0.454691 0.824007
1.948943 0.399511 0.823577
2.007273 0.399891 0.821358
1.997943 0.440361 0.823099
1.998374 0.439042 0.859027
2.007704 0.398572 0.857286
2.066006 0.399746 0.857236
2.054399 0.429366 0.859176
1.998549 0.440980 0.823115
2.007880 0.400510 0.821374
2.066182 0.401684 0.821325
2.054575 0.431304 0.823264
2.054823 0.429250 0.859167
2.066430 0.399630 0.857227
2.124758 0.398753 0.856244
2.114866 0.427772 0.858176
2.054267 0.431416 0.823272
2.065874 0.401796 0.821333
2.124203 0.400919 0.820350
2.114311 0.429938 0.822281
2.114582 0.427737 0.858175
2.124473 0.398718 0.856244
2.182830 0.398491 0.856609
2.177172 0.426744 0.858185
2.114715 0.429972 0.822281
2.124607 0.400953 0.820349
2.182964 0.400726 0.820714
2.177305 0.428979 0.822291
2.177592 0.426840 0.858189
2.183251 0.398587 0.856612
2.241609 0.397998 0.855506
2.243770 0.425906 0.857180
2.177008 0.428882 0.822287
2.182666 0.400629 0.820710
2.241024 0.400040 0.819605
2.243185 0.427948 0.821278
2.243784 0.425788 0.857172
2.241623 0.397880 0.855498
2.300198 0.397378 0.854603
2.309889 0.425350 0.856312
2.243296 0.428064 0.821284
2.241135 0.400156 0.819610
2.299710 0.399654 0.818714
2.309401 0.427626 0.820424
2.309907 0.425259 0.856306
2.300215 0.397286 0.854597
2.358590 0.396776 0.853804
2.361137 0.424132 0.855746
2.309500 0.427717 0.820429
2.299809 0.399744 0.818719
2.358184 0.399233 0.817926
2.360731 0.426589 0.819868
2.361090 0.424041 0.855740
2.358542 0.396685 0.853798
2.416913 0.394617 0.853268
2.417387 0.422597 0.855376
2.360891 0.426677 0.819873
2.358343 0.399321 0.817931
2.416714 0.397253 0.817401
2.417189 0.425233 0.819509
2.417465 0.422696 0.855383
2.416990 0.394716 0.853275
2.475323 0.392074 0.852916
2.468931 0.422379 0.854803
2.417224 0.425131 0.819502
2.416749 0.397151 0.817394
2.475082 0.394509 0.817035
2.468689 0.424814 0.818922
2.469232 0.422433 0.854802
2.475625 0.392128 0.852915
2.533996 0.392879 0.851559
2.518520 0.422175 0.853984
2.468497 0.424759 0.818921
2.474889 0.394454 0.817034
2.533261 0.395205 0.815678
2.517785 0.424501 0.818103
2.518608 0.421837 0.853957
2.534084 0.392540 0.851532
2.592331 0.393361 0.849937
2.588840 0.421693 0.852764
2.517815 0.424841 0.818128
2.533291 0.395544 0.815703
2.591537 0.396365 0.814108
2.588047 0.424697 0.816935
2.588811 0.421341 0.852732
2.592302 0.393009 0.849905
2.651551 0.392683 0.848693
2.653632 0.421173 0.851780
2.588202 0.425049 0.816964
2.591693 0.396717 0.814138
2.650942 0.396390 0.812926
2.653024 0.424881 0.816013
2.653688 0.420980 0.851758
2.651607 0.392489 0.848671
2.709960 0.392199 0.847508
2.702971 0.420701 0.851034
2.653084 0.425073 0.816033
2.651002 0.396582 0.812946
2.709355 0.396292 0.811783
2.702366 0.424794 0.815309
2.702819 0.420310 0.850987
2.709808 0.391809 0.847461
2.768249 0.391411 0.846685
2.758133 0.419395 0.850975
2.702629 0.425183 0.815355
2.709618 0.396682 0.811829
2.768058 0.396284 0.811053
2.757942 0.424268 0.815344
2.758061 0.419241 0.850954
2.768177 0.391256 0.846663
2.826527 0.389534 0.846765
2.820418 0.418441 0.850723
2.758131 0.424421 0.815365
2.768247 0.396436 0.811074
2.826597 0.394714 0.811176
2.820489 0.423620 0.815134
2.820996 0.418823 0.850767
2.827105 0.389916 0.846810
2.885453 0.389012 0.845336
2.883703 0.421693 0.849212
2.820032 0.423238 0.815089
2.826140 0.394332 0.811131
2.884489 0.393428 0.809657
2.882739 0.426108 0.813533
2.884429 0.422892 0.849287
2.886179 0.390211 0.845411
2.943858 0.389627 0.843599
2.944259 0.432468 0.844072
2.882132 0.424915 0.813453
2.883882 0.392234 0.809577
2.941561 0.391650 0.807766
2.941962 0.434490 0.808238
1.948931 0.371582 0.813788
2.007288 0.371392 0.811772
2.007967 0.382408 0.844843
1.949637 0.382028 0.847062
1.948474 0.405800 0.802728
2.006831 0.405610 0.800712
2.007510 0.416626 0.833784
1.949180 0.416246 0.836003
2.007493 0.371429 0.811875
2.065792 0.372762 0.811771
2.066473 0.383620 0.844897
2.008172 0.382445 0.844946
2.006744 0.405574 0.800607
2.065043 0.406907 0.800504
2.065724 0.417765 0.833629
2.007423 0.416591 0.833679
2.065365 0.372721 0.811655
2.123717 0.372142 0.810470
2.124374 0.382702 0.843797
2.066046 0.383578 0.844780
2.065587 0.406949 0.800619
2.123939 0.406370 0.799434
2.124596 0.416930 0.832761
2.066268 0.417807 0.833744
2.123742 0.372137 0.810456
2.182144 0.371657 0.810966
2.182756 0.382471 0.844148
2.124399 0.382697 0.843783
2.124031 0.406374 0.799447
2.182434 0.405894 0.799958
2.183046 0.416707 0.833140
2.124689 0.416934 0.832775
2.182249 0.371696 0.811087
2.240621 0.370898 0.810032
2.241219 0.381920 0.843163
2.182861 0.382509 0.844269
2.182446 0.405854 0.799836
2.240818 0.405056 0.798780
2.241416 0.416078 0.831912
2.183058 0.416667 0.833018
2.240718 0.370915 0.810084
2.299055 0.370410 0.809192
2.299890 0.381435 0.842320
2.241316 0.381937 0.843215
2.240838 0.405038 0.798727
2.299175 0.404533 0.797835
2.300010 0.415558 0.830963
2.241436 0.416060 0.831858
2.299129 0.370395 0.809147
2.357511 0.370058 0.808290
2.358339 0.380909 0.841481
2.299964 0.381419 0.842274
2.299218 0.404548 0.797879
2.357600 0.404211 0.797022
2.358428 0.415062 0.830213
2.300053 0.415573 0.831007
2.357146 0.370005 0.808109
2.415517 0.368502 0.807438
2.416345 0.378787 0.840771
2.357974 0.380855 0.841300
2.358082 0.404262 0.797202
2.416453 0.402760 0.796530
2.417280 0.413044 0.829864
2.358909 0.415113 0.830393
2.415425 0.368398 0.807088
2.473821 0.366553 0.806458
2.474585 0.376041 0.840062
2.416252 0.378683 0.840421
2.416663 0.402860 0.796879
2.475059 0.401016 0.796249
2.475823 0.410503 0.829853
2.417490 0.413145 0.830212
2.474692 0.366546 0.806470
2.533068 0.366392 0.805412
2.533827 0.376785 0.838718
2.475456 0.376033 0.840074
2.474304 0.401021 0.796236
2.532680 0.400867 0.795178
2.533439 0.411260 0.828484
2.475068 0.410508 0.829840
2.533241 0.366506 0.805774
2.591552 0.366812 0.804320
2.592247 0.377719 0.837485
2.534000 0.376899 0.839080
2.532624 0.400754 0.794813
2.590934 0.401059 0.793359
2.591630 0.411967 0.826524
2.533383 0.411146 0.828119
2.591314 0.366858 0.804471
2.649328 0.366484 0.803304
2.651258 0.377439 0.836424
2.592009 0.377766 0.837635
2.591289 0.401013 0.793206
2.649304 0.400638 0.792039
2.651234 0.411594 0.825159
2.591985 0.411920 0.826371
2.649445 0.366464 0.803244
2.707830 0.366446 0.801995
2.709727 0.377130 0.835201
2.651375 0.377420 0.836364
2.649305 0.400657 0.792097
2.707690 0.400638 0.790847
2.709588 0.411322 0.824053
2.651235 0.411612 0.825216
2.707805 0.366409 0.801881
2.766212 0.366182 0.801001
2.768143 0.376695 0.834311
2.709702 0.377093 0.835087
2.707833 0.400674 0.790959
2.766240 0.400448 0.790080
2.768171 0.410960 0.823390
2.709730 0.411359 0.824166
2.765836 0.366145 0.800866
2.824208 0.364846 0.800856
2.826117 0.374935 0.834278
2.767767 0.376657 0.834176
2.766733 0.400483 0.790214
2.825105 0.399185 0.790203
2.827014 0.409274 0.823626
2.768664 0.410996 0.823524
2.824590 0.364797 0.800714
2.882540 0.364029 0.799434
2.884847 0.373982 0.832663
2.826499 0.374886 0.834137
2.824839 0.399232 0.790344
2.882790 0.398464 0.789064
2.885097 0.408417 0.822292
2.826748 0.409321 0.823766
2.882672 0.364041 0.799477
2.940794 0.363156 0.797595
2.942657 0.373410 0.830894
2.884979 0.373994 0.832705
2.882774 0.398450 0.789018
2.940897 0.397565 0.787136
2.942760 0.407820 0.820436
2.885081 0.408403 0.822247
1.752160 0.608499 0.887766
