3.793200 0.083042 -0.753861
3.837811 0.113688 -0.753147
3.764832 0.198392 -0.717836
3.734560 0.178213 -0.718381
3.760457 0.133156 -0.693216
3.798247 0.158665 -0.692575
3.780109 0.177033 -0.771718
3.749837 0.156853 -0.772262
3.775734 0.111797 -0.747098
3.813523 0.137306 -0.746456
3.832195 0.006311 -0.808921
3.774820 -0.020000 -0.809760
3.772655 -0.020377 -0.833900
3.830082 0.004517 -0.832588
3.807783 0.061054 -0.809222
3.750408 0.034743 -0.810062
3.748244 0.034366 -0.834202
3.805670 0.059260 -0.832889
3.830955 0.012936 -0.774990
3.774625 -0.012892 -0.775423
3.774783 -0.019312 -0.803722
3.832158 0.007000 -0.802882
3.806619 0.066309 -0.787316
3.750289 0.040481 -0.787749
3.750447 0.034061 -0.816048
3.807822 0.060372 -0.815208
3.825291 0.024398 -0.739799
3.770569 -0.001026 -0.740611
3.774133 -0.011755 -0.771136
3.830463 0.014073 -0.770702
3.801933 0.075514 -0.760640
3.747212 0.050090 -0.761452
3.750776 0.039361 -0.791977
3.807106 0.065189 -0.791544
3.801274 0.064710 -0.699746
3.752078 0.042201 -0.700286
3.765991 0.008452 -0.726747
3.820713 0.033876 -0.725935
3.787051 0.096913 -0.748258
3.737855 0.074404 -0.748799
3.751768 0.040655 -0.775259
3.806490 0.066079 -0.774447
3.768574 0.120191 -0.690263
3.726889 0.101554 -0.691283
3.745439 0.056119 -0.694644
3.794636 0.078629 -0.694103
3.767589 0.124633 -0.750031
3.725904 0.105996 -0.751050
3.744454 0.060561 -0.754411
3.793651 0.083071 -0.753870
3.736349 0.179184 -0.718337
3.703044 0.164554 -0.719085
3.720561 0.115491 -0.694192
3.762246 0.134128 -0.693173
3.747976 0.155843 -0.772308
3.714670 0.141212 -0.773055
3.732188 0.092149 -0.748162
3.773873 0.110786 -0.747143
3.765759 -0.022435 -0.810614
3.703574 -0.029786 -0.812795
3.701430 -0.028752 -0.836295
3.763595 -0.022812 -0.834754
3.759349 0.037145 -0.809211
3.697164 0.029794 -0.811392
3.695020 0.030828 -0.834893
3.757185 0.036768 -0.833351
3.767347 -0.015608 -0.778383
3.706640 -0.029379 -0.780080
3.705319 -0.029379 -0.808863
3.767505 -0.022028 -0.806682
3.757448 0.043161 -0.784791
3.696742 0.029390 -0.786488
3.695421 0.029390 -0.815271
3.757606 0.036741 -0.813090
3.765538 -0.003215 -0.741841
3.707202 -0.018926 -0.742238
3.708395 -0.027715 -0.774064
3.769102 -0.013944 -0.772367
3.752127 0.052239 -0.760223
3.693791 0.036527 -0.760620
3.694985 0.027738 -0.792445
3.755691 0.041510 -0.790748
3.749062 0.041328 -0.700182
3.696501 0.027624 -0.701368
3.704640 -0.008133 -0.727038
3.762976 0.007579 -0.726642
3.740763 0.075238 -0.748905
3.688201 0.061535 -0.750091
3.696340 0.025778 -0.775762
3.754676 0.041490 -0.775365
3.726128 0.101587 -0.691277
3.681896 0.090444 -0.692612
3.692117 0.042449 -0.695824
3.744679 0.056153 -0.694638
3.726571 0.105930 -0.751058
3.682339 0.094787 -0.752393
3.692559 0.046792 -0.755605
3.745121 0.060495 -0.754419
3.705023 0.165148 -0.718997
3.669679 0.156546 -0.719863
3.678308 0.104942 -0.695439
3.722540 0.116085 -0.694103
3.712614 0.140591 -0.773146
3.677271 0.131989 -0.774013
3.685899 0.080386 -0.749588
3.730131 0.091529 -0.748253
3.699858 -0.029849 -0.814740
3.637479 -0.029849 -0.816350
3.635259 -0.026635 -0.840052
3.697714 -0.028814 -0.838241
3.700755 0.029851 -0.809450
3.638377 0.029851 -0.811060
3.636156 0.033064 -0.834762
3.698611 0.030885 -0.832951
3.701629 -0.029970 -0.783286
3.639561 -0.029970 -0.785384
3.637930 -0.029970 -0.813679
3.700308 -0.029970 -0.812069
3.701629 0.029970 -0.783286
3.639561 0.029970 -0.785384
3.637930 0.029970 -0.813679
3.700308 0.029970 -0.812069
3.701423 -0.020587 -0.745589
3.640636 -0.025497 -0.747439
3.640548 -0.029376 -0.779513
3.702616 -0.029376 -0.777415
3.699450 0.038170 -0.757271
3.638663 0.033261 -0.759121
3.638575 0.029382 -0.791195
3.700643 0.029382 -0.789097
3.693054 0.027110 -0.701383
3.638892 0.022809 -0.702554
3.640406 -0.013556 -0.728903
3.701193 -0.008647 -0.727054
3.691535 0.062029 -0.750078
3.637373 0.057728 -0.751249
3.638888 0.021363 -0.777598
3.699674 0.026272 -0.775749
3.681374 0.090684 -0.692604
3.635882 0.087426 -0.694231
3.637433 0.038388 -0.696987
3.691595 0.042689 -0.695816
3.682762 0.094530 -0.752404
3.637269 0.091273 -0.754032
3.638821 0.042234 -0.756787
3.692983 0.046535 -0.755616
3.671723 0.156717 -0.719734
3.635427 0.154397 -0.720700
3.634858 0.101855 -0.696937
3.680351 0.105113 -0.695309
3.675147 0.131806 -0.774145
3.638851 0.129486 -0.775110
3.638283 0.076945 -0.751348
3.683775 0.080202 -0.749720
3.639646 -0.029832 -0.858032
3.636052 -0.026619 -0.834599
3.573607 -0.028684 -0.836482
3.577389 -0.029832 -0.860031
3.638834 0.029834 -0.863698
3.635240 0.033048 -0.840265
3.572795 0.030982 -0.842148
3.576577 0.029834 -0.865697
3.642526 -0.029970 -0.889250
3.639244 -0.029970 -0.860891
3.576987 -0.029970 -0.862890
3.580599 -0.029970 -0.891397
3.642526 0.029970 -0.889250
3.639244 0.029970 -0.860891
3.576987 0.029970 -0.862890
3.580599 0.029970 -0.891397
3.643344 -0.027744 -0.925834
3.641372 -0.029633 -0.893597
3.579444 -0.029633 -0.895745
3.582750 -0.022346 -0.927901
3.645659 0.031525 -0.917200
3.643686 0.029637 -0.884963
3.581759 0.029637 -0.887110
3.585064 0.036923 -0.919267
3.643391 0.018169 -0.973351
3.643353 -0.016664 -0.945039
3.582758 -0.011266 -0.947106
3.589261 0.023694 -0.974296
3.645695 0.055317 -0.926367
3.645656 0.020484 -0.898055
3.585062 0.025882 -0.900122
3.591565 0.060842 -0.927311
3.643803 0.083324 -0.983154
3.645177 0.034321 -0.979737
3.591047 0.039847 -0.980681
3.598495 0.088261 -0.985173
3.642542 0.088252 -0.923431
3.643916 0.039248 -0.920013
3.589786 0.044774 -0.920957
3.597234 0.093188 -0.925449
3.644680 0.150729 -0.958607
3.645485 0.097500 -0.980795
3.600178 0.102437 -0.982813
3.608528 0.154693 -0.959656
3.640060 0.127407 -0.903584
3.640866 0.074178 -0.925772
3.595558 0.079115 -0.927790
3.603909 0.131371 -0.904633
3.571587 -0.029455 -0.861529
3.567804 -0.028307 -0.837980
3.506500 -0.016698 -0.840091
3.509845 -0.018991 -0.863936
3.582255 0.029467 -0.864202
3.578473 0.030615 -0.840654
3.517168 0.042225 -0.842764
3.520514 0.039931 -0.866609
3.574626 -0.029212 -0.894486
3.571014 -0.029212 -0.865979
3.509272 -0.018748 -0.868386
3.514296 -0.014492 -0.896698
3.586448 0.029225 -0.888312
3.582836 0.029225 -0.859805
3.521095 0.039689 -0.862212
3.526119 0.043945 -0.890524
3.576728 -0.020638 -0.931778
3.573423 -0.027925 -0.899621
3.513094 -0.013204 -0.901833
3.518612 -0.004276 -0.932639
3.590965 0.035234 -0.915394
3.587660 0.027947 -0.883237
3.527331 0.042668 -0.885449
3.532849 0.051596 -0.916255
3.585809 0.024518 -0.974513
3.579305 -0.010442 -0.947323
3.521190 0.005920 -0.948184
3.533646 0.039319 -0.975843
3.594905 0.060040 -0.927097
3.588401 0.025080 -0.899907
3.530285 0.041442 -0.900768
3.542741 0.074841 -0.928427
3.597901 0.087779 -0.985136
3.590453 0.039364 -0.980645
3.538289 0.054165 -0.981975
3.554084 0.100484 -0.986806
3.597730 0.093690 -0.925488
3.590282 0.045275 -0.920997
3.538119 0.060077 -0.922327
3.553913 0.106396 -0.927158
3.610502 0.154505 -0.959496
3.602152 0.102249 -0.982653
3.558335 0.114954 -0.984323
3.575598 0.164715 -0.960666
3.601855 0.131574 -0.904795
3.593504 0.079318 -0.927952
3.549687 0.092024 -0.929622
3.566950 0.141784 -0.905965
3.501788 -0.016345 -0.864705
3.498442 -0.014052 -0.840860
3.442281 0.013684 -0.842913
3.445246 0.011834 -0.866550
3.528454 0.037325 -0.865844
3.525108 0.039618 -0.841999
3.468947 0.067354 -0.844052
3.471913 0.065503 -0.867689
3.507425 -0.011804 -0.899212
3.502401 -0.016061 -0.870899
3.445860 0.012118 -0.872744
3.451395 0.014648 -0.900612
3.532873 0.041298 -0.888015
3.527849 0.037041 -0.859702
3.471308 0.065220 -0.861547
3.476843 0.067750 -0.889414
3.513706 -0.002013 -0.934185
3.508187 -0.010941 -0.903380
3.452157 0.015511 -0.904779
3.459372 0.024099 -0.935846
3.537641 0.049375 -0.914711
3.532122 0.040446 -0.883906
3.476092 0.066899 -0.885305
3.483307 0.075487 -0.916372
3.530732 0.040355 -0.975862
3.518276 0.006956 -0.948203
3.463942 0.033068 -0.949864
3.482052 0.063816 -0.977023
3.545549 0.073845 -0.928411
3.533093 0.040447 -0.900752
3.478759 0.066559 -0.902412
3.496870 0.097307 -0.929572
3.553354 0.100358 -0.986787
3.537560 0.054039 -0.981956
3.488881 0.077500 -0.983117
3.512378 0.120425 -0.988356
3.554549 0.106557 -0.927180
3.538755 0.060238 -0.922349
3.490076 0.083700 -0.923511
3.513573 0.126624 -0.928749
3.577557 0.164018 -0.960567
3.560293 0.114258 -0.984225
3.519317 0.134325 -0.985794
3.544963 0.180148 -0.961778
3.564915 0.142510 -0.906066
3.547652 0.092750 -0.929724
3.506676 0.112817 -0.931292
3.532322 0.158640 -0.907277
3.441154 0.014284 -0.866612
3.438188 0.016135 -0.842974
3.386889 0.053340 -0.845125
3.389475 0.050255 -0.868696
3.475897 0.063117 -0.867631
3.472931 0.064968 -0.843994
3.421632 0.102173 -0.846145
3.424218 0.099088 -0.869716
3.447315 0.017073 -0.900850
3.441780 0.014543 -0.872983
3.390102 0.050514 -0.875068
3.396545 0.053176 -0.903075
3.480815 0.065389 -0.889179
3.475280 0.062858 -0.861312
3.423601 0.098829 -0.863396
3.430045 0.101491 -0.891404
3.455226 0.026666 -0.936308
3.448011 0.018078 -0.905241
3.397241 0.054181 -0.907466
3.406215 0.061444 -0.937895
3.487348 0.072982 -0.915913
3.480133 0.064394 -0.884847
3.429363 0.100496 -0.887072
3.438337 0.107759 -0.917501
3.479424 0.065392 -0.977120
3.461313 0.034644 -0.949961
3.412302 0.069422 -0.951548
3.435471 0.096892 -0.978841
3.499400 0.095789 -0.929478
3.481289 0.065041 -0.902318
3.432278 0.099819 -0.903905
3.455447 0.127289 -0.931198
3.511891 0.120527 -0.988353
3.488394 0.077602 -0.983114
3.444441 0.109102 -0.984835
3.475058 0.147308 -0.989721
3.513975 0.126574 -0.928755
3.490478 0.083649 -0.923516
3.446525 0.115149 -0.925237
3.477143 0.153355 -0.930123
3.546708 0.179079 -0.961717
3.521062 0.133257 -0.985732
3.484229 0.160038 -0.987100
3.517400 0.200613 -0.962880
3.530507 0.159750 -0.907341
3.504861 0.113928 -0.931356
3.468028 0.140709 -0.932724
3.501200 0.181284 -0.908504
3.385243 0.053894 -0.868859
3.382657 0.056979 -0.845287
3.338969 0.102171 -0.847215
3.341166 0.099509 -0.870927
3.428355 0.095531 -0.869558
3.425769 0.098616 -0.845987
3.382081 0.143808 -0.847915
3.384278 0.141146 -0.871626
3.392453 0.056744 -0.903581
3.386009 0.054082 -0.875574
3.341932 0.099698 -0.877642
3.348740 0.100798 -0.905340
3.434042 0.098004 -0.890902
3.427599 0.095342 -0.862894
3.383522 0.140957 -0.864962
3.390329 0.142057 -0.892661
3.402532 0.064702 -0.938311
3.393558 0.057439 -0.907883
3.349845 0.101492 -0.909642
3.360183 0.107672 -0.940320
3.441927 0.104581 -0.917088
3.432954 0.097318 -0.886659
3.389241 0.141371 -0.888418
3.399579 0.147551 -0.919096
3.433069 0.098999 -0.978967
3.409900 0.071529 -0.951674
3.367551 0.114499 -0.953682
3.395331 0.137543 -0.980355
3.457763 0.125256 -0.931076
3.434594 0.097786 -0.903783
3.392245 0.140756 -0.905791
3.420025 0.163800 -0.932464
3.474524 0.147718 -0.989737
3.443907 0.109511 -0.984851
3.406169 0.148056 -0.986239
3.442901 0.180507 -0.991101
3.477601 0.153010 -0.930110
3.446984 0.114804 -0.925224
3.409246 0.153348 -0.926612
3.445978 0.185800 -0.931474
3.518999 0.199172 -0.962829
3.485828 0.158597 -0.987049
3.454205 0.191386 -0.988413
3.493885 0.225475 -0.963959
3.499539 0.182779 -0.908557
3.466368 0.142204 -0.932778
3.434745 0.174993 -0.934142
3.474425 0.209081 -0.909688
3.337829 0.103629 -0.871285
3.335632 0.106291 -0.847574
3.300461 0.159075 -0.849492
3.302310 0.155751 -0.873029
3.387537 0.137125 -0.871272
3.385340 0.139786 -0.847560
3.350168 0.192571 -0.849478
3.352018 0.189247 -0.873015
3.345437 0.104834 -0.905520
3.338630 0.103734 -0.877822
3.303111 0.155856 -0.879565
3.310255 0.156362 -0.907467
3.393552 0.138118 -0.892485
3.386745 0.137018 -0.864787
3.351226 0.189140 -0.866530
3.358370 0.189646 -0.894433
3.356988 0.111615 -0.940596
3.346650 0.105435 -0.909918
3.311467 0.156964 -0.911866
3.322866 0.161145 -0.942088
3.402696 0.143702 -0.918823
3.392357 0.137522 -0.888145
3.357175 0.189051 -0.890093
3.368573 0.193232 -0.920315
3.393300 0.140082 -0.980483
3.365520 0.117038 -0.953810
3.331398 0.166568 -0.955302
3.362774 0.184719 -0.982071
3.421983 0.161349 -0.932340
3.394204 0.138305 -0.905667
3.360082 0.187835 -0.907158
3.391458 0.205986 -0.933928
3.442546 0.180925 -0.991115
3.405814 0.148473 -0.986253
3.375288 0.193110 -0.987841
3.417110 0.218640 -0.992292
3.446271 0.185459 -0.931463
3.409538 0.153008 -0.926601
3.379013 0.197645 -0.928189
3.420835 0.223174 -0.932640
3.495158 0.223817 -0.963922
3.455478 0.189728 -0.988376
3.430042 0.227444 -0.989553
3.474994 0.254088 -0.964977
3.473101 0.210803 -0.909728
3.433421 0.176715 -0.934182
3.407985 0.214430 -0.935360
3.452937 0.241074 -0.910784
3.299767 0.160336 -0.873150
3.297918 0.163660 -0.849613
3.272422 0.221357 -0.851209
3.273689 0.218190 -0.874939
3.354500 0.184772 -0.872897
3.352650 0.188096 -0.849360
3.327155 0.245793 -0.850956
3.328422 0.242626 -0.874686
3.307793 0.160859 -0.907858
3.300649 0.160352 -0.879956
3.274571 0.218207 -0.881745
3.282024 0.217403 -0.909301
3.360770 0.185259 -0.894045
3.353627 0.184752 -0.866143
3.327549 0.242607 -0.867932
3.335002 0.241803 -0.895488
3.320464 0.165399 -0.942232
3.309066 0.161217 -0.912009
3.283297 0.217761 -0.913452
3.295330 0.220255 -0.943991
3.370915 0.189085 -0.920175
3.359516 0.184903 -0.889952
3.333748 0.241447 -0.891395
3.345781 0.243941 -0.921934
3.361231 0.187447 -0.982156
3.329854 0.169296 -0.955386
3.304720 0.224152 -0.957146
3.338922 0.236583 -0.983501
3.392946 0.203358 -0.933846
3.361569 0.185206 -0.907077
3.336435 0.240063 -0.908836
3.370637 0.252494 -0.935191
3.416855 0.219193 -0.992313
3.375034 0.193663 -0.987862
3.352725 0.242799 -0.989206
3.398380 0.260813 -0.993454
3.421041 0.222709 -0.932622
3.379219 0.197179 -0.928171
3.356910 0.246315 -0.929516
3.402565 0.264329 -0.933764
3.475995 0.252186 -0.964940
3.431043 0.225541 -0.989515
3.412567 0.267162 -0.990657
3.461392 0.285497 -0.965877
3.451897 0.243048 -0.910824
3.406944 0.216404 -0.935399
3.388468 0.258025 -0.936541
3.437293 0.276359 -0.911761
3.271932 0.223319 -0.875132
3.270665 0.226485 -0.851402
3.255771 0.288115 -0.852855
3.256640 0.284692 -0.876414
3.330138 0.237617 -0.874496
3.328871 0.240784 -0.850766
3.313977 0.302414 -0.852219
3.314846 0.298991 -0.875778
3.280318 0.222388 -0.909574
3.272865 0.223192 -0.882018
3.257573 0.284566 -0.883300
3.264882 0.282795 -0.911078
3.336666 0.236935 -0.895218
3.329213 0.237739 -0.867662
3.313921 0.299112 -0.868944
3.321230 0.297341 -0.896722
3.293663 0.225019 -0.944152
3.281630 0.222525 -0.913612
3.266194 0.282931 -0.915117
3.278651 0.283316 -0.945236
3.347407 0.239293 -0.921776
3.335374 0.236799 -0.891237
3.319938 0.297205 -0.892741
3.332395 0.297590 -0.922860
3.337803 0.239749 -0.983579
3.303602 0.227317 -0.957224
3.288589 0.285615 -0.958308
3.324421 0.292147 -0.984753
3.371718 0.249436 -0.935115
3.337516 0.237005 -0.908760
3.322504 0.295303 -0.909844
3.358336 0.301835 -0.936289
3.398187 0.261392 -0.993469
3.352532 0.243378 -0.989221
3.339150 0.295776 -0.990395
3.387205 0.305546 -0.994410
3.402725 0.263845 -0.933751
3.357071 0.245831 -0.929504
3.343689 0.298229 -0.930677
3.391743 0.307999 -0.934692
3.462047 0.283507 -0.965839
3.413221 0.265173 -0.990619
3.402239 0.309327 -0.991560
3.453449 0.318855 -0.966637
3.436613 0.278426 -0.911801
3.387788 0.260091 -0.936581
3.376805 0.304246 -0.937522
3.428015 0.313774 -0.912599
3.255838 0.289852 -0.876598
3.254969 0.293275 -0.853039
3.250894 0.356397 -0.854110
3.251276 0.353117 -0.877843
3.315628 0.293956 -0.875597
3.314760 0.297379 -0.852038
3.310685 0.360500 -0.853110
3.311067 0.357221 -0.876843
3.264066 0.287809 -0.911179
3.256757 0.289580 -0.883401
3.252195 0.352846 -0.884646
3.259158 0.349851 -0.912180
3.322026 0.292450 -0.896624
3.314717 0.294221 -0.868846
3.310156 0.357487 -0.870091
3.317118 0.354492 -0.897626
3.277880 0.288090 -0.945397
3.265423 0.287705 -0.915278
3.260516 0.349747 -0.916280
3.273003 0.348204 -0.946653
3.333145 0.292937 -0.922701
3.320688 0.292552 -0.892582
3.315780 0.354593 -0.893584
3.328268 0.353050 -0.923956
3.323907 0.295197 -0.984809
3.288075 0.288665 -0.958364
3.283198 0.348778 -0.959620
3.319772 0.349045 -0.985754
3.358832 0.298897 -0.936235
3.323000 0.292365 -0.909791
3.318122 0.352478 -0.911046
3.354697 0.352745 -0.937181
3.387116 0.306120 -0.994422
3.339062 0.296350 -0.990407
3.334927 0.350198 -0.991352
3.384001 0.351559 -0.995238
3.391815 0.307523 -0.934683
3.343761 0.297753 -0.930668
3.339626 0.351601 -0.931613
3.388700 0.352962 -0.935499
3.453766 0.316743 -0.966600
3.402556 0.307215 -0.991523
3.399441 0.352654 -0.992340
3.451440 0.353047 -0.967239
3.427685 0.315967 -0.912637
3.376476 0.306439 -0.937560
3.373360 0.351878 -0.938377
3.425359 0.352271 -0.913276
3.251384 0.358483 -0.877815
3.251001 0.361763 -0.854082
3.258250 0.424719 -0.854915
3.257907 0.421492 -0.878527
3.310963 0.351981 -0.876873
3.310580 0.355261 -0.853139
3.317829 0.418217 -0.853972
3.317486 0.414990 -0.877584
3.259244 0.355063 -0.912339
3.252281 0.358058 -0.884804
3.258805 0.421067 -0.885516
3.265379 0.417092 -0.913245
3.317034 0.349405 -0.897469
3.310072 0.352400 -0.869935
3.316595 0.415409 -0.870647
3.323169 0.411434 -0.898376
3.273058 0.353240 -0.946758
3.260571 0.354783 -0.916385
3.266706 0.416812 -0.917292
3.278846 0.413192 -0.947376
3.328214 0.348136 -0.923853
3.315726 0.349679 -0.893481
3.321861 0.411707 -0.894388
3.334002 0.408087 -0.924471
3.319812 0.352372 -0.985812
3.283237 0.352106 -0.959677
3.289025 0.412057 -0.960295
3.325138 0.406178 -0.986512
3.354658 0.349531 -0.937124
3.318084 0.349265 -0.910990
3.323872 0.409217 -0.911608
3.359985 0.403337 -0.937825
3.384004 0.352167 -0.995247
3.334931 0.350806 -0.991361
3.340257 0.404612 -0.992061
3.388806 0.397439 -0.995815
3.388698 0.352453 -0.935492
3.339624 0.351091 -0.931606
3.344951 0.404897 -0.932306
3.393499 0.397724 -0.936060
3.451399 0.350956 -0.967206
3.399400 0.350563 -0.992307
3.404201 0.395835 -0.992875
3.455406 0.387119 -0.967658
3.425402 0.354443 -0.913309
3.373403 0.354050 -0.938411
3.378204 0.399322 -0.938978
3.429409 0.390606 -0.913761
3.258931 0.426650 -0.878676
3.259274 0.429877 -0.855064
3.276996 0.490652 -0.855481
3.276535 0.487593 -0.879227
3.316486 0.409956 -0.877437
3.316829 0.413183 -0.853825
3.334551 0.473958 -0.854242
3.334090 0.470899 -0.877988
3.266356 0.422204 -0.913298
3.259782 0.426179 -0.885568
3.277386 0.487121 -0.886119
3.283108 0.482173 -0.913660
3.322216 0.406445 -0.898325
3.315641 0.410420 -0.870596
3.333245 0.471363 -0.871147
3.338968 0.466414 -0.898688
3.279748 0.418015 -0.947435
3.267608 0.421635 -0.917351
3.284360 0.481605 -0.917713
3.295774 0.476155 -0.948004
3.333122 0.403385 -0.924413
3.320982 0.407004 -0.894330
3.337734 0.466974 -0.894692
3.349148 0.461525 -0.924983
3.325722 0.409292 -0.986546
3.289609 0.415172 -0.960329
3.305635 0.473312 -0.960898
3.340284 0.461332 -0.986876
3.359422 0.400335 -0.937792
3.323309 0.406214 -0.911576
3.339334 0.464354 -0.912145
3.373984 0.452374 -0.938122
3.388896 0.398058 -0.995819
3.340348 0.405231 -0.992065
3.354910 0.457270 -0.992395
3.401496 0.441836 -0.996178
3.393427 0.397203 -0.936057
3.344879 0.404376 -0.932303
3.359441 0.456415 -0.932633
3.406027 0.440981 -0.936416
3.455005 0.385044 -0.967632
3.403800 0.393760 -0.992849
3.416400 0.437538 -0.993208
3.465226 0.419963 -0.967880
3.429826 0.392761 -0.913788
3.378621 0.401476 -0.939005
3.391221 0.445255 -0.939364
3.440047 0.427679 -0.914035
3.278499 0.492633 -0.879215
3.278960 0.495692 -0.855469
3.307571 0.552243 -0.855581
3.306259 0.549575 -0.879237
3.332172 0.465976 -0.878001
3.332632 0.469035 -0.854255
3.361244 0.525586 -0.854367
3.359932 0.522917 -0.878023
3.284879 0.486947 -0.913533
3.279157 0.491895 -0.885992
3.306917 0.548836 -0.886015
3.311682 0.543247 -0.913816
3.337241 0.461758 -0.898815
3.331518 0.466706 -0.871274
3.359278 0.523648 -0.871297
3.364043 0.518059 -0.899098
3.297493 0.480739 -0.948047
3.286079 0.486188 -0.917757
3.312881 0.542489 -0.918040
3.323332 0.535181 -0.948116
3.347472 0.457055 -0.924940
3.336058 0.462505 -0.894649
3.362860 0.518805 -0.894932
3.373311 0.511497 -0.925008
3.341435 0.464343 -0.986909
3.306786 0.476323 -0.960931
3.332624 0.530765 -0.961000
3.364797 0.513105 -0.987083
3.372873 0.449470 -0.938090
3.338223 0.461450 -0.912112
3.364062 0.515892 -0.912181
3.396234 0.498232 -0.938264
3.401687 0.442378 -0.996180
3.355101 0.457812 -0.992397
3.378463 0.506574 -0.992571
3.421692 0.483296 -0.996271
3.405871 0.440532 -0.936414
3.359285 0.455966 -0.932632
3.382646 0.504728 -0.932806
3.425875 0.481450 -0.936506
3.464480 0.417995 -0.967863
3.415654 0.435570 -0.993192
3.435658 0.476488 -0.993283
3.480611 0.450611 -0.967913
3.440823 0.429723 -0.914052
3.391997 0.447299 -0.939381
3.412001 0.488217 -0.939472
3.456955 0.462339 -0.914102
3.308947 0.554000 -0.879052
3.310258 0.556668 -0.855396
3.347769 0.607612 -0.855088
3.346251 0.605283 -0.878870
3.357310 0.518601 -0.878208
3.358622 0.521269 -0.854552
3.396133 0.572213 -0.854244
3.394614 0.569884 -0.878026
3.314350 0.547761 -0.913740
3.309586 0.553350 -0.885938
3.346890 0.604634 -0.885756
3.350687 0.598372 -0.913386
3.361439 0.513653 -0.899175
3.356674 0.519242 -0.871373
3.393978 0.570526 -0.871191
3.397776 0.564264 -0.898822
3.325878 0.539506 -0.948114
3.315427 0.546814 -0.918038
3.351764 0.597425 -0.917685
3.360823 0.588664 -0.947981
3.370827 0.507278 -0.925010
3.360376 0.514586 -0.894934
3.396713 0.565198 -0.894581
3.405772 0.556437 -0.924877
3.366459 0.515884 -0.987096
3.334287 0.533544 -0.961012
3.369232 0.582703 -0.960879
3.397938 0.559822 -0.986784
3.394630 0.495551 -0.938251
3.362458 0.513211 -0.912168
3.397403 0.562370 -0.912035
3.426108 0.539489 -0.937939
3.422040 0.483890 -0.996270
3.378811 0.507168 -0.992570
3.410289 0.551107 -0.992258
3.448826 0.520747 -0.996045
3.425578 0.480941 -0.936507
3.382349 0.504220 -0.932807
3.413828 0.548158 -0.932495
3.452365 0.517798 -0.936283
3.479534 0.448831 -0.967916
3.434581 0.474708 -0.993287
3.461367 0.511565 -0.993062
3.501080 0.478151 -0.967752
3.458074 0.464189 -0.914098
3.413120 0.490066 -0.939468
3.439907 0.526923 -0.939244
3.479620 0.493508 -0.913934
3.349746 0.609270 -0.878983
3.351264 0.611599 -0.855201
3.397142 0.655277 -0.854596
3.395341 0.653251 -0.878287
3.391203 0.565993 -0.877912
3.392721 0.568321 -0.854129
3.438599 0.612000 -0.853524
3.436799 0.609973 -0.877215
3.354067 0.602273 -0.913372
3.350270 0.608534 -0.885741
3.395865 0.652515 -0.885045
3.398638 0.645852 -0.912856
3.394478 0.560458 -0.898836
3.390681 0.566720 -0.871205
3.436276 0.610700 -0.870509
3.439048 0.604037 -0.898320
3.363993 0.592440 -0.947842
3.354934 0.601201 -0.917546
3.399505 0.644780 -0.917030
3.406912 0.634796 -0.947235
3.402681 0.552754 -0.925016
3.393622 0.561515 -0.894720
3.438193 0.605094 -0.894204
3.445601 0.595110 -0.924409
3.400015 0.562243 -0.986770
3.371310 0.585123 -0.960866
3.414229 0.627479 -0.960259
3.438618 0.600114 -0.986376
3.424105 0.537156 -0.937952
3.395399 0.560036 -0.912048
3.438319 0.602392 -0.911442
3.462708 0.575027 -0.937559
3.449192 0.521143 -0.996043
3.410656 0.551502 -0.992255
3.449258 0.589374 -0.991862
3.481978 0.552770 -0.995604
3.452064 0.517478 -0.936284
3.413527 0.547837 -0.932496
3.452129 0.585709 -0.932103
3.484849 0.549105 -0.935845
3.499681 0.476555 -0.967770
3.459968 0.509970 -0.993080
3.492753 0.541597 -0.992641
3.525989 0.501689 -0.967406
3.481074 0.495166 -0.913916
3.441360 0.528580 -0.939226
3.474146 0.560208 -0.938787
3.507382 0.520300 -0.913553
3.399529 0.656608 -0.878147
3.401330 0.658635 -0.854456
3.454226 0.693360 -0.853433
3.452087 0.692013 -0.877243
3.432709 0.606695 -0.877354
3.434510 0.608722 -0.853663
3.487406 0.643447 -0.852640
3.485267 0.642100 -0.876450
3.402601 0.649115 -0.912695
3.399829 0.655778 -0.884884
3.452387 0.691183 -0.883981
3.453948 0.684409 -0.911722
3.435182 0.600854 -0.898479
3.432410 0.607517 -0.870668
3.484968 0.642922 -0.869765
3.486529 0.636147 -0.897506
3.410696 0.637935 -0.947145
3.403289 0.647919 -0.916939
3.454636 0.683213 -0.915966
3.460337 0.672214 -0.946345
3.441911 0.592049 -0.924499
3.434503 0.602032 -0.894293
3.485851 0.637326 -0.893320
3.491551 0.626327 -0.923699
3.441115 0.602177 -0.986337
3.416726 0.629542 -0.960220
3.466366 0.663821 -0.959421
3.485717 0.632732 -0.985467
3.460299 0.573037 -0.937596
3.435910 0.600402 -0.911480
3.485550 0.634681 -0.910680
3.504901 0.603592 -0.936727
3.482533 0.553183 -0.995598
3.449813 0.589787 -0.991855
3.494416 0.620342 -0.990986
3.520295 0.578670 -0.994848
3.484371 0.548755 -0.935850
3.451651 0.585359 -0.932108
3.496254 0.615914 -0.931238
3.522133 0.574242 -0.935100
3.524363 0.500397 -0.967440
3.491126 0.540305 -0.992674
3.528889 0.565792 -0.991924
3.554635 0.520575 -0.966891
3.509072 0.521643 -0.913518
3.475836 0.561552 -0.938753
3.513598 0.587039 -0.938002
3.539344 0.541822 -0.912970
3.456622 0.694500 -0.877076
3.458761 0.695847 -0.853265
3.516707 0.721254 -0.852003
3.514480 0.720274 -0.875728
3.480843 0.639674 -0.876616
3.482982 0.641021 -0.852806
3.540928 0.666428 -0.851544
3.538701 0.665448 -0.875268
3.458495 0.686958 -0.911599
3.456933 0.693733 -0.883857
3.514791 0.719507 -0.882510
3.515291 0.712613 -0.910394
3.482092 0.633659 -0.897628
3.480530 0.640434 -0.869886
3.538388 0.666207 -0.868539
3.538888 0.659314 -0.896423
3.464686 0.674703 -0.946202
3.458985 0.685701 -0.915822
3.515781 0.711356 -0.914618
3.519508 0.699825 -0.944966
3.487309 0.623899 -0.923841
3.481608 0.634897 -0.893462
3.538404 0.660553 -0.892257
3.542131 0.649022 -0.922605
3.488520 0.634310 -0.985418
3.469169 0.665399 -0.959372
3.523992 0.690522 -0.958136
3.537750 0.656699 -0.984421
3.502197 0.602070 -0.936774
3.482847 0.633158 -0.910727
3.537669 0.658281 -0.909492
3.551428 0.624458 -0.935777
3.520792 0.578915 -0.994840
3.494913 0.620587 -0.990979
3.544143 0.642976 -0.989981
3.562410 0.597438 -0.993918
3.521723 0.574045 -0.935106
3.495843 0.615717 -0.931244
3.545074 0.638106 -0.930247
3.563341 0.592568 -0.934183
3.552773 0.519571 -0.966939
3.527027 0.564787 -0.991972
3.568645 0.583310 -0.991049
3.586083 0.534191 -0.966210
3.541278 0.542866 -0.912921
3.515532 0.588083 -0.937953
3.557149 0.606606 -0.937031
3.574588 0.557486 -0.912191
3.519489 0.721982 -0.875745
3.521715 0.722962 -0.852020
3.583211 0.737880 -0.850428
3.580932 0.737345 -0.874257
3.533812 0.663781 -0.875248
3.536038 0.664761 -0.851523
3.597534 0.679678 -0.849930
3.595254 0.679144 -0.873760
3.520161 0.714288 -0.910355
3.519661 0.721181 -0.882471
3.581104 0.736544 -0.880983
3.580488 0.729746 -0.908757
3.534136 0.657680 -0.896459
3.533637 0.664574 -0.868575
3.595080 0.679937 -0.867087
3.594464 0.673138 -0.894861
3.524155 0.701515 -0.944745
3.520427 0.713046 -0.914397
3.580754 0.728505 -0.912799
3.582532 0.716745 -0.943355
3.537600 0.647372 -0.922824
3.533872 0.658903 -0.892476
3.594200 0.674361 -0.890878
3.595977 0.662601 -0.921434
3.540772 0.657794 -0.984336
3.527013 0.691617 -0.958051
3.585390 0.706846 -0.956662
3.593130 0.671281 -0.983038
3.548514 0.623402 -0.935859
3.534755 0.657224 -0.909574
3.593132 0.672453 -0.908185
3.600872 0.636888 -0.934561
3.563012 0.597616 -0.993907
3.544745 0.643153 -0.989970
3.597103 0.656640 -0.988672
3.607208 0.608639 -0.992783
3.562832 0.592423 -0.934192
3.544566 0.637961 -0.930256
3.596924 0.651448 -0.928957
3.607029 0.603447 -0.933069
3.584100 0.533523 -0.966261
3.566662 0.582642 -0.991100
3.610858 0.593666 -0.989977
3.619440 0.542135 -0.965379
3.576648 0.558181 -0.912138
3.559210 0.607300 -0.936978
3.603406 0.618324 -0.935854
3.611988 0.566793 -0.911256
3.586232 0.738162 -0.874047
3.588511 0.738697 -0.850217
3.651650 0.742403 -0.848460
3.649402 0.742584 -0.872204
3.590079 0.678346 -0.873968
3.592359 0.678881 -0.850138
3.655497 0.682587 -0.848381
3.653249 0.682768 -0.872125
3.585542 0.730586 -0.908548
3.586158 0.737385 -0.880774
3.649329 0.741807 -0.878931
3.647630 0.735545 -0.906920
3.589533 0.672318 -0.895067
3.590149 0.679117 -0.867293
3.653319 0.683539 -0.865450
3.651621 0.677277 -0.893439
3.587381 0.717552 -0.943246
3.585604 0.729312 -0.912690
3.647691 0.734271 -0.911062
3.647494 0.722381 -0.941514
3.591249 0.661814 -0.921540
3.589471 0.673574 -0.890984
3.651559 0.678533 -0.889356
3.651361 0.666644 -0.919808
3.596343 0.671825 -0.982950
3.588604 0.707390 -0.956573
3.648716 0.712220 -0.954841
3.650257 0.675990 -0.981449
3.597771 0.636363 -0.934646
3.590031 0.671928 -0.908270
3.650144 0.676757 -0.906538
3.651685 0.640527 -0.933146
3.607806 0.608726 -0.992768
3.597701 0.656726 -0.988657
3.651614 0.660891 -0.987156
3.653242 0.611903 -0.991487
3.606529 0.603377 -0.933081
3.596425 0.651377 -0.928970
3.650338 0.655541 -0.927469
3.651966 0.606553 -0.931799
3.617365 0.541825 -0.965441
3.608783 0.593356 -0.990038
3.654220 0.596533 -0.988757
3.653660 0.544166 -0.964441
3.614144 0.567116 -0.911193
3.605562 0.618646 -0.935791
3.650998 0.621823 -0.934509
3.650439 0.569457 -0.910193
3.654529 0.742480 -0.872040
3.656777 0.742298 -0.848296
3.719665 0.735510 -0.846327
3.717497 0.735991 -0.870169
3.648248 0.682870 -0.872286
3.650496 0.682689 -0.848541
3.713384 0.675901 -0.846573
3.711216 0.676381 -0.870414
3.652835 0.735476 -0.906772
3.654533 0.741738 -0.878783
3.717502 0.735249 -0.876912
3.714817 0.729316 -0.904764
3.646541 0.677344 -0.893584
3.648239 0.683606 -0.865595
3.711208 0.677118 -0.863723
3.708523 0.671185 -0.891576
3.652513 0.722341 -0.941364
3.652710 0.734230 -0.910912
3.714693 0.728071 -0.908904
3.712542 0.716699 -0.939588
3.646465 0.666683 -0.919955
3.646663 0.678572 -0.889503
3.708645 0.672412 -0.887494
3.706494 0.661041 -0.918178
3.653439 0.675969 -0.981352
3.651899 0.712199 -0.954744
3.711928 0.706557 -0.952967
3.707259 0.670731 -0.979726
3.648616 0.640546 -0.933240
3.647076 0.676776 -0.906632
3.707105 0.671134 -0.904856
3.702436 0.635308 -0.931614
3.653817 0.611900 -0.991469
3.652189 0.660888 -0.987139
3.706009 0.655649 -0.985514
3.699111 0.607124 -0.990125
3.651490 0.606555 -0.931814
3.649862 0.655543 -0.927483
3.703682 0.650305 -0.925858
3.696783 0.601779 -0.930469
3.651554 0.544206 -0.964501
3.652113 0.596572 -0.988817
3.697406 0.591796 -0.987472
3.687702 0.540218 -0.963390
3.652627 0.569415 -0.910131
3.653187 0.621782 -0.934447
3.698480 0.617006 -0.933102
3.688776 0.565428 -0.909020
3.722771 0.734956 -0.870078
3.724939 0.734475 -0.846236
3.785590 0.716535 -0.844216
3.783675 0.717590 -0.867967
3.706066 0.677392 -0.870502
3.708234 0.676912 -0.846660
3.768885 0.658972 -0.844640
3.766970 0.660026 -0.868391
3.719858 0.728339 -0.904691
3.722542 0.734272 -0.876839
3.783446 0.716906 -0.874728
3.779833 0.711689 -0.902748
3.703606 0.672139 -0.891644
3.706290 0.678071 -0.863792
3.767194 0.660706 -0.861682
3.763581 0.655489 -0.889701
3.717394 0.715810 -0.939404
3.719545 0.727182 -0.908720
3.779520 0.710532 -0.906777
3.775538 0.699758 -0.937368
3.701762 0.661907 -0.918358
3.703913 0.673279 -0.887674
3.763888 0.656630 -0.885730
3.759905 0.645855 -0.916322
3.710487 0.670144 -0.979614
3.715156 0.705971 -0.952856
3.773299 0.689919 -0.950820
3.762546 0.655609 -0.977845
3.699321 0.635874 -0.931722
3.703990 0.671700 -0.904964
3.762133 0.655648 -0.902928
3.751380 0.621339 -0.929953
3.699731 0.607028 -0.990103
3.706630 0.655554 -0.985492
3.758688 0.641019 -0.983722
3.743511 0.594461 -0.988646
3.696261 0.601856 -0.930488
3.703159 0.650381 -0.925877
3.755218 0.635846 -0.924107
3.740041 0.589289 -0.929030
3.685654 0.540611 -0.963451
3.695359 0.592190 -0.987533
3.739139 0.579622 -0.986075
3.720558 0.530402 -0.962286
3.690903 0.565019 -0.908957
3.700608 0.616597 -0.933039
3.744388 0.604030 -0.931582
3.725807 0.554810 -0.907793
3.788573 0.715693 -0.867723
3.790487 0.714638 -0.843972
3.847160 0.686534 -0.841850
3.845509 0.688031 -0.865686
3.762191 0.661878 -0.868631
3.764105 0.660823 -0.844880
3.820778 0.632719 -0.842758
3.819127 0.634216 -0.866594
3.784638 0.709896 -0.902492
3.788251 0.715112 -0.874473
3.845187 0.687450 -0.872435
3.840924 0.683188 -0.900393
3.758893 0.657239 -0.889953
3.762507 0.662455 -0.861934
3.819443 0.634793 -0.859896
3.815180 0.630530 -0.887854
3.780129 0.698001 -0.937322
3.784112 0.708776 -0.906731
3.840398 0.682068 -0.904632
3.834575 0.672160 -0.935363
3.755428 0.647569 -0.916363
3.759411 0.658344 -0.885772
3.815697 0.631636 -0.883673
3.809873 0.621728 -0.914404
3.765533 0.654489 -0.977741
3.776287 0.688798 -0.950716
3.830732 0.662957 -0.948757
3.814302 0.631133 -0.975916
3.748499 0.622419 -0.930053
3.759252 0.656729 -0.903028
3.813698 0.630888 -0.901069
3.797267 0.599064 -0.928227
3.744089 0.594276 -0.988623
3.759266 0.640833 -0.983699
3.808034 0.617478 -0.981874
3.785017 0.574304 -0.987141
3.739556 0.589439 -0.929050
3.754733 0.635997 -0.924127
3.803502 0.612642 -0.922301
3.780484 0.569467 -0.927569
3.718601 0.531157 -0.962353
3.737182 0.580377 -0.986142
3.778110 0.560405 -0.984661
3.751200 0.515038 -0.961162
3.727840 0.554026 -0.907723
3.746421 0.603246 -0.931512
3.787349 0.583274 -0.930030
3.760439 0.537907 -0.906531
3.849960 0.685349 -0.865527
3.851612 0.683852 -0.841692
3.902652 0.646494 -0.839644
3.901353 0.648333 -0.863394
3.814783 0.636833 -0.866748
3.816435 0.635336 -0.842913
3.867474 0.597977 -0.840865
3.866176 0.599816 -0.864615
3.845390 0.680518 -0.900302
3.849653 0.684781 -0.872345
3.901046 0.647765 -0.870211
3.895975 0.644219 -0.898278
3.810822 0.633136 -0.887941
3.815085 0.637399 -0.859983
3.866478 0.600383 -0.857849
3.861407 0.596837 -0.885916
3.838900 0.669603 -0.935228
3.844724 0.679510 -0.904498
3.895309 0.643211 -0.902473
3.888055 0.634690 -0.933166
3.805653 0.624224 -0.914535
3.811477 0.634131 -0.883804
3.862062 0.597832 -0.881780
3.854808 0.589312 -0.912473
3.817088 0.629496 -0.975806
3.833519 0.661320 -0.948647
3.882673 0.626408 -0.946585
3.861046 0.598059 -0.974043
3.794579 0.600643 -0.928333
3.811009 0.632467 -0.901175
3.860164 0.597555 -0.899112
3.838537 0.569206 -0.926571
3.785538 0.574027 -0.987118
3.808555 0.617201 -0.981851
3.852513 0.585764 -0.980089
3.822367 0.547229 -0.985672
3.780049 0.569693 -0.927588
3.803066 0.612867 -0.922321
3.847024 0.581430 -0.920558
3.816878 0.542895 -0.926141
3.749393 0.516117 -0.961225
3.776303 0.561484 -0.984724
3.813132 0.534685 -0.983277
3.778698 0.494582 -0.960037
3.762317 0.536786 -0.906466
3.789227 0.582153 -0.929965
3.826056 0.555355 -0.928518
3.791622 0.515252 -0.905277
3.905431 0.644777 -0.863279
3.906729 0.642938 -0.839529
3.950334 0.597082 -0.837497
3.949417 0.599210 -0.861319
3.862194 0.603289 -0.864725
3.863492 0.601450 -0.840975
3.907097 0.555594 -0.838943
3.906180 0.557722 -0.862764
3.899885 0.640843 -0.898155
3.904955 0.644388 -0.870088
3.948941 0.598820 -0.868128
3.943608 0.596487 -0.896109
3.857593 0.600133 -0.886035
3.862663 0.603678 -0.857968
3.906649 0.558110 -0.856007
3.901316 0.555777 -0.883988
3.891775 0.631504 -0.933031
3.899029 0.640025 -0.902337
3.942752 0.595669 -0.900291
3.934084 0.588570 -0.931130
3.851181 0.592419 -0.912604
3.858435 0.600939 -0.881911
3.902158 0.556583 -0.879865
3.893490 0.549484 -0.910703
3.863507 0.595944 -0.973944
3.885134 0.624293 -0.946486
3.927443 0.581359 -0.944584
3.901310 0.557319 -0.972116
3.836163 0.571247 -0.926666
3.857790 0.599596 -0.899208
3.900099 0.556661 -0.897307
3.873966 0.532622 -0.924838
3.822906 0.546806 -0.985645
3.853052 0.585341 -0.980062
3.890855 0.546717 -0.978234
3.854553 0.514055 -0.984158
3.816414 0.543252 -0.926164
3.846560 0.581787 -0.920581
3.884363 0.543163 -0.918753
3.848061 0.510501 -0.924677
3.777150 0.495943 -0.960105
3.811584 0.536045 -0.983346
3.843230 0.503294 -0.981859
3.802265 0.469639 -0.958970
3.793231 0.513838 -0.905206
3.827665 0.553941 -0.928446
3.859312 0.521189 -0.926959
3.818347 0.487535 -0.904071
3.952638 0.595219 -0.861131
3.953556 0.593092 -0.837309
3.988771 0.540501 -0.835475
3.988357 0.542910 -0.859202
3.903038 0.561614 -0.862948
3.903955 0.559487 -0.839126
3.939170 0.506896 -0.837292
3.938756 0.509305 -0.861019
3.946840 0.592545 -0.895946
3.952174 0.594879 -0.867965
3.987892 0.542570 -0.866036
3.982122 0.541207 -0.894183
3.898162 0.559621 -0.884147
3.903496 0.561955 -0.856166
3.939214 0.509646 -0.854237
3.933443 0.508282 -0.882383
3.937214 0.584731 -0.931069
3.945882 0.591830 -0.900231
3.981163 0.540491 -0.898467
3.971470 0.535152 -0.929208
3.890438 0.553229 -0.910760
3.899106 0.560328 -0.879921
3.934387 0.508990 -0.878158
3.924694 0.503651 -0.908898
3.903337 0.554879 -0.972009
3.929471 0.578918 -0.944477
3.963727 0.529340 -0.942616
3.933939 0.510325 -0.970511
3.872011 0.534975 -0.924942
3.898144 0.559014 -0.897410
3.932400 0.509435 -0.895549
3.902613 0.490421 -0.923444
3.854885 0.513641 -0.984143
3.891187 0.546302 -0.978219
3.921789 0.501749 -0.976721
3.880321 0.475867 -0.982835
3.847791 0.510839 -0.924690
3.884094 0.543500 -0.918766
3.914696 0.498947 -0.917268
3.873228 0.473065 -0.923382
3.800938 0.471306 -0.959040
3.841903 0.504960 -0.981929
3.867339 0.467187 -0.980621
3.821103 0.441036 -0.957990
3.819726 0.485805 -0.903998
3.860691 0.519460 -0.926887
3.886127 0.481686 -0.925579
3.839891 0.455536 -0.902948
3.990983 0.538161 -0.859080
3.991397 0.535752 -0.835353
4.016728 0.477752 -0.833645
4.016749 0.480271 -0.857463
3.936191 0.513944 -0.861137
3.936605 0.511535 -0.837410
3.961937 0.453535 -0.835702
3.961958 0.456054 -0.859520
3.984685 0.536580 -0.894173
3.990456 0.537943 -0.866027
4.016222 0.480053 -0.864409
4.010384 0.479853 -0.892368
3.930941 0.512800 -0.882390
3.936712 0.514163 -0.854243
3.962478 0.456273 -0.852626
3.956640 0.456072 -0.880584
3.973940 0.530815 -0.929033
3.983633 0.536154 -0.898292
4.009332 0.479427 -0.896486
3.999052 0.476023 -0.927476
3.922284 0.507881 -0.909071
3.931977 0.513220 -0.878330
3.957676 0.456493 -0.876524
3.947395 0.453090 -0.907514
3.935542 0.507470 -0.970427
3.965330 0.526484 -0.942532
3.990441 0.471693 -0.940976
3.957838 0.458252 -0.968832
3.901066 0.493177 -0.923524
3.930853 0.512191 -0.895629
3.955965 0.457400 -0.894073
3.923361 0.443959 -0.921929
3.880687 0.475234 -0.982812
3.922155 0.501116 -0.976698
3.944450 0.451898 -0.975103
3.899230 0.433640 -0.981542
3.872911 0.473612 -0.923401
3.914379 0.499493 -0.917287
3.936674 0.450275 -0.915692
3.891453 0.432017 -0.922130
3.820130 0.442839 -0.958054
3.866366 0.468989 -0.980685
3.884909 0.427395 -0.979415
3.834732 0.409525 -0.957110
3.840903 0.453662 -0.902881
3.887140 0.479812 -0.925512
3.905682 0.438218 -0.924241
3.855506 0.420348 -0.901937
4.018439 0.475326 -0.857385
4.018418 0.472807 -0.833567
4.033396 0.411290 -0.832187
4.033915 0.413868 -0.855864
3.960308 0.460879 -0.859595
3.960287 0.458360 -0.835777
3.975266 0.396842 -0.834398
3.975784 0.399420 -0.858074
4.012061 0.475062 -0.892225
4.017900 0.475263 -0.864266
4.033375 0.413805 -0.862746
4.027701 0.414778 -0.890941
3.955004 0.460744 -0.880724
3.960842 0.460945 -0.852765
3.976318 0.399487 -0.851245
3.970643 0.400460 -0.879440
4.000684 0.471397 -0.927374
4.010965 0.474800 -0.896384
4.026605 0.414516 -0.895101
4.015861 0.413062 -0.925890
3.945803 0.457601 -0.907613
3.956084 0.461004 -0.876623
3.971723 0.400720 -0.875340
3.960980 0.399265 -0.906129
3.958912 0.455251 -0.968744
3.991515 0.468692 -0.940888
4.006692 0.410357 -0.939404
3.972449 0.402930 -0.967635
3.922325 0.446853 -0.922014
3.954929 0.460293 -0.894158
3.970105 0.401958 -0.892674
3.935862 0.394531 -0.920905
3.899384 0.433148 -0.981531
3.944605 0.451406 -0.975093
3.958142 0.399084 -0.973984
3.910383 0.388955 -0.980502
3.891331 0.432416 -0.922139
3.936552 0.450674 -0.915701
3.950089 0.398352 -0.914592
3.902330 0.388223 -0.921110
3.834070 0.411539 -0.957173
3.884247 0.429409 -0.979478
3.895246 0.385216 -0.978449
3.842664 0.376192 -0.956378
3.856194 0.418256 -0.901872
3.906371 0.436126 -0.924176
3.917369 0.391933 -0.923148
3.864787 0.382910 -0.901077
4.034735 0.408629 -0.855772
4.034217 0.406051 -0.832095
4.038248 0.342835 -0.830922
4.039276 0.345460 -0.854745
3.974983 0.404535 -0.858164
3.974465 0.401957 -0.834488
3.978496 0.338741 -0.833314
3.979523 0.341366 -0.857138
4.028535 0.409644 -0.890868
4.034210 0.408671 -0.862673
4.038750 0.345502 -0.861646
4.033346 0.347521 -0.889612
3.969829 0.405470 -0.879510
3.975504 0.404497 -0.851315
3.980044 0.341328 -0.850288
3.974640 0.343346 -0.878254
4.016694 0.408201 -0.925755
4.027437 0.409656 -0.894965
4.032248 0.347532 -0.893709
4.021701 0.348160 -0.924839
3.960168 0.404005 -0.906262
3.970911 0.405460 -0.875473
3.975722 0.343336 -0.874217
3.965174 0.343964 -0.905346
3.972969 0.399789 -0.967579
4.007212 0.407216 -0.939348
4.012219 0.347174 -0.938432
3.977126 0.345899 -0.966551
3.935360 0.397560 -0.920959
3.969604 0.404986 -0.892728
3.974610 0.344945 -0.891812
3.939517 0.343670 -0.919931
3.910469 0.388290 -0.980492
3.958228 0.398419 -0.973973
3.962385 0.344529 -0.972945
3.913653 0.342872 -0.979668
3.902260 0.388790 -0.921119
3.950019 0.398919 -0.914600
3.954176 0.345029 -0.913572
3.905444 0.343372 -0.920295
3.842356 0.378249 -0.956425
3.894937 0.387273 -0.978496
3.898122 0.341855 -0.977672
3.844683 0.341942 -0.955790
3.865108 0.380772 -0.901029
3.917690 0.389796 -0.923099
3.920874 0.344379 -0.922276
3.867435 0.344466 -0.900394
4.039151 0.340015 -0.854591
4.038124 0.337390 -0.830768
4.030704 0.274585 -0.830041
4.032387 0.276948 -0.853656
3.979645 0.346685 -0.857289
3.978617 0.344060 -0.833466
3.971198 0.281255 -0.832739
3.972881 0.283618 -0.856354
4.033280 0.342290 -0.889493
4.038684 0.340271 -0.861526
4.031920 0.277204 -0.860591
4.027200 0.280359 -0.888821
3.974704 0.348452 -0.878372
3.980108 0.346433 -0.850406
3.973344 0.283366 -0.849471
3.968624 0.286521 -0.877701
4.021668 0.343117 -0.924731
4.032215 0.342489 -0.893601
4.026135 0.280558 -0.892930
4.015847 0.283081 -0.923765
3.965206 0.348885 -0.905452
3.975754 0.348257 -0.874323
3.969673 0.286326 -0.873652
3.959386 0.288849 -0.904486
3.977098 0.342569 -0.966499
4.012191 0.343844 -0.938380
4.006370 0.283808 -0.937414
3.971877 0.288802 -0.965816
3.939545 0.346886 -0.919981
3.974638 0.348162 -0.891862
3.968817 0.288126 -0.890896
3.934324 0.293119 -0.919298
3.913654 0.342283 -0.979658
3.962385 0.343940 -0.972935
3.957165 0.290173 -0.972251
3.908889 0.296982 -0.979087
3.905442 0.343862 -0.920304
3.954174 0.345519 -0.913581
3.948953 0.291752 -0.912897
3.900677 0.298561 -0.919733
3.844728 0.344035 -0.955823
3.898167 0.343947 -0.977705
3.893402 0.298647 -0.977135
3.840722 0.307875 -0.955369
3.867388 0.342292 -0.900359
3.920827 0.342205 -0.922241
3.916062 0.296904 -0.921671
3.863382 0.306132 -0.899905
4.031394 0.271944 -0.853644
4.029711 0.269581 -0.830029
4.012065 0.208717 -0.829522
4.014001 0.211138 -0.853346
3.973849 0.288498 -0.856364
3.972167 0.286135 -0.832750
3.954520 0.225271 -0.832242
3.956456 0.227692 -0.856066
4.026275 0.275362 -0.888628
4.030995 0.272208 -0.860397
4.013602 0.211402 -0.860099
4.009667 0.215255 -0.888098
3.969525 0.291394 -0.877894
3.974245 0.288240 -0.849663
3.956852 0.227434 -0.849365
3.952917 0.231287 -0.877363
4.014992 0.278358 -0.923676
4.025279 0.275835 -0.892842
4.008671 0.215727 -0.892312
3.999256 0.220225 -0.923516
3.960219 0.293452 -0.904574
3.970507 0.290929 -0.873739
3.953898 0.230821 -0.873209
3.944484 0.235319 -0.904413
3.971328 0.285813 -0.965787
4.005821 0.280819 -0.937385
3.990086 0.222686 -0.937225
3.956851 0.233706 -0.965503
3.934853 0.295996 -0.919326
3.969346 0.291003 -0.890924
3.953611 0.232869 -0.890763
3.920376 0.243889 -0.919042
3.908766 0.296428 -0.979084
3.957042 0.289618 -0.972248
3.942565 0.237511 -0.971965
3.896215 0.252676 -0.978820
3.900781 0.299019 -0.919735
3.949057 0.292209 -0.912899
3.934580 0.240102 -0.912616
3.888230 0.255267 -0.919470
3.841115 0.309946 -0.955383
3.893795 0.300718 -0.977149
3.881244 0.256966 -0.976884
3.830889 0.275026 -0.955133
3.862973 0.303981 -0.899890
3.915653 0.294753 -0.921656
3.903102 0.251001 -0.921391
3.852746 0.269061 -0.899640
4.011949 0.205913 -0.853190
4.010013 0.203493 -0.829366
3.981164 0.147353 -0.829389
3.983962 0.149006 -0.852951
3.958463 0.232799 -0.856222
3.956527 0.230378 -0.832398
3.927677 0.174239 -0.832421
3.930475 0.175892 -0.855983
4.007799 0.210284 -0.887951
4.011735 0.206432 -0.859953
3.983747 0.149524 -0.859714
3.980799 0.154275 -0.888004
3.954740 0.236140 -0.877510
3.958676 0.232287 -0.849511
3.930688 0.175380 -0.849273
3.927740 0.180130 -0.877562
3.997485 0.215398 -0.923415
4.006899 0.210901 -0.892210
3.979899 0.154891 -0.892263
3.971481 0.160934 -0.923168
3.946213 0.240031 -0.904514
3.955627 0.235533 -0.873309
3.928627 0.179524 -0.873362
3.920209 0.185567 -0.904267
3.955655 0.230512 -0.965496
3.988890 0.219492 -0.937217
3.962887 0.165028 -0.936971
3.932339 0.181809 -0.965406
3.921532 0.246976 -0.919049
3.954767 0.235956 -0.890770
3.928763 0.181492 -0.890524
3.898215 0.198274 -0.918959
3.896000 0.252068 -0.978815
3.942351 0.236903 -0.971961
3.919034 0.188201 -0.971871
3.876023 0.211131 -0.978832
3.888409 0.255783 -0.919474
3.934760 0.240618 -0.912620
3.911443 0.191915 -0.912530
3.868432 0.214846 -0.919491
3.831617 0.276997 -0.955127
3.881973 0.258937 -0.976878
3.861996 0.218000 -0.976895
3.815486 0.244385 -0.955085
3.851988 0.267015 -0.899645
3.902344 0.248955 -0.921397
3.882367 0.208018 -0.921413
3.835857 0.234403 -0.899603
3.981366 0.144755 -0.852928
3.978568 0.143103 -0.829365
3.941316 0.091895 -0.829566
3.944114 0.093779 -0.853379
3.933006 0.180035 -0.856007
3.930208 0.178382 -0.832444
3.892956 0.127174 -0.832645
3.895754 0.129058 -0.856458
3.978207 0.149878 -0.887819
3.981156 0.145128 -0.859529
3.943905 0.094151 -0.859980
3.942013 0.099100 -0.887998
3.930267 0.184419 -0.877747
3.933215 0.179669 -0.849458
3.895964 0.128692 -0.849909
3.894072 0.133641 -0.877926
3.969046 0.156760 -0.923114
3.977464 0.150717 -0.892209
3.941269 0.099939 -0.892388
3.934257 0.107606 -0.923616
3.922583 0.189635 -0.904321
3.931000 0.183592 -0.873416
3.894806 0.132814 -0.873595
3.887794 0.140481 -0.904823
3.930803 0.179158 -0.965396
3.961351 0.162376 -0.936960
3.926562 0.113222 -0.937462
3.899374 0.135153 -0.965786
3.899693 0.200827 -0.918970
3.930241 0.184045 -0.890534
3.895452 0.134891 -0.891036
3.868263 0.156823 -0.919360
3.875752 0.210647 -0.978832
3.918762 0.187717 -0.971871
3.887333 0.143712 -0.972261
3.848987 0.173824 -0.979141
3.868653 0.215245 -0.919492
3.911664 0.192314 -0.912530
3.880234 0.148310 -0.912920
3.841889 0.178421 -0.919801
3.816537 0.246211 -0.955060
3.863046 0.219827 -0.976870
3.836282 0.183004 -0.977180
3.794993 0.216889 -0.955220
3.834764 0.232507 -0.899628
3.881273 0.206122 -0.921438
3.854509 0.169299 -0.921747
3.813220 0.203184 -0.899787
3.940409 0.089577 -0.853398
3.937610 0.087694 -0.829585
3.891346 0.044998 -0.830339
3.894766 0.045663 -0.853891
3.899376 0.133165 -0.856440
3.896577 0.131281 -0.832627
3.850313 0.088585 -0.833380
3.853733 0.089251 -0.856933
3.938582 0.095107 -0.887912
3.940474 0.090158 -0.859895
3.894831 0.046244 -0.860388
3.894014 0.051814 -0.888719
3.897421 0.137540 -0.878012
3.899313 0.132591 -0.849995
3.853669 0.088676 -0.850488
3.852852 0.094247 -0.878819
3.930963 0.103701 -0.923557
3.937975 0.096034 -0.892329
3.893407 0.052741 -0.893136
3.887955 0.061412 -0.924090
3.891009 0.144293 -0.904883
3.898021 0.136626 -0.873655
3.853452 0.093333 -0.874462
3.848001 0.102005 -0.905417
3.897277 0.132587 -0.965761
3.924466 0.110655 -0.937437
3.881458 0.068366 -0.937970
3.858738 0.094762 -0.966535
3.870286 0.159303 -0.919386
3.897475 0.137371 -0.891062
3.854467 0.095082 -0.891596
3.831748 0.121478 -0.920161
3.848564 0.173408 -0.979154
3.886910 0.143296 -0.972274
3.848372 0.105472 -0.973048
3.815774 0.141767 -0.979706
3.842247 0.178762 -0.919789
3.880592 0.148650 -0.912909
3.842054 0.110825 -0.913683
3.809457 0.147121 -0.920341
3.796342 0.218511 -0.955180
3.837631 0.184625 -0.977140
3.804841 0.152984 -0.977692
3.770035 0.193378 -0.955553
3.811818 0.201501 -0.899827
3.853106 0.167616 -0.921787
3.820317 0.135974 -0.922339
3.785511 0.176368 -0.900199
3.890604 0.042381 -0.853903
3.887184 0.041716 -0.830350
3.834336 0.006881 -0.831251
3.837825 0.007891 -0.854983
3.857796 0.092455 -0.856923
3.854376 0.091789 -0.833371
3.801528 0.056955 -0.834272
3.805018 0.057964 -0.858004
3.889792 0.048391 -0.888650
3.890608 0.042820 -0.860319
3.837830 0.008330 -0.861400
3.838159 0.013608 -0.889392
3.856978 0.097592 -0.878889
3.857794 0.092022 -0.850559
3.805016 0.057531 -0.851639
3.805346 0.062810 -0.879631
3.884151 0.058146 -0.923795
3.889602 0.049474 -0.892840
3.837970 0.014692 -0.893582
3.834649 0.023949 -0.925014
3.851711 0.105194 -0.905714
