3.769331 0.425163 -0.415023
3.760498 0.423257 -0.420786
3.756984 0.420670 -0.405875
3.765392 0.423267 -0.400088
3.741982 0.482346 -0.415281
3.733139 0.480428 -0.421077
3.730012 0.477516 -0.406131
3.738468 0.479758 -0.400371
3.760633 0.423412 -0.421989
3.751790 0.421494 -0.427785
3.748663 0.418582 -0.412838
3.757119 0.420824 -0.407078
3.783305 0.487902 -0.392102
3.773557 0.487059 -0.394991
3.768097 0.489521 -0.376739
3.777042 0.490266 -0.372901
3.785439 0.426358 -0.383502
3.775691 0.425516 -0.386391
3.770232 0.427978 -0.368140
3.779176 0.428723 -0.364301
3.772517 0.486813 -0.396196
3.762515 0.485402 -0.397700
3.758447 0.488283 -0.382671
3.767058 0.489275 -0.377944
3.776711 0.425760 -0.385193
3.766709 0.424350 -0.386697
3.762642 0.427231 -0.371668
3.771252 0.428222 -0.366942
3.760685 0.485072 -0.398467
3.752296 0.483092 -0.404174
3.748518 0.485409 -0.389235
3.756618 0.487954 -0.383438
3.768521 0.424676 -0.385939
3.760132 0.422695 -0.391647
3.756353 0.425012 -0.376707
3.764453 0.427557 -0.370910
3.753090 0.483138 -0.404392
3.744683 0.480540 -0.410180
3.741221 0.483882 -0.395206
3.749312 0.485455 -0.389453
3.759321 0.422644 -0.391440
3.750914 0.420047 -0.397228
3.747452 0.423389 -0.382253
3.755543 0.424962 -0.376501
3.744153 0.480313 -0.410919
3.735697 0.478071 -0.416679
3.732578 0.481113 -0.401751
3.740691 0.483655 -0.395945
3.751427 0.420270 -0.396500
3.742971 0.418027 -0.402260
3.739852 0.421069 -0.387332
3.747965 0.423611 -0.381526
3.742839 0.490527 -0.482186
3.730079 0.486157 -0.492310
3.726652 0.483362 -0.476750
3.739810 0.488500 -0.467263
3.766836 0.433304 -0.486154
3.754076 0.428934 -0.496279
3.750649 0.426139 -0.480719
3.763807 0.431277 -0.471232
3.739408 0.488276 -0.466613
3.726251 0.483138 -0.476100
3.723833 0.480837 -0.459705
3.736301 0.485276 -0.451705
3.764202 0.431497 -0.471851
3.751045 0.426359 -0.481338
3.748628 0.424058 -0.464943
3.761095 0.428497 -0.456943
3.737284 0.485668 -0.451516
3.724817 0.481229 -0.459515
3.722380 0.478947 -0.443142
3.734173 0.482713 -0.436581
3.760107 0.428100 -0.457101
3.747639 0.423661 -0.465101
3.745203 0.421379 -0.448728
3.756996 0.425146 -0.442166
3.735368 0.483133 -0.436324
3.723575 0.479366 -0.442885
3.721135 0.477133 -0.426481
3.732244 0.480168 -0.421417
3.755795 0.424721 -0.442392
3.744003 0.420954 -0.448954
3.741562 0.418721 -0.432549
3.752671 0.421756 -0.427486
3.733673 0.480596 -0.421115
3.722564 0.477561 -0.426178
3.720117 0.475312 -0.409806
3.730546 0.477684 -0.406168
3.751236 0.421322 -0.427757
3.740127 0.418287 -0.432821
3.737680 0.416038 -0.416449
3.748109 0.418409 -0.412811
3.735455 0.478037 -0.416694
3.725026 0.475666 -0.420332
3.722590 0.479454 -0.403913
3.732336 0.481079 -0.401767
3.743195 0.418057 -0.402253
3.732766 0.415685 -0.405891
3.730329 0.419474 -0.389472
3.740076 0.421099 -0.387326
3.729238 0.485800 -0.492459
3.716418 0.480420 -0.502598
3.712660 0.477877 -0.486366
3.725811 0.483005 -0.476899
3.754892 0.429281 -0.496150
3.742072 0.423902 -0.506289
3.738314 0.421358 -0.490057
3.751465 0.426487 -0.480590
3.725199 0.481450 -0.460416
3.712740 0.476959 -0.468441
3.710982 0.475407 -0.450576
3.722762 0.479168 -0.444043
3.747233 0.423432 -0.464214
3.734774 0.418940 -0.472239
3.733016 0.417388 -0.454374
3.744797 0.421150 -0.447841
3.723915 0.479568 -0.443868
3.712135 0.475807 -0.450401
3.710374 0.474237 -0.432566
3.721475 0.477335 -0.427463
3.743639 0.420746 -0.447983
3.731859 0.416984 -0.454515
3.730098 0.415414 -0.436680
3.741199 0.418512 -0.431578
3.722876 0.477754 -0.427273
3.711774 0.474656 -0.432376
3.710006 0.473150 -0.414505
3.720429 0.475505 -0.410902
3.739794 0.418089 -0.431734
3.728693 0.414991 -0.436836
3.726924 0.413485 -0.418965
3.737347 0.415840 -0.415362
3.725138 0.475565 -0.420792
3.714715 0.473211 -0.424395
3.712953 0.477694 -0.406554
3.722701 0.479354 -0.404372
3.732634 0.415781 -0.405438
3.722211 0.413426 -0.409041
3.720449 0.417910 -0.391200
3.730198 0.419570 -0.389018
3.553821 0.541969 -0.468130
3.560275 0.543248 -0.474460
3.572106 0.549931 -0.474683
3.560247 0.546652 -0.465008
3.524642 0.593598 -0.486813
3.531096 0.594878 -0.493143
3.542927 0.601561 -0.493367
3.531068 0.598282 -0.483691
3.565561 0.544858 -0.478457
3.572671 0.545902 -0.483827
3.577149 0.551709 -0.476811
3.570942 0.550252 -0.472350
3.538733 0.595850 -0.501827
3.545843 0.596894 -0.507196
3.550321 0.602701 -0.500181
3.544114 0.601244 -0.495719
3.569275 0.546776 -0.479391
3.577710 0.547337 -0.482843
3.587744 0.554447 -0.479141
3.573753 0.552583 -0.472376
3.549257 0.596023 -0.511642
3.557692 0.596584 -0.515093
3.567726 0.603694 -0.511392
3.553735 0.601830 -0.504626
3.583111 0.550112 -0.482036
3.591903 0.550139 -0.484506
3.592155 0.557499 -0.477004
3.584711 0.556660 -0.474882
3.569187 0.594936 -0.522816
3.577979 0.594963 -0.525285
3.578231 0.602323 -0.517784
3.570787 0.601484 -0.515662
3.590502 0.550861 -0.483329
3.599358 0.550754 -0.485551
3.601915 0.559244 -0.477835
3.590753 0.558221 -0.475827
3.579399 0.594242 -0.526466
3.588256 0.594135 -0.528689
3.590813 0.602625 -0.520973
3.579651 0.601602 -0.518965
3.591945 0.551896 -0.483866
3.605835 0.552644 -0.482079
3.604705 0.560527 -0.475212
3.594502 0.560386 -0.476150
3.595690 0.592994 -0.530374
3.609580 0.593742 -0.528588
3.608451 0.601625 -0.521720
3.598248 0.601484 -0.522659
3.606397 0.553347 -0.481439
3.620285 0.554097 -0.479664
3.619048 0.561584 -0.473896
3.605267 0.561230 -0.474571
3.609044 0.593039 -0.529226
3.622932 0.593789 -0.527451
3.621695 0.601276 -0.521684
3.607915 0.600922 -0.522358
3.619786 0.555184 -0.478833
3.633677 0.555933 -0.477055
3.628429 0.562856 -0.472370
3.618548 0.562671 -0.473066
3.623457 0.592703 -0.528280
3.637348 0.593452 -0.526502
3.632100 0.600375 -0.521816
3.622220 0.600190 -0.522512
3.624848 0.552977 -0.482255
3.637364 0.552611 -0.475963
3.635553 0.558298 -0.470481
3.619600 0.559901 -0.477570
3.646203 0.596406 -0.521294
3.658718 0.596040 -0.515002
3.656908 0.601727 -0.509519
3.640955 0.603330 -0.516608
3.637304 0.551643 -0.477132
3.649801 0.551257 -0.470774
3.647842 0.555925 -0.465662
3.635493 0.557330 -0.471649
3.658805 0.597005 -0.513820
3.671301 0.596619 -0.507462
3.669343 0.601287 -0.502351
3.656994 0.602692 -0.508338
3.650612 0.549517 -0.472646
3.663106 0.549133 -0.466292
3.661003 0.552776 -0.461532
3.648654 0.554185 -0.467535
3.670515 0.598358 -0.505578
3.683008 0.597974 -0.499224
3.680906 0.601617 -0.494464
3.668556 0.603026 -0.500466
3.664940 0.547925 -0.467142
3.677507 0.547779 -0.460965
3.675313 0.550989 -0.456711
3.662838 0.551568 -0.462383
3.681199 0.599181 -0.498361
3.693765 0.599034 -0.492184
3.691571 0.602244 -0.487930
3.679096 0.602824 -0.493602
3.681240 0.549107 -0.457686
3.694222 0.550275 -0.452517
3.691879 0.554157 -0.448703
3.679046 0.552317 -0.453432
3.690057 0.597707 -0.495452
3.703038 0.598876 -0.490283
3.700695 0.602758 -0.486470
3.687863 0.600917 -0.491199
3.692853 0.552651 -0.450129
3.705830 0.553812 -0.444950
3.702649 0.558538 -0.441392
3.690510 0.556532 -0.446316
3.704432 0.596503 -0.492661
3.717409 0.597664 -0.487482
3.714228 0.602390 -0.483924
3.702089 0.600385 -0.488848
3.704858 0.554987 -0.444076
3.717855 0.556161 -0.438896
3.715008 0.561335 -0.435018
3.701677 0.559713 -0.440518
3.718407 0.596492 -0.488346
3.731404 0.597666 -0.483167
3.728558 0.602839 -0.479289
3.715226 0.601218 -0.484788
3.726186 0.551343 -0.458488
3.723586 0.550440 -0.445248
3.709480 0.548309 -0.443862
3.712854 0.549722 -0.463988
3.717374 0.612834 -0.455798
3.714774 0.611931 -0.442558
3.700668 0.609801 -0.441172
3.704043 0.611213 -0.461298
3.723778 0.550468 -0.445258
3.720992 0.549461 -0.431035
3.708027 0.547543 -0.432555
3.709672 0.548338 -0.443872
3.714576 0.611900 -0.442519
3.711790 0.610893 -0.428296
3.698826 0.608975 -0.429816
3.700471 0.609770 -0.441133
3.721203 0.549493 -0.431023
3.718422 0.548470 -0.416805
3.706593 0.546763 -0.421223
3.708239 0.547574 -0.432542
3.711574 0.610859 -0.428283
3.708792 0.609836 -0.414066
3.696964 0.608129 -0.418484
3.698610 0.608941 -0.429803
3.712681 0.549708 -0.464224
3.709307 0.548296 -0.444098
3.695199 0.546187 -0.442718
3.695704 0.546780 -0.451136
3.704187 0.611222 -0.461057
3.700812 0.609809 -0.440931
3.686704 0.607700 -0.439552
3.687209 0.608293 -0.447969
3.709630 0.548347 -0.444178
3.707985 0.547551 -0.432860
3.695017 0.545636 -0.434375
3.695522 0.546238 -0.442798
3.700486 0.609757 -0.440828
3.698841 0.608962 -0.429511
3.685873 0.607046 -0.431026
3.686378 0.607648 -0.439448
3.708265 0.547592 -0.432820
3.706619 0.546781 -0.421501
3.694791 0.545089 -0.425917
3.695297 0.545677 -0.434335
3.698558 0.608920 -0.429531
3.696912 0.608108 -0.418212
3.685084 0.606417 -0.422627
3.685590 0.607004 -0.431046
3.726488 0.559557 -0.435303
3.741772 0.562214 -0.434423
3.738533 0.568220 -0.430321
3.723641 0.564730 -0.431425
3.722799 0.594275 -0.486753
3.738083 0.596932 -0.485873
3.734845 0.602939 -0.481771
3.719953 0.599448 -0.482875
3.741560 0.563094 -0.433836
3.756847 0.565759 -0.432966
3.753111 0.572495 -0.428658
3.738322 0.569101 -0.429734
3.738325 0.596058 -0.486458
3.753611 0.598723 -0.485588
3.749875 0.605458 -0.481279
3.735086 0.602065 -0.482355
3.756442 0.566005 -0.432792
3.771699 0.568689 -0.431827
3.767483 0.576020 -0.427151
3.752706 0.572740 -0.428484
3.754046 0.598483 -0.485760
3.769303 0.601167 -0.484794
3.765086 0.608498 -0.480118
3.750310 0.605218 -0.481451
3.769147 0.567472 -0.432621
3.784212 0.570278 -0.429993
3.780005 0.576862 -0.425661
3.764931 0.574803 -0.427945
3.771885 0.602389 -0.483996
3.786950 0.605195 -0.481368
3.782743 0.611779 -0.477036
3.767669 0.609720 -0.479320
3.784327 0.570011 -0.430170
3.799377 0.572816 -0.427507
3.795422 0.578833 -0.423488
3.780121 0.576595 -0.425838
3.786864 0.605466 -0.481186
3.801914 0.608271 -0.478523
3.797959 0.614288 -0.474503
3.782658 0.612050 -0.476854
3.801230 0.575013 -0.426089
3.816229 0.578820 -0.423745
3.812615 0.586244 -0.419850
3.797275 0.581031 -0.422069
3.800092 0.606080 -0.479937
3.815091 0.609886 -0.477593
3.811477 0.617311 -0.473698
3.796136 0.612098 -0.475917
3.812957 0.579698 -0.423386
3.831454 0.582110 -0.419980
3.828273 0.589703 -0.416483
3.809343 0.587123 -0.419490
3.818397 0.609015 -0.477948
3.836894 0.611426 -0.474542
3.833713 0.619020 -0.471045
3.814783 0.616439 -0.474052
3.728498 0.551762 -0.458460
3.743390 0.555253 -0.457355
3.740770 0.553821 -0.443411
3.725898 0.550859 -0.445220
3.715090 0.612420 -0.455823
3.729982 0.615911 -0.454719
3.727361 0.614478 -0.440775
3.712490 0.611517 -0.442583
3.743368 0.555309 -0.458370
3.758157 0.558703 -0.457294
3.755629 0.556795 -0.442620
3.740747 0.553877 -0.444426
3.730034 0.615861 -0.453701
3.744823 0.619255 -0.452624
3.742296 0.617346 -0.437951
3.727413 0.614429 -0.439757
3.758109 0.558770 -0.458140
3.772885 0.562049 -0.456807
3.770214 0.559683 -0.441690
3.755581 0.556862 -0.443466
3.744901 0.619194 -0.451775
3.759677 0.622474 -0.450443
3.757006 0.620107 -0.435325
3.742373 0.617286 -0.437101
3.771408 0.561792 -0.457061
3.786482 0.563850 -0.454777
3.781786 0.561599 -0.439915
3.768737 0.559425 -0.441943
3.761183 0.622736 -0.450185
3.776258 0.624795 -0.447901
3.771562 0.622543 -0.433040
3.758512 0.620370 -0.435068
3.786417 0.563785 -0.454252
3.801718 0.566023 -0.451902
3.796809 0.563838 -0.436868
3.781721 0.561533 -0.439391
3.776352 0.624865 -0.448421
3.791654 0.627103 -0.446070
3.786744 0.624918 -0.431036
3.771656 0.622613 -0.433559
3.806944 0.567223 -0.449739
3.822285 0.572437 -0.447520
3.817192 0.570352 -0.432312
3.802035 0.565038 -0.434706
3.786458 0.625910 -0.448228
3.801799 0.631123 -0.446009
3.796707 0.629038 -0.430800
3.781549 0.623725 -0.433194
3.724995 0.550681 -0.445385
3.739866 0.553643 -0.443577
3.736649 0.552046 -0.428022
3.722209 0.549674 -0.431162
3.713387 0.611692 -0.442389
3.728259 0.614654 -0.440581
3.725041 0.613057 -0.425026
3.710601 0.610685 -0.428166
3.739940 0.553705 -0.444356
3.754822 0.556623 -0.442550
3.751168 0.554467 -0.425658
3.736723 0.552108 -0.428801
3.728214 0.614597 -0.439796
3.743097 0.617515 -0.437990
3.739442 0.615359 -0.421097
3.724997 0.613000 -0.424241
3.754742 0.556673 -0.443299
3.769375 0.559495 -0.441523
3.765442 0.556708 -0.423298
3.751087 0.554517 -0.426407
3.743206 0.617470 -0.437236
3.757839 0.620291 -0.435460
3.753906 0.617505 -0.417234
3.739552 0.615314 -0.420343
3.767164 0.559518 -0.444075
3.780214 0.561691 -0.442047
3.776304 0.556964 -0.424389
3.763231 0.556732 -0.425850
3.760077 0.620272 -0.432904
3.773127 0.622445 -0.430875
3.769216 0.617718 -0.413218
3.756144 0.617486 -0.414679
3.784177 0.562229 -0.440916
3.799265 0.564533 -0.438393
3.794562 0.561861 -0.420993
3.780267 0.557502 -0.423258
3.769191 0.621911 -0.432002
3.784279 0.624216 -0.429479
3.779575 0.621543 -0.412078
3.765281 0.617185 -0.414344
3.802663 0.565275 -0.435029
3.817820 0.570589 -0.432635
3.812802 0.568357 -0.416231
3.797959 0.562602 -0.417629
3.780912 0.623483 -0.432839
3.796069 0.628797 -0.430445
3.791051 0.626565 -0.414041
3.776208 0.620810 -0.415439
3.721408 0.549537 -0.431257
3.735848 0.551909 -0.428117
3.732407 0.550370 -0.412892
3.718626 0.548514 -0.417040
3.711396 0.610819 -0.428042
3.725836 0.613191 -0.424901
3.722395 0.611652 -0.409676
3.708614 0.609796 -0.413824
3.736007 0.551975 -0.428745
3.750452 0.554334 -0.425601
3.746333 0.552296 -0.409381
3.732566 0.550436 -0.413520
3.725706 0.613129 -0.424266
3.740151 0.615488 -0.421122
3.736032 0.613451 -0.404903
3.722264 0.611591 -0.409041
3.749947 0.554352 -0.426690
3.764301 0.556543 -0.423581
3.759706 0.553618 -0.406395
3.745828 0.552314 -0.410471
3.740684 0.615474 -0.420026
3.755039 0.617665 -0.416917
3.750444 0.614740 -0.399730
3.736566 0.613436 -0.403806
3.762454 0.556293 -0.423321
3.775527 0.556526 -0.421860
3.771732 0.554998 -0.401980
3.757859 0.553368 -0.406134
3.756913 0.617918 -0.417171
3.769985 0.618150 -0.415710
3.766190 0.616622 -0.395831
3.752318 0.614992 -0.399985
3.780849 0.557369 -0.420501
3.795143 0.561727 -0.418236
3.791164 0.558994 -0.400345
3.777054 0.555841 -0.400622
3.764691 0.617312 -0.417064
3.778985 0.621670 -0.414799
3.775006 0.618937 -0.396908
3.760896 0.615784 -0.397185
3.798904 0.562980 -0.417804
3.813747 0.568735 -0.416407
3.809100 0.566370 -0.399767
3.794924 0.560247 -0.399913
3.775254 0.620427 -0.415229
3.790097 0.626181 -0.413831
3.785451 0.623816 -0.397192
3.771275 0.617693 -0.397338
3.538111 0.530628 -0.424810
3.539243 0.532604 -0.439805
3.547762 0.537799 -0.440821
3.545986 0.535254 -0.427785
3.507264 0.584337 -0.419347
3.508396 0.586314 -0.434342
3.516914 0.591509 -0.435357
3.515139 0.588963 -0.422321
3.540129 0.533116 -0.439641
3.541260 0.535094 -0.454641
3.550424 0.540851 -0.453696
3.548647 0.538311 -0.440657
3.507514 0.585806 -0.434534
3.508645 0.587784 -0.449534
3.517809 0.593541 -0.448588
3.516032 0.591001 -0.435549
3.542414 0.535769 -0.450487
3.547846 0.538059 -0.464303
3.555793 0.544150 -0.461896
3.551578 0.541525 -0.449542
3.507497 0.587114 -0.453715
3.512928 0.589405 -0.467530
3.520875 0.595495 -0.465123
3.516660 0.592871 -0.452769
3.547606 0.538299 -0.461108
3.556435 0.542344 -0.472642
3.562861 0.547028 -0.469520
3.555553 0.544389 -0.458701
3.513181 0.589172 -0.470749
3.522010 0.593217 -0.482283
3.528436 0.597901 -0.479160
3.521128 0.595262 -0.468342
3.545904 0.528028 -0.472552
3.555243 0.546296 -0.459242
3.549812 0.544005 -0.445426
3.543026 0.529173 -0.458435
3.496175 0.562878 -0.485916
3.505514 0.581146 -0.472606
3.500083 0.578855 -0.458790
3.493298 0.564023 -0.471799
3.544750 0.530979 -0.461172
3.551535 0.545811 -0.448164
3.541923 0.529798 -0.446754
3.491565 0.562212 -0.469042
3.498351 0.577044 -0.456034
3.488739 0.561031 -0.454624
3.541821 0.529146 -0.450406
3.551433 0.545159 -0.451816
3.550302 0.543181 -0.436817
3.540292 0.527285 -0.435791
3.488841 0.561686 -0.450947
3.498453 0.577698 -0.452357
3.497322 0.575720 -0.437358
3.487312 0.559825 -0.436332
3.539922 0.526697 -0.435850
3.549932 0.542592 -0.436876
3.548799 0.540615 -0.421881
3.538367 0.524853 -0.421231
3.487679 0.560410 -0.436243
3.497689 0.576305 -0.437269
3.496556 0.574329 -0.422273
3.486125 0.558567 -0.421624
3.553192 0.534659 -0.475907
3.543718 0.526322 -0.469950
3.544529 0.520640 -0.483606
3.507837 0.572905 -0.494515
3.498363 0.564568 -0.488558
3.499174 0.558886 -0.502213
3.561652 0.548706 -0.467485
3.552822 0.544661 -0.455952
3.543483 0.526393 -0.469261
3.552958 0.534730 -0.475218
3.516778 0.586833 -0.487453
3.507948 0.582788 -0.475919
3.498609 0.564520 -0.489229
3.508084 0.572857 -0.495186
3.398121 0.489816 -0.451204
3.412793 0.493428 -0.440026
3.413326 0.493168 -0.431947
3.398416 0.489624 -0.440762
3.382125 0.549861 -0.449026
3.396797 0.553473 -0.437848
3.397329 0.553213 -0.429769
3.382419 0.549670 -0.438584
3.412559 0.493940 -0.444879
3.428340 0.497525 -0.436016
3.429321 0.495277 -0.429686
3.413091 0.493680 -0.436800
3.397062 0.552967 -0.432977
3.412843 0.556553 -0.424114
3.413824 0.554305 -0.417784
3.397595 0.552707 -0.424898
3.429290 0.499126 -0.440635
3.447167 0.502871 -0.436254
3.447527 0.501122 -0.430931
3.430272 0.496878 -0.434305
3.411926 0.554958 -0.419483
3.429803 0.558703 -0.415102
3.430163 0.556954 -0.409780
3.412908 0.552710 -0.413153
3.443586 0.500354 -0.429453
3.460036 0.502821 -0.436465
3.459874 0.503134 -0.429934
3.443946 0.498604 -0.424131
3.433418 0.561228 -0.421906
3.449868 0.563696 -0.428917
3.449706 0.564008 -0.422386
3.433778 0.559479 -0.416583
3.459769 0.502584 -0.431143
3.475944 0.504651 -0.440453
3.475714 0.505005 -0.432611
3.459607 0.502897 -0.424612
3.450168 0.563938 -0.434254
3.466343 0.566004 -0.443564
3.466114 0.566359 -0.435721
3.450006 0.564251 -0.427723
3.400046 0.490786 -0.446061
3.414956 0.494329 -0.437245
3.415884 0.492315 -0.429124
3.400616 0.489203 -0.435698
3.380791 0.548506 -0.433267
3.395701 0.552050 -0.424452
3.396629 0.550036 -0.416331
3.381361 0.546923 -0.422904
3.412113 0.493209 -0.435497
3.428343 0.494806 -0.428383
3.428751 0.494884 -0.422093
3.413042 0.491195 -0.427375
3.398574 0.553176 -0.426186
3.414804 0.554773 -0.419072
3.415212 0.554852 -0.412783
3.399502 0.551162 -0.418065
3.429117 0.494632 -0.423318
3.446372 0.498876 -0.419945
3.446347 0.499049 -0.414567
3.429525 0.494710 -0.417028
3.414063 0.554954 -0.424128
3.431318 0.559198 -0.420755
3.431293 0.559372 -0.415377
3.414471 0.555033 -0.417838
3.445934 0.498814 -0.422036
3.461862 0.503344 -0.427839
3.461892 0.502514 -0.421433
3.445908 0.498988 -0.416658
3.431790 0.559268 -0.418666
3.447718 0.563798 -0.424469
3.447748 0.562968 -0.418063
3.431764 0.559442 -0.413288
3.460088 0.502939 -0.426513
3.476196 0.505047 -0.434511
3.475934 0.505672 -0.426602
3.460118 0.502109 -0.420107
3.449524 0.564209 -0.425808
3.465632 0.566317 -0.433806
3.465371 0.566942 -0.425898
3.449554 0.563379 -0.419402
3.397766 0.487737 -0.430299
3.413034 0.490850 -0.423725
3.413516 0.490768 -0.415563
3.398103 0.487385 -0.419858
3.384212 0.548386 -0.428285
3.399480 0.551499 -0.421711
3.399962 0.551417 -0.413549
3.384550 0.548034 -0.417844
3.413676 0.490986 -0.423107
3.429386 0.494676 -0.417825
3.429803 0.494789 -0.411455
3.414158 0.490904 -0.414945
3.398869 0.551370 -0.422319
3.414578 0.555059 -0.417036
3.414996 0.555173 -0.410667
3.399350 0.551287 -0.414157
3.429798 0.494778 -0.417229
3.446620 0.499117 -0.414767
3.446621 0.499190 -0.409421
3.430215 0.494891 -0.410859
3.414199 0.554966 -0.417626
3.431020 0.559305 -0.415165
3.431022 0.559377 -0.409818
3.414616 0.555079 -0.411257
3.446251 0.499056 -0.413550
3.462234 0.502582 -0.418325
3.462038 0.503015 -0.411889
3.446252 0.499129 -0.408204
3.431422 0.559373 -0.416384
3.447406 0.562900 -0.421159
3.447210 0.563332 -0.414723
3.431424 0.559446 -0.411038
3.460115 0.502119 -0.420623
3.475931 0.505682 -0.427118
3.475938 0.504808 -0.419254
3.459919 0.502552 -0.414187
3.449557 0.563369 -0.418872
3.465374 0.566932 -0.425367
3.465381 0.566058 -0.417503
3.449361 0.563802 -0.412436
3.398398 0.487448 -0.419723
3.413810 0.490831 -0.415429
3.414286 0.490797 -0.407255
3.398723 0.487127 -0.409311
3.384257 0.547971 -0.417960
3.399669 0.551353 -0.413665
3.400145 0.551320 -0.405492
3.384582 0.547650 -0.407548
3.414395 0.490964 -0.415011
3.430040 0.494849 -0.411521
3.430491 0.494894 -0.405241
3.414871 0.490930 -0.406838
3.399115 0.551228 -0.414077
3.414760 0.555113 -0.410587
3.415211 0.555157 -0.404307
3.399591 0.551194 -0.405904
3.430328 0.494922 -0.411391
3.446734 0.499220 -0.409953
3.446761 0.499170 -0.404626
3.430779 0.494966 -0.405111
3.414503 0.555048 -0.410713
3.430910 0.559347 -0.409274
3.430936 0.559297 -0.403947
3.414955 0.555093 -0.404433
3.446938 0.499291 -0.408552
3.462724 0.503178 -0.412238
3.462532 0.503598 -0.405864
3.446964 0.499241 -0.403225
3.430738 0.559284 -0.410677
3.446523 0.563170 -0.414363
3.446331 0.563590 -0.407989
3.430764 0.559234 -0.405350
3.459024 0.502426 -0.412026
3.475043 0.504681 -0.417093
3.474868 0.504801 -0.409209
3.458831 0.502845 -0.405652
3.450256 0.563929 -0.414582
3.466275 0.566184 -0.419650
3.466100 0.566305 -0.411766
3.450063 0.564349 -0.408209
3.398826 0.487184 -0.410076
3.414390 0.490853 -0.408020
3.414936 0.490445 -0.399779
3.399153 0.486776 -0.399641
3.384480 0.547593 -0.406764
3.400043 0.551263 -0.404708
3.400590 0.550855 -0.396467
3.384807 0.547185 -0.396329
3.414571 0.491013 -0.409485
3.430191 0.494977 -0.407888
3.430868 0.494164 -0.401499
3.415118 0.490605 -0.401244
3.399893 0.551110 -0.403242
3.415513 0.555074 -0.401645
3.416190 0.554261 -0.395256
3.400440 0.550702 -0.395001
3.431056 0.495310 -0.408791
3.447037 0.499513 -0.408305
3.447239 0.498977 -0.402946
3.431734 0.494497 -0.402402
3.414678 0.554749 -0.400741
3.430659 0.558953 -0.400256
3.430861 0.558416 -0.394896
3.415356 0.553936 -0.394352
3.447596 0.499436 -0.405736
3.463164 0.503792 -0.408376
3.463083 0.503796 -0.402106
3.447797 0.498899 -0.400376
3.430132 0.559039 -0.402827
3.445699 0.563396 -0.405466
3.445618 0.563400 -0.399197
3.430333 0.558503 -0.397467
3.457808 0.502697 -0.407549
3.473845 0.504653 -0.411106
3.473567 0.504323 -0.403228
3.457727 0.502701 -0.401280
3.451086 0.564497 -0.406298
3.467123 0.566453 -0.409855
3.466845 0.566124 -0.401977
3.451005 0.564502 -0.400029
3.530655 0.516156 -0.475217
3.527777 0.517302 -0.461099
3.515957 0.514538 -0.451813
3.518156 0.513689 -0.464388
3.511405 0.574730 -0.483255
3.508527 0.575876 -0.469137
3.496707 0.573112 -0.459851
3.498906 0.572262 -0.472426
3.524207 0.516120 -0.466317
3.521380 0.514939 -0.451899
3.510255 0.512491 -0.444833
3.512387 0.513356 -0.457031
3.512092 0.577058 -0.463893
3.509265 0.575877 -0.449475
3.498140 0.573429 -0.442409
3.500272 0.574293 -0.454607
3.519696 0.514792 -0.453853
3.518167 0.512931 -0.439238
3.507367 0.510965 -0.433971
3.508571 0.512344 -0.446787
3.510946 0.576022 -0.447493
3.509417 0.574161 -0.432878
3.498617 0.572195 -0.427611
3.499821 0.573574 -0.440427
3.518515 0.513115 -0.440315
3.516961 0.511272 -0.425696
3.506645 0.508778 -0.422548
3.507716 0.511149 -0.435048
3.509065 0.573974 -0.431773
3.507511 0.572131 -0.417154
3.497195 0.569637 -0.414006
3.498266 0.572008 -0.426507
3.517387 0.513335 -0.465319
3.515189 0.514184 -0.452744
3.503341 0.511421 -0.443274
3.504825 0.510939 -0.454131
3.499650 0.572611 -0.471474
3.497451 0.573460 -0.458899
3.485604 0.570697 -0.449429
3.487088 0.570214 -0.460286
3.512494 0.513363 -0.456607
3.510362 0.512499 -0.444409
3.499222 0.510172 -0.437499
3.500647 0.510600 -0.447136
3.500142 0.574281 -0.455014
3.498010 0.573417 -0.442816
3.486870 0.571090 -0.435907
3.488294 0.571518 -0.445543
3.508750 0.512329 -0.446366
3.507546 0.510951 -0.433550
3.496771 0.508939 -0.428591
3.497610 0.510003 -0.439457
3.499620 0.573584 -0.440836
3.498416 0.572205 -0.428020
3.487641 0.570194 -0.423060
3.488480 0.571258 -0.433926
3.506196 0.511163 -0.436362
3.505126 0.508792 -0.423861
3.494662 0.507089 -0.420830
3.495422 0.509152 -0.431402
3.499763 0.571989 -0.425185
3.498693 0.569618 -0.412684
3.488229 0.567915 -0.409653
3.488989 0.569978 -0.420225
3.507596 0.509495 -0.459936
3.507061 0.512534 -0.449673
3.494566 0.510051 -0.438646
3.494941 0.508388 -0.447220
3.485365 0.565573 -0.475006
3.484829 0.568612 -0.464743
3.472335 0.566129 -0.453715
3.472710 0.564466 -0.462290
3.504041 0.510635 -0.455057
3.502557 0.511117 -0.444199
3.490734 0.508462 -0.435127
3.491546 0.508151 -0.444029
3.487848 0.570514 -0.459340
3.486364 0.570996 -0.448482
3.474541 0.568341 -0.439410
3.475353 0.568031 -0.448312
3.500972 0.510658 -0.446360
3.499548 0.510230 -0.436723
3.488443 0.507959 -0.430421
3.489150 0.508002 -0.437287
3.487946 0.571455 -0.446304
3.486521 0.571028 -0.436667
3.475417 0.568756 -0.430366
3.476123 0.568800 -0.437232
3.497301 0.509868 -0.438147
3.496462 0.508805 -0.427281
3.485627 0.507520 -0.422807
3.486196 0.507597 -0.431845
3.488766 0.571388 -0.435225
3.487928 0.570324 -0.424358
3.477093 0.569040 -0.419885
3.477662 0.569117 -0.428923
3.493669 0.509158 -0.432125
3.492910 0.507096 -0.421553
3.482459 0.505857 -0.418848
3.482834 0.507874 -0.427651
3.490720 0.569968 -0.419495
3.489961 0.567906 -0.408922
3.479510 0.566667 -0.406218
3.479884 0.568684 -0.415021
3.488210 0.507947 -0.431882
3.487641 0.507870 -0.422844
3.476965 0.505027 -0.419886
3.476958 0.505901 -0.427750
3.475626 0.568763 -0.428877
3.475056 0.568686 -0.419839
3.464381 0.565844 -0.416881
3.464373 0.566718 -0.424745
3.485694 0.507675 -0.424668
3.485319 0.505658 -0.415865
3.474842 0.504952 -0.413825
3.475018 0.504832 -0.421709
3.477003 0.568880 -0.417999
3.476629 0.566863 -0.409196
3.466152 0.566158 -0.407156
3.466327 0.566037 -0.415040
3.482254 0.505252 -0.414369
3.481713 0.504555 -0.405570
3.471500 0.504217 -0.404451
3.471777 0.504547 -0.412329
3.479693 0.567267 -0.410675
3.479151 0.566570 -0.401876
3.468939 0.566232 -0.400758
3.469216 0.566562 -0.408635
3.492430 0.507173 -0.448698
3.492055 0.508836 -0.440124
3.479775 0.506077 -0.435975
3.475200 0.565679 -0.460794
3.474825 0.567341 -0.452220
3.462545 0.564582 -0.448071
3.490821 0.507934 -0.444508
3.490009 0.508245 -0.435606
3.478311 0.505530 -0.432516
3.478540 0.505176 -0.440358
3.476055 0.568242 -0.447820
3.475243 0.568553 -0.438919
3.463545 0.565838 -0.435828
3.463774 0.565484 -0.443671
3.489423 0.508107 -0.435617
3.488716 0.508063 -0.428750
3.477464 0.506017 -0.424618
3.477725 0.505392 -0.432527
3.475827 0.568691 -0.438891
3.475121 0.568648 -0.432025
3.463869 0.566602 -0.427893
3.464130 0.565977 -0.435801
3.381767 0.484021 -0.451741
3.391245 0.486950 -0.440589
3.391178 0.486506 -0.429250
3.381193 0.483037 -0.431781
3.360942 0.542565 -0.449496
3.370420 0.545494 -0.438345
3.370354 0.545050 -0.427005
3.360368 0.541580 -0.429536
3.381347 0.483093 -0.431799
3.391333 0.486563 -0.429268
3.391223 0.486114 -0.417863
3.380793 0.482060 -0.411818
3.360213 0.541523 -0.429487
3.370198 0.544993 -0.426956
3.370088 0.544543 -0.415551
3.359658 0.540490 -0.409507
3.380852 0.482082 -0.411841
3.391282 0.486136 -0.417885
3.391180 0.485620 -0.406427
3.380291 0.481071 -0.391881
3.359599 0.540466 -0.409453
3.370029 0.544520 -0.415497
3.369927 0.544004 -0.404039
3.359038 0.539455 -0.389493
3.381681 0.483985 -0.451580
3.400427 0.490523 -0.451074
3.400722 0.490332 -0.440632
3.391158 0.486914 -0.440428
3.361043 0.542607 -0.449673
3.379790 0.549145 -0.449166
3.380084 0.548954 -0.438724
3.370521 0.545536 -0.438521
3.389220 0.486434 -0.442440
3.398784 0.489852 -0.442644
3.399354 0.488269 -0.432281
3.389154 0.485991 -0.431101
3.372464 0.546015 -0.436487
3.382027 0.549433 -0.436691
3.382598 0.547850 -0.426328
3.372398 0.545572 -0.425148
3.387364 0.485421 -0.429296
3.397565 0.487699 -0.430476
3.397902 0.487347 -0.420035
3.387254 0.484972 -0.417891
3.374188 0.546140 -0.426931
3.384388 0.548419 -0.428111
3.384726 0.548067 -0.417670
3.374078 0.545691 -0.415526
3.387275 0.484978 -0.417926
3.397923 0.487353 -0.420070
3.398248 0.487032 -0.409658
3.387173 0.484462 -0.406467
3.374057 0.545685 -0.415470
3.384705 0.548060 -0.417614
3.385031 0.547739 -0.407202
3.373956 0.545169 -0.404011
3.388039 0.484768 -0.408029
3.399114 0.487338 -0.411219
3.399441 0.486930 -0.400784
3.377150 0.480219 -0.393483
3.373085 0.544860 -0.402427
3.384160 0.547430 -0.405617
3.384487 0.547022 -0.395182
3.362196 0.540311 -0.387880
3.515697 0.520634 -0.449821
3.516092 0.516104 -0.454583
3.528359 0.521738 -0.462530
3.477286 0.554431 -0.485154
3.477680 0.549901 -0.489916
3.489947 0.555535 -0.497863
3.534847 0.519802 -0.468372
3.522348 0.517334 -0.457543
3.522983 0.513003 -0.469327
3.535659 0.514120 -0.482027
3.507215 0.571079 -0.490125
3.494716 0.568611 -0.479296
3.495351 0.564280 -0.491080
3.508026 0.565397 -0.503780
3.521307 0.516306 -0.458816
3.508746 0.513910 -0.447628
3.509281 0.510872 -0.457891
3.521942 0.511976 -0.470599
3.495732 0.569635 -0.478000
3.483170 0.567239 -0.466812
3.483705 0.564200 -0.477075
3.496367 0.565304 -0.489783
3.527502 0.514521 -0.469498
3.515183 0.508521 -0.461922
3.514315 0.502694 -0.467462
3.526974 0.509449 -0.474761
3.489367 0.551469 -0.501849
3.477048 0.545470 -0.494273
3.476180 0.539642 -0.499813
3.488839 0.546398 -0.507112
3.540266 0.521143 -0.476158
3.527591 0.520026 -0.463457
3.526871 0.514394 -0.468923
3.503415 0.558365 -0.509662
3.490739 0.557248 -0.496961
3.490020 0.551616 -0.502427
3.540243 0.520811 -0.476509
3.526848 0.514062 -0.469274
3.526321 0.508990 -0.474536
3.503436 0.558690 -0.509319
3.490042 0.551941 -0.502084
3.489514 0.546869 -0.507346
3.534786 0.529738 -0.466482
3.520863 0.517918 -0.464510
3.518422 0.499482 -0.469919
3.532213 0.514642 -0.471307
3.508896 0.549746 -0.519354
3.494973 0.537926 -0.517382
3.492532 0.519489 -0.522791
3.506322 0.534650 -0.524179
3.520940 0.518984 -0.464168
3.507307 0.506575 -0.462119
3.505675 0.489312 -0.466627
3.518499 0.500548 -0.469577
3.494869 0.536834 -0.517720
3.481236 0.524424 -0.515671
3.479604 0.507161 -0.520178
3.492428 0.518397 -0.523129
3.527050 0.509560 -0.474725
3.514392 0.502804 -0.467426
3.513417 0.497150 -0.472676
3.488757 0.546276 -0.507154
3.476098 0.539520 -0.499855
3.475124 0.533866 -0.505105
3.391328 0.440568 -0.428941
3.369408 0.429053 -0.428400
3.391326 0.427596 -0.428988
3.389675 0.440790 -0.491097
3.367756 0.429275 -0.490555
3.389673 0.427818 -0.491143
3.390534 0.466702 -0.428821
3.370080 0.468750 -0.428649
3.369792 0.456562 -0.428582
3.390698 0.453695 -0.428897
3.389804 0.466729 -0.490995
3.369349 0.468777 -0.490822
3.369062 0.456589 -0.490756
3.389967 0.453722 -0.491071
3.370026 0.456669 -0.428586
3.369178 0.429287 -0.428394
3.391097 0.440802 -0.428936
3.390932 0.453802 -0.428901
3.368827 0.456448 -0.490752
3.367979 0.429066 -0.490560
3.389898 0.440581 -0.491102
3.389733 0.453582 -0.491067
3.369302 0.428872 -0.428398
3.368963 0.415176 -0.428578
3.391058 0.414414 -0.429036
3.391220 0.427415 -0.428986
3.367854 0.429435 -0.490556
3.367515 0.415738 -0.490737
3.389610 0.414976 -0.491194
3.389772 0.427978 -0.491144
3.390195 0.479673 -0.428740
3.370244 0.486438 -0.428666
3.369891 0.468715 -0.428647
3.390346 0.466667 -0.428820
3.389842 0.479798 -0.490917
3.369891 0.486562 -0.490843
3.369538 0.468840 -0.490824
3.389992 0.466792 -0.490996
3.832271 0.582275 -0.419822
3.850796 0.586678 -0.416491
3.848006 0.592506 -0.413314
3.829090 0.589869 -0.416325
3.836115 0.611267 -0.474693
3.854640 0.615670 -0.471361
3.851850 0.621498 -0.468185
3.832934 0.618860 -0.471196
3.809503 0.592359 -0.420265
3.809860 0.578643 -0.421597
3.828153 0.580475 -0.417252
3.828000 0.594770 -0.416859
3.821855 0.596332 -0.481073
3.822212 0.582616 -0.482406
3.840506 0.584448 -0.478061
3.840353 0.598744 -0.477667
3.828149 0.596625 -0.416764
3.828303 0.582330 -0.417158
3.846688 0.591148 -0.413113
3.846675 0.601028 -0.413432
3.840240 0.596898 -0.477754
3.840393 0.582602 -0.478148
3.858778 0.591420 -0.474104
3.858765 0.601301 -0.474423
3.845381 0.591241 -0.413402
3.826996 0.582423 -0.417446
3.827097 0.567139 -0.417876
3.845370 0.579362 -0.412977
3.860085 0.591301 -0.473816
3.841700 0.582483 -0.477860
3.841802 0.567199 -0.478290
3.860074 0.579422 -0.473391
3.826520 0.580507 -0.417628
3.808226 0.578674 -0.421973
3.808493 0.562972 -0.423450
3.826621 0.565222 -0.418058
3.842140 0.584387 -0.477687
3.823846 0.582555 -0.482032
3.824113 0.566853 -0.483508
3.842241 0.569102 -0.478117
3.843844 0.580075 -0.413398
3.825571 0.567852 -0.418297
3.825657 0.554428 -0.418218
3.843785 0.565204 -0.412806
3.861600 0.578680 -0.472970
3.843328 0.566457 -0.477869
3.843414 0.553033 -0.477790
3.861541 0.563809 -0.472378
3.825200 0.566631 -0.418406
3.807071 0.564381 -0.423797
3.807296 0.552406 -0.424222
3.825285 0.553207 -0.418327
3.843663 0.567666 -0.477770
3.825535 0.565416 -0.483162
3.825760 0.553442 -0.483587
3.843749 0.554242 -0.477692
3.805954 0.541031 -0.425185
3.805922 0.528962 -0.425636
3.823681 0.529677 -0.418574
3.823830 0.547821 -0.419073
3.827554 0.540811 -0.483490
3.827523 0.528743 -0.483941
3.845281 0.529458 -0.476879
3.845430 0.547602 -0.477378
3.823711 0.549140 -0.419152
3.823563 0.530996 -0.418653
3.841470 0.541685 -0.412106
3.841727 0.565906 -0.413524
3.845584 0.546301 -0.477286
3.845436 0.528157 -0.476788
3.863343 0.538847 -0.470241
3.863599 0.563067 -0.471658
3.840843 0.510988 -0.411008
3.840788 0.541203 -0.412352
3.822881 0.530513 -0.418899
3.822783 0.512790 -0.418665
3.864080 0.509070 -0.468649
3.864025 0.539284 -0.469993
3.846118 0.528594 -0.476540
3.846020 0.510871 -0.476306
3.822583 0.511913 -0.418731
3.822680 0.529636 -0.418965
3.804922 0.528921 -0.426027
3.804517 0.513716 -0.426371
3.846185 0.511745 -0.476255
3.846282 0.529468 -0.476489
3.828523 0.528753 -0.483551
3.828119 0.513548 -0.483895
3.840113 0.510717 -0.411306
3.822053 0.512518 -0.418962
3.821917 0.497788 -0.418862
3.840213 0.493471 -0.410628
3.864810 0.509301 -0.468350
3.846750 0.511103 -0.476007
3.846614 0.496372 -0.475907
3.864910 0.492055 -0.467673
3.821919 0.511629 -0.419013
3.803853 0.513432 -0.426653
3.803487 0.501217 -0.427147
3.821782 0.496898 -0.418913
3.846849 0.511999 -0.475973
3.828782 0.513802 -0.483613
3.828417 0.501587 -0.484107
3.846712 0.497268 -0.475873
3.839704 0.494059 -0.410874
3.821409 0.498375 -0.419109
3.820630 0.483613 -0.419062
3.838466 0.476850 -0.410355
3.865417 0.491435 -0.467425
3.847121 0.495752 -0.475660
3.846342 0.480990 -0.475614
3.864179 0.474226 -0.466906
3.821116 0.497245 -0.419214
3.802821 0.501564 -0.427448
3.802486 0.489250 -0.427845
3.820337 0.482483 -0.419167
3.847377 0.496893 -0.475572
3.829082 0.501212 -0.483807
3.828747 0.488898 -0.484204
3.846599 0.482131 -0.475526
3.826320 0.552487 -0.418046
3.826433 0.546497 -0.418261
3.844448 0.563263 -0.412633
3.842744 0.554953 -0.477964
3.842857 0.548963 -0.478180
3.860872 0.565729 -0.472552
3.806904 0.551667 -0.424369
3.807130 0.539687 -0.424802
3.825006 0.546477 -0.418690
3.824893 0.552467 -0.418474
3.826152 0.554160 -0.483440
3.826378 0.542179 -0.483873
3.844254 0.548970 -0.477761
3.844141 0.554960 -0.477545
3.813046 0.482938 -0.428067
3.828418 0.478180 -0.420299
3.828821 0.484611 -0.427180
3.811298 0.489616 -0.436505
3.820267 0.436331 -0.468586
3.835639 0.431574 -0.460818
3.836042 0.438005 -0.467700
3.818519 0.443010 -0.477024
3.825210 0.474229 -0.417202
3.843033 0.468431 -0.408845
3.843254 0.477656 -0.414761
3.825612 0.480660 -0.424084
3.838881 0.435515 -0.463898
3.856704 0.429718 -0.455540
3.856926 0.438943 -0.461456
3.839284 0.441947 -0.470779
3.836088 0.459734 -0.410391
3.837319 0.476941 -0.410910
3.819309 0.477523 -0.419780
3.818446 0.462738 -0.419714
3.864093 0.456889 -0.465832
3.865324 0.474097 -0.466350
3.847314 0.474678 -0.475221
3.846452 0.459893 -0.475155
3.818299 0.461673 -0.419755
3.819161 0.476458 -0.419821
3.801153 0.477045 -0.428703
3.800776 0.466678 -0.429079
3.846563 0.460963 -0.475133
3.847426 0.475748 -0.475198
3.829418 0.476335 -0.484081
3.829041 0.465968 -0.484457
3.819565 0.475763 -0.419618
3.837575 0.475181 -0.410748
3.819738 0.481944 -0.419456
3.847054 0.476459 -0.475385
3.865064 0.475877 -0.466515
3.847227 0.482641 -0.475223
3.801545 0.476277 -0.428508
3.819553 0.475690 -0.419625
3.819726 0.481872 -0.419463
3.801875 0.488639 -0.428141
3.829028 0.477125 -0.484275
3.847036 0.476538 -0.475393
3.847209 0.482719 -0.475231
3.829357 0.489486 -0.483908
3.006104 0.343037 -0.570210
2.985696 0.342741 -0.570273
2.985592 0.345689 -0.553412
2.996382 0.345180 -0.554049
3.005857 0.281575 -0.560807
2.985449 0.281278 -0.560871
2.985345 0.284227 -0.544009
2.996135 0.283718 -0.544646
2.984709 0.342814 -0.569679
2.964175 0.342862 -0.570359
2.973813 0.344855 -0.552123
2.984605 0.345763 -0.552817
2.986405 0.281205 -0.561465
2.965872 0.281252 -0.562145
2.975510 0.283245 -0.543910
2.986302 0.284153 -0.544604
2.964652 0.342912 -0.570034
2.944097 0.342603 -0.567741
2.963499 0.345214 -0.551153
2.974290 0.344905 -0.551799
2.965363 0.281201 -0.562468
2.944808 0.280891 -0.560175
2.964211 0.283503 -0.543587
2.975002 0.283194 -0.544233
3.009078 0.343240 -0.565716
2.999356 0.345383 -0.549555
2.998462 0.344459 -0.542848
3.007670 0.344581 -0.545401
3.002897 0.281372 -0.565288
2.993176 0.283515 -0.549127
2.992282 0.282591 -0.542420
3.001489 0.282713 -0.544973
3.004542 0.344735 -0.545399
2.995334 0.344613 -0.542846
2.996010 0.344786 -0.536948
3.003586 0.344702 -0.531823
3.004616 0.282559 -0.544951
2.995408 0.282437 -0.542398
2.996084 0.282610 -0.536501
3.003660 0.282526 -0.531375
2.993035 0.346015 -0.574953
2.974064 0.346414 -0.575018
2.985626 0.342323 -0.558684
3.006033 0.342619 -0.558621
2.992921 0.285390 -0.588763
2.973950 0.285789 -0.588827
2.985512 0.281698 -0.572493
3.005920 0.281994 -0.572430
2.974179 0.346175 -0.574044
2.955207 0.346576 -0.574113
2.965207 0.342131 -0.558390
2.985741 0.342084 -0.557710
2.973796 0.286029 -0.589802
2.954824 0.286429 -0.589871
2.964824 0.281984 -0.574148
2.985358 0.281937 -0.573468
2.955533 0.346479 -0.573767
2.936565 0.346883 -0.573823
2.944978 0.341724 -0.555750
2.965533 0.342034 -0.558043
2.954459 0.286526 -0.590217
2.935492 0.286930 -0.590273
2.943904 0.281772 -0.572201
2.964459 0.282082 -0.574493
3.003091 0.464893 -0.552338
2.981963 0.464962 -0.552567
2.979751 0.444576 -0.553269
3.000147 0.445956 -0.553208
3.003448 0.467330 -0.614467
2.982320 0.467399 -0.614696
2.980108 0.447013 -0.615398
3.000504 0.448393 -0.615337
3.000332 0.446053 -0.553204
2.979935 0.444672 -0.553265
2.977781 0.424829 -0.553950
2.997308 0.421123 -0.554104
3.000315 0.448254 -0.615343
2.979918 0.446874 -0.615404
2.977764 0.427031 -0.616089
2.997291 0.423324 -0.616243
2.997411 0.421983 -0.554086
2.977884 0.425690 -0.553932
2.976950 0.405238 -0.554130
2.996657 0.405099 -0.554146
2.997184 0.422423 -0.616262
2.977658 0.426129 -0.616108
2.976723 0.405678 -0.616306
2.996431 0.405538 -0.616322
2.996488 0.405115 -0.554146
2.976781 0.405254 -0.554130
2.975939 0.384832 -0.554302
2.995578 0.384733 -0.554218
2.996598 0.405483 -0.616322
2.976891 0.405623 -0.616306
2.976049 0.385201 -0.616479
2.995688 0.385101 -0.616395
2.995466 0.384855 -0.554218
2.975827 0.384954 -0.554302
2.975193 0.364490 -0.554354
2.994583 0.364413 -0.554230
2.995798 0.384938 -0.616395
2.976159 0.385038 -0.616479
2.975525 0.364574 -0.616530
2.994915 0.364497 -0.616406
2.994577 0.364713 -0.554231
2.975187 0.364789 -0.554355
2.975094 0.344421 -0.554157
2.993781 0.344326 -0.554069
2.994920 0.364157 -0.616405
2.975531 0.364234 -0.616529
2.975437 0.343866 -0.616331
2.994124 0.343771 -0.616243
2.993843 0.344291 -0.554069
2.975156 0.344386 -0.554156
2.975065 0.324021 -0.553963
2.993041 0.323906 -0.553920
2.994061 0.343765 -0.616244
2.975374 0.343860 -0.616332
2.975283 0.323495 -0.616138
2.993259 0.323380 -0.616096
2.981814 0.465182 -0.552560
2.960686 0.465249 -0.552791
2.959135 0.447812 -0.553344
2.979601 0.444795 -0.553262
2.982428 0.467181 -0.614703
2.961301 0.467249 -0.614934
2.959750 0.449811 -0.615486
2.980216 0.446795 -0.615405
2.979813 0.444879 -0.553259
2.959348 0.447896 -0.553340
2.957808 0.425258 -0.553890
2.977659 0.425036 -0.553943
2.980000 0.446670 -0.615410
2.959534 0.449687 -0.615491
2.957995 0.427049 -0.616042
2.977846 0.426827 -0.616095
2.977788 0.425566 -0.553933
2.957937 0.425788 -0.553879
2.957153 0.405144 -0.554135
2.976853 0.405114 -0.554131
2.977715 0.426256 -0.616107
2.957864 0.426478 -0.616053
2.957079 0.405834 -0.616309
2.976780 0.405804 -0.616305
2.976745 0.405117 -0.554131
2.957044 0.405147 -0.554135
2.956268 0.384734 -0.554389
2.975903 0.384695 -0.554303
2.976888 0.405760 -0.616305
2.957187 0.405790 -0.616310
2.956411 0.385376 -0.616563
2.976046 0.385338 -0.616478
2.975793 0.384880 -0.554303
2.956158 0.384919 -0.554388
2.955792 0.364490 -0.554495
2.975159 0.364416 -0.554354
2.976154 0.385112 -0.616479
2.956519 0.385151 -0.616564
2.956153 0.364722 -0.616671
2.975521 0.364648 -0.616530
2.975145 0.364842 -0.554356
2.955777 0.364916 -0.554496
2.956379 0.344566 -0.554257
2.975051 0.344474 -0.554158
2.975535 0.364181 -0.616529
2.956167 0.364254 -0.616669
2.956769 0.343904 -0.616430
2.975442 0.343813 -0.616331
2.975118 0.344451 -0.554157
2.956445 0.344543 -0.554257
2.957047 0.324200 -0.554018
2.975027 0.324086 -0.553964
2.975376 0.343795 -0.616331
2.956703 0.343886 -0.616431
2.957305 0.323544 -0.616192
2.975285 0.323430 -0.616138
2.960723 0.465427 -0.552786
2.939591 0.465499 -0.553032
2.938749 0.448147 -0.553420
2.959173 0.447990 -0.553338
2.961222 0.467072 -0.614940
2.940090 0.467144 -0.615186
2.939248 0.449792 -0.615574
2.959671 0.449635 -0.615492
2.959405 0.448140 -0.553334
2.938982 0.448297 -0.553415
2.938097 0.425135 -0.553826
2.957866 0.425503 -0.553884
2.959436 0.449444 -0.615498
2.939013 0.449601 -0.615579
2.938128 0.426438 -0.615991
2.957897 0.426806 -0.616048
2.957914 0.425684 -0.553880
2.938145 0.425316 -0.553823
2.937434 0.404960 -0.554157
2.957130 0.405041 -0.554137
2.957846 0.426581 -0.616052
2.938077 0.426213 -0.615994
2.937366 0.405857 -0.616328
2.957062 0.405938 -0.616308
2.957006 0.405030 -0.554137
2.937310 0.404949 -0.554157
2.936599 0.384592 -0.554484
2.956231 0.384616 -0.554390
2.957185 0.405908 -0.616308
2.937488 0.405827 -0.616329
2.936777 0.385470 -0.616655
2.956409 0.385494 -0.616562
2.956144 0.384849 -0.554388
2.936513 0.384826 -0.554482
2.936435 0.364490 -0.554620
2.955778 0.364420 -0.554495
2.956494 0.385220 -0.616564
2.936863 0.385196 -0.616658
2.936785 0.364860 -0.616796
2.956128 0.364791 -0.616671
2.955779 0.364969 -0.554497
2.936436 0.365039 -0.554622
2.937722 0.344710 -0.554348
2.956381 0.344619 -0.554258
2.956127 0.364201 -0.616669
2.936785 0.364271 -0.616794
2.938070 0.343942 -0.616520
2.956729 0.343851 -0.616430
2.956446 0.344610 -0.554258
2.937787 0.344702 -0.554347
2.939071 0.324385 -0.554061
2.957048 0.324268 -0.554019
2.956666 0.343819 -0.616430
2.938007 0.343910 -0.616520
2.939291 0.323593 -0.616234
2.957268 0.323476 -0.616192
3.058212 0.347550 -0.573647
3.036141 0.347196 -0.574987
3.039021 0.344934 -0.559196
3.058104 0.345616 -0.557919
3.060295 0.285975 -0.582028
3.038224 0.285621 -0.583368
3.041103 0.283359 -0.567577
3.060187 0.284041 -0.566300
3.059091 0.345839 -0.564292
3.040007 0.345157 -0.565568
3.040913 0.346868 -0.549319
3.058966 0.346400 -0.548514
3.059202 0.283817 -0.559896
3.040119 0.283135 -0.561173
3.041025 0.284845 -0.544923
3.059077 0.284378 -0.544118
3.059802 0.346436 -0.547725
3.041749 0.346904 -0.548530
3.042188 0.347599 -0.532038
3.060871 0.347255 -0.530418
3.058242 0.284343 -0.544873
3.040190 0.284811 -0.545679
3.040629 0.285506 -0.529186
3.059312 0.285163 -0.527566
3.036049 0.347065 -0.574138
3.013975 0.346713 -0.575474
3.020093 0.344108 -0.559674
3.038928 0.344803 -0.558346
3.038275 0.285751 -0.584220
3.016202 0.285399 -0.585557
3.022319 0.282793 -0.569757
3.041155 0.283489 -0.568429
3.038916 0.345072 -0.566338
3.020081 0.344376 -0.567666
3.021794 0.345937 -0.550813
3.039822 0.346783 -0.550089
3.041172 0.283219 -0.560405
3.022337 0.282524 -0.561733
3.024050 0.284084 -0.544880
3.042079 0.284930 -0.544156
3.038693 0.346862 -0.547459
3.020665 0.346016 -0.548183
3.019431 0.345654 -0.530388
3.039132 0.347557 -0.530966
3.043209 0.284852 -0.546752
3.025180 0.284006 -0.547476
3.023946 0.283644 -0.529681
3.043647 0.285547 -0.530259
3.013470 0.346390 -0.573900
2.991398 0.346037 -0.575241
3.004397 0.342642 -0.558908
3.019587 0.343784 -0.558100
3.016668 0.285721 -0.587133
2.994596 0.285368 -0.588474
3.007595 0.281973 -0.572141
3.022785 0.283115 -0.571333
3.018749 0.344349 -0.567091
3.003559 0.343207 -0.567899
3.002151 0.344548 -0.547584
3.020462 0.345909 -0.550238
3.023633 0.282549 -0.562308
3.008442 0.281406 -0.563115
3.007034 0.282747 -0.542800
3.025346 0.284109 -0.545454
3.020867 0.346031 -0.547580
3.002555 0.344669 -0.544926
3.001600 0.344636 -0.531350
3.019633 0.345669 -0.529786
3.024940 0.283989 -0.548078
3.006629 0.282627 -0.545423
3.005673 0.282594 -0.531847
3.023706 0.283627 -0.530283
3.228161 0.477852 -0.466297
3.217664 0.480695 -0.477180
3.223764 0.480558 -0.490223
3.235269 0.480170 -0.478775
3.230595 0.539637 -0.459757
3.220099 0.542480 -0.470641
3.226198 0.542343 -0.483683
3.237703 0.541955 -0.472235
3.236161 0.479977 -0.475691
3.224656 0.480364 -0.487139
3.230722 0.480171 -0.500193
3.243212 0.480172 -0.488189
3.236825 0.542150 -0.475346
3.225320 0.542537 -0.486794
3.231386 0.542344 -0.499848
3.243876 0.542345 -0.487844
3.243826 0.480171 -0.487852
3.231337 0.480170 -0.499856
3.237352 0.479971 -0.512914
3.250885 0.480341 -0.500355
3.243275 0.542345 -0.488206
3.230785 0.542344 -0.500210
3.236801 0.542145 -0.513267
3.250333 0.542515 -0.500709
3.221291 0.480606 -0.474788
3.210573 0.479094 -0.485688
3.215913 0.480870 -0.499266
3.227391 0.480468 -0.487831
3.216450 0.542570 -0.473055
3.205731 0.541059 -0.483955
3.211072 0.542835 -0.497533
3.222550 0.542433 -0.486098
3.223960 0.480381 -0.486557
3.212483 0.480783 -0.497992
3.217564 0.480252 -0.511578
3.230027 0.480188 -0.499612
3.225991 0.542520 -0.487398
3.214513 0.542922 -0.498833
3.219594 0.542391 -0.512419
3.232058 0.542327 -0.500452
3.230656 0.480182 -0.499203
3.218192 0.480246 -0.511170
3.223066 0.479586 -0.524724
3.236671 0.479983 -0.512260
3.231440 0.542332 -0.500888
3.218977 0.542396 -0.512855
3.223850 0.541736 -0.526409
3.237456 0.542133 -0.513945
3.206291 0.479083 -0.486396
3.195812 0.481664 -0.497229
3.199616 0.480712 -0.510804
3.211632 0.480858 -0.499974
3.209990 0.541071 -0.483269
3.199511 0.543653 -0.494102
3.203315 0.542701 -0.507677
3.215331 0.542847 -0.496847
3.213034 0.480805 -0.496891
3.201018 0.480659 -0.507721
3.204676 0.479719 -0.521348
3.218115 0.480274 -0.510477
3.213938 0.542900 -0.499957
3.201922 0.542754 -0.510788
3.205580 0.541814 -0.524415
3.219019 0.542369 -0.513543
3.218672 0.480290 -0.510118
3.205233 0.479736 -0.520989
3.208726 0.478751 -0.534653
3.223545 0.479630 -0.523672
3.218470 0.542351 -0.513929
3.205032 0.541796 -0.524801
3.208525 0.540812 -0.538464
3.223344 0.541691 -0.527483
3.192975 0.482071 -0.492678
3.182577 0.483659 -0.502481
3.184574 0.480955 -0.517164
3.196778 0.481119 -0.506254
3.202327 0.543248 -0.498674
3.191929 0.544837 -0.508476
3.193926 0.542133 -0.523160
3.206130 0.542296 -0.512249
3.200337 0.480723 -0.506954
3.188133 0.480560 -0.517864
3.190403 0.479248 -0.531545
3.203995 0.479784 -0.520581
3.202577 0.542689 -0.511577
3.190373 0.542525 -0.522487
3.192643 0.541213 -0.536168
3.206236 0.541749 -0.525204
3.204705 0.479782 -0.520375
3.191112 0.479246 -0.531339
3.193386 0.477920 -0.545023
3.208198 0.478798 -0.534039
3.205532 0.541748 -0.525437
3.191940 0.541212 -0.536400
3.194213 0.539886 -0.550084
3.209025 0.540764 -0.539100
3.237668 0.487757 -0.485089
3.224136 0.487388 -0.497648
3.222660 0.483200 -0.504640
3.236330 0.483920 -0.492745
3.263555 0.535094 -0.515995
3.250023 0.534725 -0.528553
3.248547 0.530537 -0.535546
3.262216 0.531257 -0.523651
3.222581 0.489662 -0.495821
3.208975 0.489264 -0.508285
3.207391 0.484774 -0.514592
3.221105 0.485474 -0.502814
3.251550 0.532450 -0.530404
3.237945 0.532053 -0.542868
3.236360 0.527563 -0.549175
3.250074 0.528262 -0.537397
3.211140 0.487950 -0.508284
3.196321 0.487071 -0.519265
3.195542 0.482838 -0.526085
3.209555 0.483460 -0.514591
3.235752 0.533366 -0.542892
3.220934 0.532487 -0.553873
3.220155 0.528253 -0.560694
3.234168 0.528876 -0.549199
3.198135 0.484711 -0.521468
3.183323 0.483833 -0.532452
3.183339 0.479857 -0.539779
3.197356 0.480478 -0.528289
3.219091 0.534845 -0.551692
3.204279 0.533967 -0.562676
3.204295 0.529991 -0.570003
3.218312 0.530612 -0.558513
3.182303 0.403645 -0.540348
3.168143 0.396469 -0.549944
