1.746118 0.626631 -0.841940
1.741240 0.626153 -0.809794
1.772585 0.625527 -0.808042
1.779312 0.626105 -0.830089
1.745882 0.608655 -0.842341
1.741004 0.608177 -0.810195
1.772349 0.607551 -0.808443
1.779075 0.608129 -0.830491
1.779287 0.626107 -0.830221
1.772560 0.625529 -0.808174
1.803929 0.625773 -0.808060
1.797903 0.625465 -0.824709
1.779158 0.608126 -0.830349
1.772431 0.607548 -0.808301
1.803800 0.607792 -0.808188
1.797775 0.607484 -0.824837
1.872434 0.816043 -0.797897
1.894998 0.801479 -0.797595
1.913637 0.811383 -0.799036
1.871783 0.814662 -0.815814
1.894347 0.800098 -0.815512
1.912986 0.810001 -0.816953
1.910904 1.023482 -0.797522
1.871262 1.024909 -0.800994
1.888081 1.008935 -0.800850
1.912522 1.025025 -0.815364
1.872880 1.026452 -0.818836
1.889699 1.010478 -0.818692
1.740097 0.659269 -0.831468
1.743583 0.617577 -0.833495
1.776776 0.617051 -0.821645
1.780395 0.662022 -0.822756
1.744937 0.659445 -0.848785
1.748423 0.617753 -0.850813
1.781616 0.617227 -0.838962
1.785235 0.662198 -0.840074
1.780896 0.662169 -0.822631
1.780605 0.694258 -0.822683
1.741561 0.691455 -0.831297
1.740598 0.659416 -0.831342
1.784735 0.662127 -0.840199
1.784444 0.694216 -0.840251
1.745400 0.691413 -0.848865
1.744437 0.659374 -0.848910
1.780571 0.694294 -0.822691
1.779968 0.726069 -0.822843
1.742042 0.723846 -0.831353
1.741527 0.691491 -0.831305
1.784479 0.694244 -0.840243
1.783876 0.726019 -0.840395
1.745950 0.723797 -0.848905
1.745435 0.691441 -0.848857
1.780056 0.726109 -0.822824
1.780393 0.757050 -0.823339
1.741491 0.757071 -0.831124
1.742130 0.723887 -0.831334
1.783788 0.726043 -0.840414
1.784125 0.756984 -0.840930
1.745223 0.757005 -0.848714
1.745863 0.723821 -0.848924
1.780511 0.757079 -0.823315
1.781154 0.788956 -0.823370
1.741402 0.789343 -0.831176
1.741609 0.757100 -0.831099
1.784007 0.757019 -0.840954
1.784650 0.788896 -0.841009
1.744898 0.789283 -0.848815
1.745105 0.757040 -0.848738
1.790280 0.645621 -0.819599
1.780708 0.662500 -0.822682
1.777090 0.617529 -0.821571
1.794538 0.644846 -0.837052
1.784966 0.661726 -0.840136
1.781348 0.616754 -0.839024
1.799450 0.641293 -0.817154
1.790052 0.645841 -0.819670
1.776862 0.617749 -0.821642
1.795479 0.617107 -0.816130
1.804179 0.640054 -0.834459
1.794782 0.644602 -0.836975
1.781591 0.616510 -0.838947
1.800208 0.615868 -0.833435
1.873987 0.638256 -0.797362
1.849326 0.638131 -0.802718
1.847222 0.614839 -0.803623
1.873495 0.613546 -0.798440
1.877640 0.638785 -0.814961
1.852980 0.638661 -0.820317
1.850876 0.615368 -0.821222
1.877149 0.614075 -0.816039
1.848832 0.638440 -0.802830
1.824013 0.638994 -0.809852
1.821304 0.616685 -0.809992
1.846728 0.615147 -0.803735
1.853423 0.638354 -0.820216
1.828604 0.638908 -0.827238
1.825895 0.616599 -0.827378
1.851319 0.615062 -0.821121
1.823991 0.639446 -0.809872
1.799542 0.641166 -0.817121
1.795571 0.616980 -0.816097
1.821282 0.617138 -0.810012
1.828575 0.638458 -0.827231
1.804126 0.640177 -0.834481
1.800155 0.615992 -0.833457
1.825866 0.616149 -0.827372
1.917481 0.808692 -0.805508
1.917128 0.786818 -0.805491
1.932767 0.784960 -0.807276
1.932717 0.808013 -0.806352
1.915986 0.809063 -0.823424
1.915633 0.787190 -0.823407
1.931272 0.785332 -0.825192
1.931222 0.808384 -0.824268
1.921234 0.786808 -0.803897
1.924390 0.786927 -0.810379
1.924743 0.808801 -0.810397
1.921352 0.810603 -0.803933
1.905196 0.786964 -0.812028
1.908352 0.787083 -0.818510
1.908705 0.808957 -0.818528
1.905314 0.810759 -0.812064
1.895300 0.800691 -0.797584
1.897965 0.787580 -0.798145
1.913822 0.786799 -0.798989
1.913939 0.810595 -0.799025
1.894067 0.800861 -0.815523
1.896732 0.787750 -0.816084
1.912588 0.786969 -0.816928
1.912706 0.810765 -0.816964
1.890719 0.645332 -0.798135
1.876443 0.638204 -0.797195
1.875952 0.613494 -0.798272
1.920385 0.613430 -0.801026
1.889514 0.645968 -0.816065
1.875239 0.638840 -0.815125
1.874747 0.614130 -0.816203
1.919181 0.614066 -0.818956
1.918412 0.667533 -0.806679
1.921037 0.639841 -0.806089
1.932230 0.641626 -0.807371
1.932286 0.668905 -0.807776
1.916764 0.667132 -0.824581
1.919388 0.639440 -0.823991
1.930582 0.641225 -0.825273
1.930638 0.668504 -0.825678
1.921391 0.639818 -0.806129
1.923996 0.612160 -0.805596
1.932520 0.614291 -0.807011
1.932585 0.641603 -0.807411
1.919036 0.639407 -0.823951
1.921641 0.611749 -0.823419
1.930165 0.613880 -0.824833
1.930230 0.641192 -0.825233
1.927512 0.614522 -0.805417
1.930511 0.612729 -0.809925
1.927906 0.640388 -0.810458
1.924620 0.642187 -0.805007
1.912114 0.612972 -0.814574
1.915113 0.611179 -0.819083
1.912508 0.638838 -0.819616
1.909222 0.640637 -0.814164
1.924801 0.642231 -0.805334
1.928088 0.640431 -0.810786
1.925463 0.668123 -0.811375
1.921935 0.669860 -0.804849
1.909035 0.640650 -0.813836
1.912321 0.638850 -0.819288
1.909697 0.666542 -0.819877
1.906169 0.668279 -0.813351
1.898916 0.668269 -0.798619
1.894954 0.656919 -0.798364
1.917753 0.641368 -0.800631
1.914887 0.668997 -0.800145
1.897223 0.668423 -0.816520
1.893261 0.657073 -0.816265
1.916061 0.641521 -0.818532
1.913194 0.669151 -0.818047
1.894925 0.656909 -0.798361
1.890950 0.645594 -0.798148
1.920617 0.613692 -0.801038
1.917725 0.641357 -0.800628
1.893288 0.657044 -0.816268
1.889313 0.645730 -0.816054
1.918979 0.613828 -0.818945
1.916088 0.641493 -0.818535
1.917306 0.786906 -0.805506
1.917257 0.757006 -0.805891
1.932436 0.755993 -0.807322
1.932946 0.785048 -0.807291
1.915454 0.787050 -0.823392
1.915404 0.757149 -0.823777
1.930583 0.756136 -0.825207
1.931093 0.785192 -0.825177
1.917085 0.756964 -0.805875
1.917102 0.727108 -0.806301
1.931831 0.726848 -0.807401
1.932264 0.755951 -0.807306
1.915576 0.757132 -0.823793
1.915593 0.727277 -0.824218
1.930322 0.727016 -0.825319
1.930755 0.756119 -0.825224
1.917054 0.727111 -0.806297
1.917681 0.697214 -0.806458
1.931975 0.697789 -0.807643
1.931783 0.726850 -0.807397
1.915641 0.727215 -0.824223
1.916268 0.697318 -0.824384
1.930562 0.697894 -0.825569
1.930371 0.726955 -0.825323
1.917704 0.697197 -0.806460
1.918316 0.667321 -0.806669
1.932190 0.668692 -0.807766
1.931998 0.697772 -0.807645
1.916246 0.697277 -0.824382
1.916858 0.667401 -0.824591
1.930732 0.668773 -0.825689
1.930540 0.697852 -0.825568
1.922101 0.669163 -0.805096
1.925628 0.667426 -0.811622
1.925016 0.697302 -0.811413
1.922193 0.698596 -0.805220
1.906001 0.669033 -0.813104
1.909528 0.667297 -0.819630
1.908916 0.697172 -0.819421
1.906093 0.698466 -0.813228
1.922483 0.698628 -0.805866
1.925306 0.697334 -0.812059
1.924679 0.727231 -0.811898
1.922589 0.728042 -0.805929
1.905802 0.698493 -0.812582
1.908626 0.697199 -0.818775
1.907999 0.727096 -0.818614
1.905909 0.727907 -0.812644
1.922642 0.728020 -0.806064
1.924733 0.727209 -0.812033
1.924716 0.757065 -0.811608
1.922151 0.757441 -0.805459
1.905855 0.727988 -0.812509
1.907945 0.727177 -0.818478
1.907928 0.757033 -0.818053
1.905364 0.757409 -0.811904
1.921947 0.757453 -0.804972
1.924512 0.757077 -0.811121
1.924561 0.786978 -0.810736
1.921405 0.786858 -0.804253
1.905567 0.757455 -0.812390
1.908131 0.757079 -0.818539
1.908181 0.786980 -0.818154
1.905025 0.786860 -0.811672
1.898024 0.787543 -0.798150
1.898195 0.757748 -0.798130
1.914422 0.757357 -0.799712
1.913880 0.786762 -0.798994
1.896675 0.787739 -0.816080
1.896846 0.757944 -0.816061
1.913073 0.757552 -0.817642
1.912531 0.786957 -0.816924
1.898569 0.757749 -0.798166
1.898728 0.727939 -0.798084
1.915287 0.727937 -0.800353
1.914796 0.757358 -0.799748
1.896473 0.757884 -0.816025
1.896633 0.728073 -0.815943
1.913191 0.728072 -0.818212
1.912700 0.757492 -0.817607
1.898783 0.727924 -0.798091
1.898966 0.698127 -0.798514
1.915235 0.698508 -0.800297
1.915341 0.727922 -0.800359
1.896579 0.728029 -0.815937
1.896762 0.698233 -0.816360
1.913031 0.698614 -0.818143
1.913138 0.728028 -0.818205
1.898782 0.698151 -0.798493
1.898988 0.668371 -0.798625
1.914959 0.669099 -0.800152
1.915051 0.698532 -0.800276
1.896946 0.698150 -0.816381
1.897151 0.668370 -0.816513
1.913123 0.669098 -0.818040
1.913215 0.698531 -0.818164
1.742314 0.816516 -0.830365
1.741435 0.789166 -0.831171
1.781187 0.788779 -0.823365
1.782322 0.817762 -0.822649
1.745744 0.816870 -0.848013
1.744866 0.789520 -0.848819
1.784618 0.789133 -0.841013
1.785752 0.818116 -0.840297
1.741663 0.850560 -0.830943
1.742332 0.816855 -0.830361
1.782340 0.818101 -0.822645
1.775294 0.850844 -0.824535
1.745054 0.850297 -0.848600
1.745723 0.816592 -0.848018
1.785732 0.817838 -0.840302
1.778686 0.850581 -0.842192
1.774549 0.850772 -0.824712
1.781595 0.818029 -0.822822
1.806522 0.816053 -0.815321
1.807651 0.850479 -0.815589
1.779497 0.850652 -0.842000
1.786543 0.817909 -0.840110
1.811470 0.815934 -0.832608
1.812599 0.850359 -0.832877
1.802156 0.866867 -0.822051
1.772176 0.866822 -0.825405
1.775308 0.852328 -0.824676
1.808410 0.852035 -0.815553
1.805578 0.863683 -0.839415
1.775598 0.863638 -0.842769
1.778730 0.849144 -0.842040
1.811832 0.848852 -0.832917
1.772214 0.865221 -0.825254
1.742400 0.865295 -0.830628
1.741714 0.850444 -0.830932
1.775346 0.850727 -0.824525
1.775497 0.865239 -0.842933
1.745683 0.865313 -0.848307
1.744997 0.850462 -0.848612
1.778629 0.850745 -0.842204
1.807623 0.850564 -0.815598
1.806494 0.816138 -0.815330
1.837973 0.815725 -0.806101
1.840585 0.850228 -0.805899
1.812687 0.850273 -0.832850
1.811558 0.815847 -0.832581
1.843037 0.815433 -0.823353
1.845649 0.849936 -0.823151
1.840927 0.850152 -0.805804
1.838315 0.815649 -0.806006
1.869851 0.815446 -0.798147
1.872891 0.849693 -0.797463
1.845371 0.850012 -0.823228
1.842759 0.815508 -0.823430
1.874295 0.815306 -0.815571
1.877335 0.849552 -0.814886
1.916751 0.848024 -0.804895
1.917092 0.808727 -0.805484
1.932328 0.808047 -0.806327
1.931938 0.848537 -0.805270
1.916034 0.848388 -0.822859
1.916375 0.809091 -0.823448
1.931611 0.808411 -0.824291
1.931221 0.848901 -0.823234
1.916632 0.848081 -0.804890
1.931818 0.848594 -0.805265
1.932114 0.875476 -0.804819
1.916575 0.874558 -0.804400
1.916153 0.848398 -0.822863
1.931340 0.848911 -0.823237
1.931636 0.875793 -0.822792
1.916096 0.874875 -0.822373
1.921263 0.810731 -0.803762
1.924655 0.808928 -0.810225
1.924313 0.848226 -0.809637
1.920687 0.848761 -0.802976
1.905403 0.810693 -0.812235
1.908794 0.808891 -0.818699
1.908453 0.848188 -0.818110
1.904827 0.848724 -0.811449
1.875384 0.849430 -0.797185
1.872344 0.815184 -0.797870
1.913546 0.810523 -0.799009
1.912971 0.848554 -0.798223
1.874914 0.849812 -0.815157
1.871874 0.815565 -0.815842
1.913077 0.810905 -0.816980
1.912501 0.848935 -0.816195
1.912980 0.848590 -0.798223
1.892427 0.861094 -0.797418
1.875393 0.849466 -0.797185
1.912492 0.848944 -0.816195
1.891939 0.861448 -0.815390
1.874905 0.849820 -0.815156
1.896942 0.874461 -0.797789
1.892508 0.861327 -0.797419
1.913061 0.848823 -0.798223
1.913121 0.874370 -0.798206
1.896313 0.874370 -0.815759
1.891879 0.861237 -0.815390
1.912432 0.848733 -0.816194
1.912492 0.874279 -0.816177
1.915338 1.000348 -0.803335
1.915872 0.968971 -0.804086
1.932091 0.968167 -0.804748
1.931950 0.999059 -0.804536
1.914336 1.000614 -0.821287
1.914870 0.969237 -0.822038
1.931089 0.968433 -0.822700
1.930948 0.999326 -0.822488
1.915604 0.968974 -0.804075
1.916164 0.937527 -0.804667
1.931996 0.937345 -0.804846
1.931823 0.968170 -0.804737
1.915138 0.969171 -0.822050
1.915699 0.937724 -0.822642
1.931531 0.937542 -0.822821
1.931358 0.968367 -0.822712
1.916037 0.937626 -0.804665
1.916278 0.906205 -0.804550
1.931943 0.906584 -0.804742
1.931869 0.937444 -0.804844
1.915826 0.937562 -0.822645
1.916067 0.906141 -0.822531
1.931732 0.906520 -0.822722
1.931658 0.937381 -0.822824
1.916348 0.906154 -0.804551
1.916511 0.874757 -0.804397
1.932050 0.875676 -0.804816
1.932013 0.906533 -0.804743
1.915997 0.906130 -0.822529
1.916160 0.874733 -0.822376
1.931700 0.875652 -0.822795
1.931663 0.906509 -0.822721
1.920617 0.874422 -0.802722
1.924125 0.874816 -0.808910
1.923962 0.906213 -0.809064
1.920224 0.906192 -0.802610
1.905019 0.874279 -0.811668
1.908527 0.874673 -0.817856
1.908364 0.906070 -0.818010
1.904626 0.906049 -0.811556
1.920189 0.906235 -0.802550
1.923927 0.906257 -0.809004
1.923686 0.937677 -0.809119
1.919830 0.937968 -0.802570
1.904661 0.906069 -0.811616
1.908399 0.906090 -0.818070
1.908158 0.937511 -0.818185
1.904302 0.937801 -0.811636
1.919957 0.937905 -0.802794
1.923813 0.937615 -0.809343
1.923253 0.969062 -0.808751
1.920126 0.969606 -0.802507
1.904174 0.937927 -0.811411
1.908030 0.937637 -0.817960
1.907470 0.969084 -0.817367
1.904343 0.969628 -0.811123
1.920417 0.969624 -0.803087
1.923543 0.969081 -0.809332
1.923009 1.000458 -0.808581
1.920635 1.001309 -0.802740
1.904052 0.969672 -0.810541
1.907179 0.969129 -0.816785
1.906645 1.000506 -0.816034
1.904271 1.001357 -0.810193
1.890999 1.002088 -0.800569
1.892983 0.970271 -0.799709
1.911101 0.969690 -0.797892
1.911320 1.001374 -0.797544
1.893244 1.002007 -0.818410
1.895228 0.970189 -0.817550
1.913346 0.969608 -0.815733
1.913565 1.001293 -0.815385
1.893569 0.970325 -0.799655
1.895565 0.938448 -0.798364
1.911518 0.938043 -0.798126
1.911687 0.969743 -0.797838
1.894644 0.970072 -0.817603
1.896641 0.938195 -0.816312
1.912593 0.937790 -0.816074
1.912762 0.969491 -0.815786
1.896066 0.938343 -0.798347
1.896400 0.906415 -0.797990
1.912377 0.906205 -0.798089
1.912018 0.937937 -0.798109
1.896142 0.938237 -0.816328
1.896476 0.906310 -0.815971
1.912453 0.906100 -0.816071
1.912094 0.937832 -0.816090
1.896583 0.906345 -0.797991
1.896773 0.874455 -0.797784
1.912953 0.874365 -0.798202
1.912560 0.906135 -0.798090
1.896294 0.906316 -0.815970
1.896484 0.874426 -0.815764
1.912663 0.874336 -0.816182
1.912271 0.906106 -0.816070
1.910442 1.024153 -0.797544
1.887619 1.009606 -0.800872
1.890838 1.001981 -0.800591
1.911159 1.001267 -0.797566
1.913005 1.024333 -0.815341
1.890182 1.009786 -0.818669
1.893401 1.002161 -0.818389
1.913722 1.001447 -0.815364
1.742558 1.028534 -0.828488
1.741571 1.016908 -0.829344
1.771665 1.014443 -0.823992
1.770518 1.030276 -0.823217
1.745802 1.029601 -0.846143
1.744815 1.017975 -0.846999
1.774909 1.015511 -0.841646
1.773762 1.031343 -0.840872
1.770524 1.029015 -0.823384
1.771671 1.013182 -0.824158
1.802211 1.012244 -0.820831
1.805008 1.027965 -0.814752
1.773818 1.032603 -0.840694
1.774964 1.016770 -0.841468
1.805505 1.015832 -0.838141
1.808302 1.031553 -0.832062
1.741679 1.017303 -0.829310
1.741572 0.986923 -0.829482
1.772116 0.984695 -0.824539
1.771773 1.014839 -0.823958
1.744707 1.017536 -0.847034
1.744599 0.987156 -0.847206
1.775143 0.984928 -0.842263
1.774801 1.015071 -0.841681
1.741663 0.986892 -0.829468
1.741626 0.956476 -0.829799
1.772435 0.954554 -0.824963
1.772207 0.984664 -0.824525
1.744509 0.987127 -0.847221
1.744471 0.956711 -0.847553
1.775281 0.954789 -0.842717
1.775052 0.984899 -0.842279
1.741681 0.956503 -0.829790
1.741703 0.926138 -0.829883
1.772681 0.924729 -0.825232
1.772490 0.954582 -0.824954
1.744416 0.956623 -0.847563
1.744439 0.926257 -0.847656
1.775416 0.924848 -0.843004
1.775226 0.954701 -0.842726
1.741613 0.926122 -0.829898
1.742153 0.895737 -0.830397
1.772423 0.894962 -0.824993
1.772590 0.924713 -0.825247
1.744529 0.926212 -0.847642
1.745069 0.895828 -0.848141
1.775339 0.895052 -0.842736
1.775507 0.924803 -0.842990
1.742023 0.895679 -0.830420
1.742452 0.865252 -0.830618
1.772266 0.865179 -0.825244
1.772292 0.894904 -0.825015
1.745200 0.895826 -0.848119
1.745630 0.865399 -0.848317
1.775443 0.865326 -0.842943
1.775470 0.895051 -0.842714
1.772445 1.014658 -0.823872
1.772788 0.984515 -0.824453
1.802930 0.984046 -0.821910
1.802986 1.013720 -0.820544
1.774190 1.015249 -0.841759
1.774532 0.985105 -0.842341
1.804675 0.984636 -0.839798
1.804730 1.014310 -0.838432
1.772888 0.984658 -0.824441
1.773116 0.954548 -0.824879
1.803013 0.954451 -0.822257
1.803031 0.984189 -0.821898
1.774432 0.984902 -0.842355
1.774660 0.954792 -0.842793
1.804556 0.954695 -0.840171
1.804574 0.984433 -0.839811
1.773031 0.954624 -0.824886
1.773222 0.924771 -0.825164
1.802821 0.924802 -0.822090
1.802927 0.954526 -0.822265
1.774745 0.954657 -0.842786
1.774936 0.924804 -0.843064
1.804535 0.924836 -0.839990
1.804641 0.954560 -0.840165
1.773193 0.924796 -0.825167
1.773025 0.895045 -0.824913
1.802951 0.895117 -0.822093
1.802792 0.924827 -0.822093
1.774965 0.924719 -0.843062
1.774797 0.894968 -0.842808
1.804723 0.895041 -0.839987
1.804564 0.924751 -0.839987
1.772989 0.894988 -0.824917
1.772963 0.865264 -0.825146
1.802943 0.865308 -0.821791
1.802915 0.895061 -0.822096
1.774833 0.894965 -0.842804
1.774807 0.865241 -0.843033
1.804786 0.865285 -0.839678
1.804759 0.895038 -0.839984
1.915257 1.000524 -0.803330
1.931870 0.999235 -0.804531
1.931379 1.022627 -0.804124
1.915536 1.022570 -0.803808
1.914416 1.000492 -0.821292
1.931028 0.999204 -0.822493
1.930538 1.022595 -0.822086
1.914695 1.022538 -0.821770
1.919876 1.024364 -0.802630
1.920594 1.001478 -0.802652
1.922968 1.000627 -0.808493
1.923247 1.022673 -0.808971
1.903594 1.024128 -0.810258
1.904312 1.001242 -0.810280
1.906686 1.000391 -0.816122
1.906965 1.022437 -0.816599
1.915244 1.023025 -0.803810
1.931087 1.023082 -0.804127
1.929979 1.056726 -0.805686
1.913124 1.055858 -0.805484
1.914985 1.022139 -0.821769
1.930828 1.022196 -0.822085
1.929720 1.055840 -0.823644
1.912865 1.054972 -0.823442
1.913218 1.056113 -0.805501
1.930073 1.056981 -0.805704
1.921657 1.089475 -0.808191
1.907737 1.088511 -0.807477
1.912763 1.054783 -0.823428
1.929618 1.055651 -0.823631
1.921202 1.088145 -0.826118
1.907282 1.087181 -0.825404
1.912315 1.089908 -0.807695
1.918768 1.058376 -0.804827
1.920981 1.057222 -0.810761
1.915500 1.089620 -0.812736
1.896316 1.086361 -0.815098
1.902769 1.054829 -0.812230
1.904982 1.053674 -0.818163
1.899501 1.086072 -0.820139
1.918990 1.057166 -0.804927
1.919952 1.024870 -0.802845
1.923322 1.023179 -0.809187
1.921202 1.056012 -0.810860
1.902555 1.055974 -0.812126
1.903517 1.023677 -0.810045
1.906888 1.021986 -0.816386
1.904768 1.054819 -0.818059
1.904455 1.088810 -0.802429
1.877495 1.089530 -0.801413
1.882630 1.056673 -0.799630
1.910908 1.057278 -0.799561
1.904145 1.087460 -0.820358
1.877185 1.088179 -0.819341
1.882320 1.055323 -0.817559
1.910598 1.055927 -0.817490
1.910288 1.056750 -0.799547
1.882010 1.056146 -0.799616
1.871608 1.025881 -0.800938
1.911250 1.024454 -0.797466
1.911220 1.056392 -0.817502
1.882942 1.055787 -0.817570
1.872540 1.025522 -0.818892
1.912182 1.024095 -0.815420
1.877912 1.089001 -0.801406
1.851079 1.089733 -0.798034
1.854758 1.055581 -0.799314
1.883047 1.056144 -0.799623
1.876713 1.088709 -0.819346
1.849879 1.089441 -0.815973
1.853558 1.055289 -0.817253
1.881848 1.055852 -0.817563
1.882172 1.055309 -0.799632
1.853883 1.054745 -0.799322
1.854651 1.025671 -0.802652
1.871771 1.025043 -0.800953
1.882723 1.056625 -0.817557
1.854433 1.056062 -0.817247
1.855201 1.026987 -0.820578
1.872321 1.026360 -0.818879
1.850419 1.089160 -0.798022
1.823322 1.089190 -0.797791
1.826659 1.054886 -0.799736
1.854098 1.055009 -0.799302
1.850485 1.090013 -0.815983
1.823388 1.090043 -0.815753
1.826724 1.055739 -0.817697
1.854163 1.055862 -0.817263
1.852996 1.053427 -0.799589
1.825558 1.053304 -0.800023
1.825852 1.026197 -0.809326
1.853764 1.024352 -0.802920
1.855269 1.057381 -0.816983
1.827830 1.057258 -0.817417
1.828125 1.030151 -0.826720
1.856037 1.028306 -0.820314
1.822809 1.088824 -0.797832
1.796146 1.089048 -0.798457
1.798300 1.054549 -0.802294
1.826145 1.054520 -0.799776
1.823847 1.090409 -0.815714
1.797184 1.090634 -0.816339
1.799338 1.056134 -0.820176
1.827183 1.056105 -0.817658
1.825215 1.051741 -0.800588
1.797369 1.051771 -0.803106
1.805228 1.026238 -0.815257
1.825510 1.024634 -0.809890
1.828121 1.058823 -0.816860
1.800275 1.058852 -0.819377
1.808134 1.033320 -0.831528
1.828415 1.031715 -0.826162
1.796073 1.088260 -0.798567
1.769866 1.085066 -0.798617
1.771018 1.053325 -0.806420
1.798227 1.053760 -0.802404
1.797203 1.091420 -0.816232
1.770997 1.088226 -0.816283
1.772149 1.056485 -0.824086
1.799357 1.056921 -0.820070
1.797206 1.050653 -0.803723
1.769998 1.050217 -0.807739
1.770580 1.026170 -0.824506
1.805064 1.025121 -0.815874
1.800384 1.059971 -0.818771
1.773175 1.059535 -0.822787
1.773758 1.035488 -0.839554
1.808242 1.034438 -0.830922
1.770631 1.083438 -0.799055
1.746125 1.072302 -0.798305
1.745102 1.048399 -0.811736
1.771783 1.051697 -0.806858
1.770179 1.089845 -0.815850
1.745673 1.078710 -0.815101
1.744650 1.054807 -0.828531
1.771331 1.058104 -0.823653
1.770700 1.049604 -0.808036
1.744019 1.046306 -0.812914
1.743323 1.023815 -0.830073
1.771283 1.025557 -0.824802
1.772415 1.060146 -0.822502
1.745734 1.056848 -0.827381
1.745038 1.034357 -0.844540
1.772998 1.036099 -0.839269
1.924243 0.848196 -0.809508
1.924187 0.874673 -0.809019
1.920678 0.874278 -0.802830
1.920617 0.848732 -0.802848
1.908523 0.848282 -0.818238
1.908466 0.874759 -0.817748
1.904958 0.874365 -0.811560
1.904897 0.848818 -0.811577
