2.968793 1.050276 -0.399579
2.975685 1.057620 -0.395699
2.992894 1.050773 -0.394893
2.978140 1.065485 -0.445151
2.959025 1.073810 -0.446763
2.967942 1.079911 -0.442685
2.985032 1.072829 -0.441271
2.967970 1.050520 -0.399667
2.948855 1.058844 -0.401279
2.957772 1.064945 -0.397201
2.974861 1.057863 -0.395787
2.957988 1.075795 -0.446226
2.938611 1.083657 -0.446579
2.949575 1.088509 -0.442350
2.966905 1.081896 -0.442148
2.949856 1.056874 -0.401818
2.930479 1.064736 -0.402171
2.941443 1.069588 -0.397942
2.958773 1.062975 -0.397740
3.001227 1.066391 -0.440530
2.984017 1.073238 -0.441336
2.990909 1.080581 -0.437452
3.006081 1.074979 -0.436820
2.993134 1.050608 -0.394906
2.975924 1.057455 -0.395712
2.982815 1.064797 -0.391827
2.997988 1.059196 -0.391196
2.984799 1.074067 -0.440878
2.967709 1.081149 -0.442292
2.976517 1.087011 -0.437627
2.991690 1.081409 -0.436993
2.975110 1.056638 -0.396172
2.958021 1.063720 -0.397586
2.966828 1.069582 -0.392921
2.982001 1.063981 -0.392288
2.967210 1.082552 -0.441798
2.949880 1.089165 -0.442000
2.960845 1.094015 -0.437766
2.976017 1.088414 -0.437133
2.958488 1.062330 -0.398081
2.941158 1.068942 -0.398283
2.952123 1.073793 -0.394049
2.967296 1.068191 -0.393416
3.061643 1.081654 -0.475179
3.041250 1.076555 -0.463838
3.046610 1.089573 -0.463412
3.066060 1.096279 -0.474051
3.087171 1.070365 -0.434965
3.066778 1.065267 -0.423625
3.072138 1.078285 -0.423199
3.091587 1.084990 -0.433837
3.015439 1.081409 -0.447277
3.011889 1.072095 -0.448941
2.989684 1.075283 -0.433477
3.040193 1.065023 -0.408355
3.036643 1.055709 -0.410018
3.014438 1.058896 -0.394554
3.011886 1.072085 -0.448943
3.008337 1.062770 -0.450605
2.989681 1.075272 -0.433479
3.036642 1.055706 -0.410018
3.033093 1.046391 -0.411681
3.014437 1.058894 -0.394555
3.062916 1.083332 -0.475403
3.058501 1.068706 -0.476528
3.035300 1.064389 -0.466637
3.042523 1.078233 -0.464063
3.085887 1.068659 -0.434743
3.081472 1.054033 -0.435868
3.058271 1.049717 -0.425977
3.065494 1.063561 -0.423403
3.036628 1.061785 -0.468067
3.059828 1.066101 -0.477958
3.055412 1.051476 -0.479084
3.056943 1.052298 -0.424553
3.080144 1.056615 -0.434443
3.075727 1.041990 -0.435570
3.038861 1.070805 -0.464932
3.057646 1.060496 -0.475949
3.052649 1.051006 -0.485437
3.031638 1.056961 -0.467506
3.054694 1.043261 -0.427691
3.073478 1.032952 -0.438708
3.068482 1.023462 -0.448196
3.047471 1.029417 -0.430266
3.115407 1.047407 -0.478164
3.119890 1.028846 -0.478198
3.111480 1.026570 -0.487599
3.110312 1.041707 -0.486586
3.078412 1.040231 -0.446921
3.082895 1.021671 -0.446956
3.074485 1.019394 -0.456357
3.073317 1.034531 -0.455344
3.118916 1.029601 -0.479103
3.123582 1.010278 -0.479140
3.115879 1.009197 -0.487706
3.110506 1.027325 -0.488504
3.083877 1.020880 -0.446051
3.088543 1.001557 -0.446088
3.080840 1.000477 -0.454654
3.075467 1.018604 -0.455452
3.014021 1.090306 -0.338389
3.011183 1.090318 -0.360169
2.992657 1.094797 -0.356517
3.001834 1.091833 -0.335227
3.004487 1.042297 -0.339047
3.001650 1.042309 -0.360827
2.983124 1.046788 -0.357175
2.992300 1.043823 -0.335885
3.012680 1.089972 -0.360812
3.009842 1.089980 -0.382593
2.989346 1.095941 -0.378157
2.994154 1.094451 -0.357159
3.000143 1.042657 -0.360227
2.997304 1.042665 -0.382008
2.976808 1.048626 -0.377572
2.981617 1.047136 -0.356575
3.010860 1.089679 -0.381653
3.010092 1.090062 -0.397482
2.991625 1.096078 -0.395534
2.990363 1.095640 -0.377216
2.996283 1.042967 -0.382987
2.995515 1.043351 -0.398817
2.977048 1.049366 -0.396868
2.975787 1.048928 -0.378551
3.010814 1.089825 -0.397515
3.010046 1.090210 -0.413346
2.994874 1.095812 -0.413978
2.992346 1.095841 -0.395566
2.994795 1.043588 -0.398818
2.994028 1.043972 -0.414649
2.978855 1.049574 -0.415281
2.976327 1.049604 -0.396869
2.997679 1.093216 -0.357422
2.992870 1.094706 -0.378420
2.980210 1.100338 -0.378450
2.981389 1.100236 -0.358047
2.978059 1.048383 -0.356308
2.973250 1.049872 -0.377306
2.960591 1.055504 -0.377335
2.961770 1.055403 -0.356932
2.992451 1.094879 -0.377149
2.993712 1.095318 -0.395466
2.980844 1.100313 -0.395847
2.979792 1.100511 -0.377178
2.973667 1.049700 -0.378616
2.974928 1.050138 -0.396933
2.962059 1.055133 -0.397315
2.961007 1.055332 -0.378646
2.992935 1.095617 -0.395241
2.995463 1.095587 -0.413652
2.980290 1.101188 -0.414286
2.980067 1.100612 -0.395623
2.975708 1.049839 -0.397194
2.978235 1.049810 -0.415606
2.963062 1.055411 -0.416239
2.962839 1.054834 -0.397576
2.976125 1.102452 -0.337408
2.980965 1.100422 -0.357123
2.962875 1.108277 -0.357719
2.960971 1.108457 -0.338508
2.957319 1.057263 -0.338101
2.962159 1.055232 -0.357817
2.944068 1.063088 -0.358412
2.942165 1.063268 -0.339201
2.981903 1.100010 -0.357346
2.980724 1.100112 -0.377749
2.965714 1.107684 -0.377152
2.963813 1.107866 -0.357941
2.961224 1.055643 -0.357633
2.960045 1.055744 -0.378036
2.945035 1.063316 -0.377438
2.943134 1.063498 -0.358228
2.980911 1.100024 -0.378049
2.981963 1.099826 -0.396718
2.966467 1.106788 -0.396733
2.965900 1.107596 -0.377451
2.959860 1.055831 -0.377775
2.960912 1.055633 -0.396444
2.945417 1.062596 -0.396459
2.944849 1.063403 -0.377178
2.980716 1.100378 -0.396537
2.980939 1.100954 -0.415199
2.965766 1.106556 -0.415832
2.965220 1.107341 -0.396552
2.962160 1.055080 -0.396664
2.962384 1.055656 -0.415326
2.947211 1.061258 -0.415959
2.946665 1.062043 -0.396679
2.999753 1.077525 -0.313232
2.984600 1.083532 -0.314332
2.975931 1.072149 -0.308011
2.989355 1.066644 -0.307565
2.994351 1.058126 -0.357850
2.979198 1.064133 -0.358949
2.970529 1.052750 -0.352628
2.983953 1.047246 -0.352182
2.985895 1.084357 -0.314908
2.970742 1.090364 -0.316007
2.953272 1.083367 -0.308402
2.966786 1.077238 -0.308925
2.977864 1.063325 -0.358375
2.962711 1.069332 -0.359474
2.945242 1.062335 -0.351868
2.958755 1.056205 -0.352392
2.969980 1.092944 -0.317321
2.954826 1.098950 -0.318420
2.937872 1.091369 -0.311172
2.952510 1.085948 -0.309715
2.963443 1.066763 -0.358162
2.948290 1.072769 -0.359262
2.931336 1.065188 -0.352014
2.945974 1.059767 -0.350557
2.990010 1.065957 -0.307367
2.976587 1.071461 -0.307812
2.964970 1.061235 -0.301727
2.979612 1.055079 -0.301696
2.983277 1.047911 -0.352369
2.969853 1.053415 -0.352814
2.958236 1.043189 -0.346729
2.972878 1.037034 -0.346698
2.976852 1.072005 -0.308079
2.966412 1.076269 -0.308418
2.950592 1.067936 -0.302025
2.965235 1.061779 -0.301994
2.969562 1.052883 -0.352548
2.959122 1.057148 -0.352886
2.943303 1.048814 -0.346493
2.957945 1.042657 -0.346462
2.967752 1.075036 -0.308184
2.954238 1.081165 -0.307660
2.937473 1.073348 -0.300822
2.951933 1.066702 -0.301791
2.957755 1.058392 -0.353120
2.944241 1.064522 -0.352596
2.927476 1.056705 -0.345758
2.941935 1.050059 -0.346727
2.952198 1.085405 -0.309330
2.937560 1.090827 -0.310787
2.920610 1.083259 -0.303520
2.935433 1.077588 -0.302492
2.946252 1.060294 -0.350927
2.931614 1.065716 -0.352384
2.914664 1.058149 -0.345117
2.929487 1.052477 -0.344089
3.020878 1.086749 -0.331927
3.029892 1.077419 -0.321934
3.045999 1.069346 -0.322398
3.040642 1.075647 -0.334986
2.997676 1.045833 -0.345482
3.006690 1.036503 -0.335489
3.022796 1.028430 -0.335953
3.017440 1.034731 -0.348541
3.040785 1.076170 -0.337189
3.046141 1.069870 -0.324601
3.057114 1.064371 -0.324918
3.056152 1.067539 -0.339566
3.017329 1.034191 -0.346342
3.022685 1.027891 -0.333753
3.033658 1.022392 -0.334071
3.032697 1.025560 -0.348719
2.980961 1.100423 -0.357799
2.976121 1.102453 -0.338084
2.991275 1.096446 -0.336985
2.997251 1.093403 -0.357175
2.962195 1.055217 -0.357139
2.957355 1.057247 -0.337424
2.972509 1.051240 -0.336324
2.978484 1.048197 -0.356515
2.996942 1.093519 -0.357583
2.990966 1.096562 -0.337393
3.006119 1.090555 -0.336293
2.978817 1.048072 -0.356098
2.972841 1.051115 -0.335908
2.987993 1.045107 -0.334809
2.985176 1.083647 -0.314460
2.966067 1.076528 -0.308477
2.976507 1.072264 -0.308139
2.978598 1.064023 -0.358820
2.959489 1.056904 -0.352837
2.969929 1.052640 -0.352499
3.088385 1.045690 -0.296183
3.066950 1.045798 -0.293452
3.064844 1.039467 -0.291651
3.084146 1.032796 -0.292531
3.082305 1.034304 -0.343401
3.060869 1.034412 -0.340671
3.058763 1.028081 -0.338869
3.078065 1.021409 -0.339750
3.083423 1.030471 -0.292008
3.064121 1.037143 -0.291128
3.059445 1.025998 -0.289075
3.078621 1.017498 -0.289771
3.078780 1.023712 -0.340268
3.059478 1.030384 -0.339387
3.054802 1.019239 -0.337335
3.073979 1.010739 -0.338031
3.078708 1.016616 -0.289672
3.059531 1.025115 -0.288976
3.053771 1.012027 -0.286713
3.073554 1.003647 -0.288149
3.073882 1.011596 -0.338126
3.054706 1.020096 -0.337430
3.048945 1.007008 -0.335167
3.068729 0.998627 -0.336602
3.059321 1.026151 -0.289086
3.039496 1.033541 -0.288530
3.034045 1.021719 -0.286107
3.053560 1.013063 -0.286823
3.054877 1.019077 -0.337319
3.035052 1.026467 -0.336763
3.029601 1.014645 -0.334340
3.049116 1.005989 -0.335056
2.979251 1.065994 -0.273956
2.981053 1.066429 -0.286875
2.958921 1.076607 -0.286678
2.961362 1.074608 -0.274170
2.958507 1.021811 -0.277661
2.960308 1.022246 -0.290581
2.938176 1.032424 -0.290384
2.940618 1.030425 -0.277876
2.980685 1.066606 -0.286973
2.982497 1.067067 -0.299891
2.957052 1.078190 -0.299143
2.958553 1.076784 -0.286776
2.960676 1.022071 -0.290508
2.962488 1.022532 -0.303427
2.937043 1.033655 -0.302679
2.938544 1.032249 -0.290312
2.961401 1.074638 -0.274885
2.958960 1.076637 -0.287394
2.942638 1.084126 -0.287271
2.943526 1.083284 -0.275100
2.940541 1.030413 -0.277160
2.938100 1.032411 -0.289669
2.921778 1.039900 -0.289546
2.922666 1.039059 -0.277375
2.958558 1.076827 -0.287504
2.957057 1.078234 -0.299871
2.941682 1.084976 -0.299505
2.942236 1.084316 -0.287381
2.938500 1.032223 -0.289583
2.936999 1.033629 -0.301951
2.921624 1.040371 -0.301584
2.922178 1.039712 -0.289461
2.956803 1.078345 -0.299841
2.955999 1.079319 -0.311650
2.941283 1.085673 -0.311412
2.941428 1.085086 -0.299475
2.937251 1.033520 -0.302005
2.936447 1.034494 -0.313814
2.921731 1.040848 -0.313576
2.921876 1.040262 -0.301639
2.956191 1.078913 -0.308812
2.956894 1.080381 -0.320319
2.942434 1.087027 -0.319350
2.941475 1.085267 -0.308574
2.936255 1.034902 -0.316675
2.936958 1.036370 -0.328181
2.922498 1.043016 -0.327212
2.921539 1.041257 -0.316436
2.943512 1.083315 -0.275778
2.942625 1.084156 -0.287948
2.925899 1.091871 -0.288000
2.925620 1.091923 -0.275995
2.922645 1.039044 -0.276698
2.921757 1.039886 -0.288869
2.905031 1.047601 -0.288921
2.904753 1.047652 -0.276916
2.942244 1.084333 -0.287994
2.941690 1.084992 -0.300118
2.925789 1.091978 -0.300051
2.925518 1.092048 -0.288046
2.922138 1.039710 -0.288848
2.921584 1.040369 -0.300971
2.905683 1.047355 -0.300905
2.905412 1.047425 -0.288899
2.941205 1.085202 -0.300003
2.941060 1.085788 -0.311940
2.925585 1.092131 -0.311923
2.925304 1.092187 -0.299936
2.922068 1.040160 -0.301110
2.921923 1.040747 -0.313047
2.906448 1.047089 -0.313029
2.906167 1.047146 -0.301043
2.940292 1.085782 -0.308667
2.941251 1.087542 -0.319443
2.926428 1.093214 -0.320471
2.924817 1.092125 -0.308649
2.922692 1.040754 -0.316343
2.923651 1.042514 -0.327119
2.908828 1.048185 -0.328147
2.907218 1.047097 -0.316326
3.001236 1.058682 -0.298458
2.982485 1.067003 -0.299166
2.980673 1.066542 -0.286247
2.998999 1.058088 -0.285786
2.981293 1.014256 -0.303445
2.962542 1.022578 -0.304153
2.960730 1.022116 -0.291234
2.979056 1.013663 -0.290773
2.999384 1.057902 -0.285710
2.981058 1.066356 -0.286171
2.979256 1.065921 -0.273252
2.997131 1.057274 -0.273039
2.978667 1.013847 -0.290823
2.960341 1.022301 -0.291284
2.958540 1.021866 -0.278365
2.976415 1.013218 -0.278152
3.003314 1.059323 -0.310782
2.986057 1.068287 -0.321323
2.984189 1.067662 -0.310071
2.983704 1.014838 -0.316508
2.966447 1.023803 -0.327050
2.964579 1.023178 -0.315797
3.001056 1.058723 -0.298131
3.003299 1.059332 -0.310803
2.984174 1.067671 -0.310091
2.982304 1.067044 -0.298839
2.981478 1.014216 -0.303797
2.983722 1.014825 -0.316468
2.964596 1.023165 -0.315757
2.962727 1.022538 -0.304504
2.970968 1.074557 -0.320797
2.956326 1.080713 -0.320828
2.955623 1.079245 -0.309321
2.952192 1.029871 -0.327645
2.937550 1.036028 -0.327676
2.936848 1.034560 -0.316170
2.985502 1.068506 -0.321185
2.970860 1.074662 -0.321216
2.955515 1.079350 -0.309740
2.983633 1.067881 -0.309932
2.966969 1.023599 -0.327191
2.952327 1.029755 -0.327222
2.936982 1.034443 -0.315747
2.965100 1.022974 -0.315939
2.955754 1.079361 -0.310733
2.956558 1.078387 -0.298924
2.982003 1.067264 -0.299672
2.983872 1.067891 -0.310925
2.936734 1.034434 -0.314731
2.937538 1.033460 -0.302922
2.962983 1.022337 -0.303670
2.964852 1.022964 -0.314923
2.978176 1.069624 -0.310733
2.967778 1.058747 -0.305062
2.985035 1.049782 -0.294521
2.989934 1.060969 -0.296713
2.995140 1.044229 -0.348990
2.984741 1.033352 -0.343319
3.001998 1.024387 -0.332777
3.006897 1.035574 -0.334969
3.064913 1.064352 -0.313844
3.086348 1.064244 -0.316574
3.080205 1.066303 -0.333253
3.063191 1.066971 -0.329858
3.062905 1.015870 -0.320298
3.084341 1.015762 -0.323029
3.078197 1.017821 -0.339708
3.061183 1.018489 -0.336313
3.085490 1.064341 -0.317222
3.101232 1.064733 -0.319263
3.096609 1.066289 -0.336122
3.079346 1.066400 -0.333901
3.085235 1.015664 -0.322387
3.100977 1.016056 -0.324428
3.096355 1.017611 -0.341286
3.079092 1.017723 -0.339066
3.100886 1.064766 -0.319607
3.116628 1.065156 -0.321647
3.113632 1.066504 -0.337173
3.096263 1.066322 -0.336465
3.101357 1.016023 -0.324088
3.117099 1.016413 -0.326128
3.114103 1.017761 -0.341654
3.096734 1.017579 -0.340946
3.116618 1.065169 -0.321795
3.132361 1.065560 -0.323836
3.130949 1.066513 -0.335649
3.113622 1.066517 -0.337321
3.117142 1.016401 -0.325982
3.132884 1.016792 -0.328023
3.131473 1.017744 -0.339836
3.114146 1.017748 -0.341508
3.132292 1.065567 -0.323921
3.148035 1.065957 -0.325962
3.130881 1.066519 -0.335734
3.132980 1.016786 -0.327935
3.148722 1.017175 -0.329977
3.131569 1.017738 -0.339749
3.047816 1.067334 -0.325107
3.064583 1.066691 -0.328707
3.063780 1.069376 -0.345026
3.046854 1.070502 -0.339754
3.042986 1.019420 -0.333888
3.059753 1.018777 -0.337488
3.058951 1.021462 -0.353807
3.042025 1.022588 -0.348536
3.064313 1.066887 -0.329768
3.081327 1.066218 -0.333163
3.080436 1.068446 -0.351356
3.063510 1.069572 -0.346087
3.060057 1.018579 -0.336436
3.077071 1.017911 -0.339832
3.076180 1.020139 -0.358024
3.059254 1.021264 -0.352755
3.080058 1.066385 -0.333894
3.097321 1.066274 -0.336115
3.096491 1.068060 -0.354823
3.079167 1.068613 -0.352087
3.078374 1.017742 -0.339108
3.095637 1.017630 -0.341328
3.094808 1.019416 -0.360036
3.077484 1.019970 -0.357300
3.096413 1.066323 -0.336468
3.113782 1.066505 -0.337176
3.113346 1.068130 -0.355372
3.095584 1.068109 -0.355176
3.096579 1.017581 -0.340979
3.113948 1.017763 -0.341686
3.113512 1.019388 -0.359883
3.095750 1.019367 -0.359686
3.113784 1.066520 -0.337344
3.131112 1.066516 -0.335671
3.131110 1.068165 -0.355738
3.113348 1.068145 -0.355540
3.113981 1.017748 -0.341518
3.131308 1.017744 -0.339846
3.131306 1.019392 -0.359913
3.113545 1.019373 -0.359715
3.131087 1.066532 -0.335867
3.148241 1.065969 -0.326096
3.148848 1.068202 -0.356130
3.131085 1.068180 -0.355933
3.131368 1.017728 -0.339645
3.148521 1.017165 -0.329874
3.149128 1.019398 -0.359908
3.131366 1.019376 -0.359711
3.149621 1.047646 -0.333868
3.150233 1.070161 -0.337727
3.134364 1.074658 -0.337753
3.131859 1.047624 -0.333672
3.148357 1.039981 -0.382198
3.148969 1.062496 -0.386057
3.133100 1.066993 -0.386083
3.130595 1.039959 -0.382002
3.149587 1.068768 -0.337539
3.151595 1.090711 -0.339285
3.134461 1.097148 -0.340363
3.133719 1.073265 -0.337565
3.149617 1.063936 -0.386251
3.151625 1.085879 -0.387997
3.134491 1.092316 -0.389075
3.133749 1.068433 -0.386277
3.131806 1.047180 -0.333604
3.134312 1.074213 -0.337685
3.118759 1.078730 -0.337692
3.114044 1.047161 -0.333406
3.130614 1.040408 -0.382070
3.133119 1.067441 -0.386151
3.117566 1.071958 -0.386157
3.112852 1.040388 -0.381872
3.134362 1.073813 -0.337634
3.135104 1.097696 -0.340432
3.116743 1.103485 -0.340780
3.118809 1.078330 -0.337640
3.133072 1.067896 -0.386209
3.133814 1.091779 -0.389007
3.115453 1.097568 -0.389355
3.117519 1.072413 -0.386215
3.113990 1.046822 -0.333360
3.118704 1.078392 -0.337645
3.103991 1.075051 -0.336673
3.096228 1.046801 -0.333164
3.112873 1.040728 -0.381917
3.117587 1.072298 -0.386203
3.102874 1.068957 -0.385230
3.095111 1.040707 -0.381721
3.118824 1.078573 -0.337672
3.116758 1.103728 -0.340812
3.101860 1.099770 -0.339996
3.104110 1.075232 -0.336699
3.117472 1.072171 -0.386183
3.115406 1.097327 -0.389323
3.100508 1.093369 -0.388508
3.102758 1.068831 -0.385211
3.098179 1.046908 -0.333302
3.105941 1.075158 -0.336811
3.090907 1.071397 -0.335743
3.080854 1.047462 -0.330565
3.093128 1.040596 -0.381580
3.100891 1.068846 -0.385090
3.085857 1.065085 -0.384022
3.075804 1.041150 -0.378844
3.104054 1.075477 -0.336731
3.101804 1.100016 -0.340028
3.086905 1.096059 -0.339213
3.089020 1.071716 -0.335663
3.102785 1.068578 -0.385177
3.100535 1.093116 -0.388474
3.085636 1.089160 -0.387658
3.087751 1.064817 -0.384109
3.084439 1.047792 -0.331263
3.094491 1.071728 -0.336440
3.072624 1.068835 -0.331305
3.067513 1.048917 -0.325994
3.072184 1.040817 -0.378139
3.082237 1.064753 -0.383317
3.060370 1.061860 -0.378182
3.055259 1.041943 -0.372870
3.067978 1.050622 -0.326440
3.073089 1.070539 -0.331752
3.053674 1.068375 -0.326336
3.051053 1.051748 -0.321169
3.054756 1.040237 -0.372413
3.059867 1.060154 -0.377725
3.040451 1.057990 -0.372309
3.037830 1.041363 -0.367142
3.093315 1.072213 -0.336240
3.091200 1.096555 -0.339790
3.069182 1.088971 -0.333990
3.071447 1.069320 -0.331105
3.083419 1.064312 -0.383525
3.081305 1.088654 -0.387075
3.059286 1.081070 -0.381275
3.061552 1.061419 -0.378390
3.071686 1.070183 -0.331318
3.069420 1.089834 -0.334202
3.047402 1.082251 -0.328401
3.052270 1.068019 -0.325902
3.061270 1.060546 -0.378167
3.059005 1.080197 -0.381052
3.036986 1.072614 -0.375250
3.041855 1.058382 -0.372751
3.032671 1.077994 -0.322611
3.016226 1.072430 -0.316059
3.035990 1.061329 -0.319118
3.018770 1.065730 -0.367916
3.002325 1.060166 -0.361364
3.022089 1.049064 -0.364423
3.032612 1.078193 -0.322648
3.053920 1.069523 -0.326699
3.049052 1.083755 -0.329198
3.018863 1.065544 -0.367894
3.040172 1.056874 -0.371945
3.035303 1.071106 -0.374444
3.053879 1.069237 -0.326609
3.032570 1.077908 -0.322557
3.035890 1.061242 -0.319065
3.051257 1.052611 -0.321441
3.040210 1.057136 -0.372028
3.018901 1.065806 -0.367977
3.022220 1.049141 -0.364484
3.037588 1.040509 -0.366861
3.154429 1.061059 -0.333683
3.155601 1.075384 -0.336900
3.143390 1.071087 -0.338703
3.142778 1.048572 -0.334844
3.166880 1.051549 -0.380059
3.168052 1.065874 -0.383276
3.155841 1.061577 -0.385079
3.155229 1.039062 -0.381220
3.188222 1.066052 -0.334822
3.175962 1.073108 -0.336278
3.174770 1.064186 -0.333985
3.186941 1.054031 -0.382256
3.174681 1.061087 -0.383713
3.173489 1.052165 -0.381420
3.175117 1.063720 -0.333884
3.176309 1.072642 -0.336177
3.162837 1.076176 -0.336269
3.161665 1.061851 -0.333052
3.173121 1.052632 -0.381521
3.174312 1.061554 -0.383814
3.160841 1.065088 -0.383906
3.159669 1.050763 -0.380689
3.189973 1.066230 -0.334979
3.199563 1.079794 -0.340355
3.185223 1.085086 -0.339444
3.177713 1.073285 -0.336436
3.185204 1.053870 -0.382104
3.194794 1.067434 -0.387479
3.180454 1.072726 -0.386569
3.172944 1.060925 -0.383561
3.176462 1.072603 -0.336175
3.183973 1.084403 -0.339183
3.170594 1.087933 -0.339427
3.162991 1.076137 -0.336267
3.174167 1.061617 -0.383822
3.181678 1.073418 -0.386830
3.168299 1.076948 -0.387074
3.160696 1.065151 -0.383914
3.213939 1.065909 -0.339523
3.235659 1.065807 -0.343785
3.216427 1.073630 -0.341994
3.204745 1.053963 -0.386095
3.226464 1.053861 -0.390357
3.207232 1.061684 -0.388566
3.192203 1.066020 -0.335258
3.213925 1.065913 -0.339521
3.216412 1.073635 -0.341993
3.201793 1.079584 -0.340633
3.183005 1.054070 -0.381828
3.204727 1.053964 -0.386092
3.207215 1.061685 -0.388563
3.192595 1.067635 -0.387203
3.193220 1.062903 -0.310793
3.179384 1.062690 -0.310013
3.178495 1.050679 -0.305737
3.192369 1.051374 -0.307531
3.189372 1.048280 -0.357350
3.175537 1.048067 -0.356570
3.174647 1.036056 -0.352294
3.188521 1.036751 -0.354089
3.179285 1.064134 -0.310508
3.165449 1.063923 -0.309723
3.164523 1.051429 -0.304435
3.178395 1.052122 -0.306232
3.175609 1.046623 -0.356072
3.161772 1.046412 -0.355286
3.160847 1.033918 -0.349998
3.174719 1.034612 -0.351796
3.194934 1.061023 -0.310485
3.194083 1.049494 -0.307223
3.214069 1.049262 -0.310714
3.214666 1.060719 -0.312967
3.187692 1.050161 -0.357663
3.186841 1.038632 -0.354401
3.206827 1.038400 -0.357892
3.207424 1.049857 -0.360145
3.214685 1.058831 -0.312614
3.214088 1.047374 -0.310361
3.234077 1.047158 -0.313818
3.234422 1.058541 -0.315087
3.207446 1.051744 -0.360505
3.206848 1.040287 -0.358252
3.226837 1.040071 -0.361709
3.227182 1.051454 -0.362978
3.235121 1.057686 -0.315091
3.234776 1.046304 -0.313822
3.254722 1.045947 -0.317293
3.254644 1.056459 -0.318530
3.226522 1.052308 -0.362980
3.226177 1.040925 -0.361711
3.246123 1.040569 -0.365181
3.246045 1.051080 -0.366419
3.255120 1.057764 -0.318804
3.255199 1.047252 -0.317566
3.275188 1.046812 -0.320987
3.274499 1.055890 -0.322901
3.245608 1.049773 -0.366152
3.245687 1.039261 -0.364915
3.265676 1.038821 -0.368335
3.264987 1.047899 -0.370250
3.294137 1.056349 -0.327577
3.274761 1.058234 -0.323474
3.275450 1.049156 -0.321560
3.287154 1.048891 -0.323592
3.284137 1.043668 -0.373788
3.264761 1.045552 -0.369684
3.265450 1.036475 -0.367770
3.277154 1.036210 -0.369802
3.293331 1.058207 -0.328006
3.286348 1.050749 -0.324021
3.294762 1.050548 -0.325500
3.284962 1.041806 -0.373362
3.277979 1.034349 -0.369377
3.286392 1.034148 -0.370857
3.124244 1.124906 -0.454332
3.124077 1.124705 -0.436417
3.141630 1.119178 -0.437768
3.141568 1.119559 -0.456076
3.109613 1.078199 -0.455124
3.109447 1.077998 -0.437209
3.126999 1.072472 -0.438561
3.126937 1.072853 -0.456868
3.141588 1.119551 -0.455957
3.141650 1.119170 -0.437650
3.159206 1.113654 -0.439002
3.158911 1.114203 -0.457700
3.126952 1.072851 -0.456990
3.127014 1.072469 -0.438682
3.144570 1.066954 -0.440034
3.144276 1.067503 -0.458733
3.158940 1.114192 -0.457590
3.159235 1.113643 -0.438892
3.177703 1.107837 -0.440314
3.176263 1.108846 -0.459335
3.144282 1.067504 -0.458845
3.144577 1.066955 -0.440147
3.163045 1.061149 -0.441569
3.161605 1.062158 -0.460590
3.176422 1.108795 -0.459321
3.177862 1.107786 -0.440300
3.193675 1.102755 -0.440882
3.193795 1.103230 -0.460369
3.161480 1.062198 -0.460606
3.162920 1.061189 -0.441585
3.178733 1.056157 -0.442167
3.178853 1.056633 -0.461654
3.193913 1.103194 -0.460440
3.193793 1.102718 -0.440954
3.211703 1.096950 -0.441990
3.211404 1.097489 -0.461369
3.178768 1.056658 -0.461584
3.178648 1.056183 -0.442098
3.196559 1.050415 -0.443134
3.196259 1.050953 -0.462513
3.211432 1.097481 -0.461440
3.211731 1.096943 -0.442062
3.229143 1.091319 -0.443329
3.228721 1.091846 -0.462490
3.196266 1.050950 -0.462443
3.196566 1.050411 -0.443065
3.213977 1.044787 -0.444332
3.213556 1.045314 -0.463492
3.228732 1.091843 -0.462552
3.229154 1.091316 -0.443391
3.246517 1.085714 -0.444666
3.245474 1.086384 -0.463568
3.213579 1.045305 -0.463432
3.214001 1.044778 -0.444272
3.231364 1.039176 -0.445546
3.230321 1.039846 -0.464449
3.242220 1.087195 -0.463353
3.243263 1.086526 -0.444451
3.261008 1.083406 -0.447550
3.260203 1.084078 -0.465735
3.233609 1.039026 -0.464667
3.234652 1.038356 -0.445765
3.252397 1.035236 -0.448864
3.251592 1.035908 -0.467049
3.261205 1.083881 -0.466906
3.262010 1.083209 -0.448721
3.279743 1.080099 -0.451816
3.279678 1.078784 -0.472735
3.250625 1.036098 -0.465885
3.251430 1.035426 -0.447700
3.269163 1.032316 -0.450795
3.269099 1.031001 -0.471714
3.277365 1.079180 -0.472728
3.277429 1.080496 -0.451809
3.295163 1.077380 -0.454904
3.294837 1.077966 -0.471661
3.271448 1.030598 -0.471727
3.271512 1.031914 -0.450807
3.289246 1.028798 -0.453903
3.288920 1.029384 -0.470659
3.124202 1.124665 -0.436398
3.124036 1.124465 -0.418482
3.141748 1.118776 -0.419393
3.141754 1.119139 -0.437749
3.109322 1.078037 -0.437192
3.109156 1.077837 -0.419276
3.126867 1.072149 -0.420187
3.126874 1.072511 -0.438543
3.141769 1.119131 -0.437615
3.141762 1.118769 -0.419259
3.159474 1.113085 -0.420169
3.159325 1.113616 -0.438968
3.126895 1.072507 -0.438679
3.126888 1.072145 -0.420323
3.144600 1.066461 -0.421232
3.144452 1.066991 -0.440031
3.159349 1.113605 -0.438839
3.159497 1.113075 -0.420040
3.178190 1.107082 -0.420986
3.177816 1.107799 -0.440261
3.144465 1.066991 -0.440162
3.144613 1.066460 -0.421363
3.163306 1.060468 -0.422309
3.162932 1.061185 -0.441584
3.177764 1.107816 -0.440260
3.178138 1.107099 -0.420985
3.193631 1.102263 -0.421349
3.193577 1.102785 -0.440842
3.163019 1.061157 -0.441587
3.163392 1.060440 -0.422312
3.178885 1.055605 -0.422676
3.178831 1.056126 -0.442169
3.193712 1.102744 -0.440944
3.193766 1.102223 -0.421451
3.211925 1.096444 -0.422604
3.211622 1.096976 -0.441980
3.178730 1.056156 -0.442069
3.178783 1.055635 -0.422576
3.196943 1.049856 -0.423729
3.196640 1.050388 -0.443105
3.211688 1.096956 -0.442038
3.211992 1.096424 -0.422662
3.229513 1.090794 -0.424139
3.229100 1.091332 -0.443305
3.196609 1.050397 -0.443050
3.196912 1.049864 -0.423674
3.214433 1.044235 -0.425151
3.214021 1.044772 -0.444317
3.229108 1.091330 -0.443336
3.229521 1.090792 -0.424170
3.246995 1.085184 -0.425643
3.246471 1.085728 -0.444611
3.214048 1.044763 -0.444288
3.214460 1.044225 -0.425122
3.231934 1.038617 -0.426595
3.231411 1.039161 -0.445563
3.243361 1.086508 -0.444463
3.243884 1.085964 -0.425495
3.261545 1.082788 -0.429303
3.261105 1.083389 -0.447562
3.234557 1.038372 -0.445716
3.235080 1.037828 -0.426748
3.252741 1.034652 -0.430556
3.252301 1.035252 -0.448814
3.261104 1.083386 -0.447469
3.261544 1.082786 -0.429211
3.279213 1.079655 -0.433056
3.278837 1.080276 -0.450564
3.252336 1.035248 -0.448914
3.252776 1.034648 -0.430655
3.270445 1.031518 -0.434501
3.270069 1.032139 -0.452008
3.278866 1.080269 -0.450500
3.279242 1.079648 -0.432993
3.296912 1.076525 -0.436838
3.296600 1.077153 -0.453596
3.270075 1.032140 -0.452079
3.270451 1.031519 -0.434572
3.288121 1.028396 -0.438416
3.287809 1.029024 -0.455175
3.124170 1.124421 -0.418449
3.124003 1.124218 -0.400534
3.141798 1.118374 -0.400953
3.141881 1.118733 -0.419359
3.109023 1.077880 -0.419273
3.108857 1.077676 -0.401358
3.126651 1.071833 -0.401777
3.126734 1.072191 -0.420183
3.141894 1.118725 -0.419214
3.141812 1.118367 -0.400808
3.159609 1.112532 -0.401226
3.159606 1.113042 -0.420124
3.126756 1.072187 -0.420330
3.126673 1.071829 -0.401923
3.144471 1.065994 -0.402342
3.144468 1.066504 -0.421240
3.159599 1.113041 -0.420007
3.159602 1.112531 -0.401110
3.177537 1.106690 -0.401520
3.178292 1.107049 -0.420953
3.144511 1.066493 -0.421358
3.144514 1.065983 -0.402460
3.162450 1.060142 -0.402870
3.163204 1.060500 -0.422303
3.178019 1.107135 -0.420960
3.177264 1.106777 -0.401527
3.193730 1.101711 -0.401828
3.193511 1.102300 -0.421325
3.163512 1.060403 -0.422297
3.162757 1.060044 -0.402864
3.179224 1.054978 -0.403165
3.179004 1.055567 -0.422662
3.193697 1.102244 -0.421405
3.193916 1.101655 -0.401909
3.212154 1.095908 -0.403184
3.211857 1.096465 -0.422559
3.178853 1.055613 -0.422582
3.179072 1.055023 -0.403086
3.197310 1.049277 -0.404361
3.197012 1.049834 -0.423736
3.211953 1.096435 -0.422620
3.212251 1.095879 -0.403245
3.229877 1.090262 -0.404928
3.229474 1.090806 -0.424097
3.196952 1.049852 -0.423677
3.197250 1.049295 -0.404302
3.214876 1.043678 -0.405984
3.214473 1.044222 -0.425154
3.229495 1.090800 -0.424136
3.229898 1.090256 -0.404967
3.247488 1.084634 -0.406646
3.246969 1.085191 -0.425609
3.214487 1.044217 -0.425118
3.214890 1.043673 -0.405948
3.232480 1.038051 -0.407628
3.231961 1.038608 -0.426591
3.244009 1.085940 -0.425461
3.244529 1.085383 -0.406497
3.262112 1.082145 -0.410990
3.261670 1.082764 -0.429269
3.234956 1.037851 -0.426745
3.235475 1.037294 -0.407782
3.253059 1.034056 -0.412274
3.252616 1.034675 -0.430554
3.261627 1.082769 -0.429168
3.262069 1.082150 -0.410889
3.279669 1.078995 -0.415495
3.279295 1.079639 -0.433014
3.252695 1.034663 -0.430662
3.253137 1.034044 -0.412383
3.270737 1.030889 -0.416989
3.270363 1.031533 -0.434508
3.279328 1.079630 -0.432927
3.279702 1.078986 -0.415408
3.297302 1.075830 -0.420015
3.296999 1.076507 -0.436772
3.270366 1.031536 -0.434603
3.270739 1.030891 -0.417084
3.288340 1.027736 -0.421691
3.288036 1.028412 -0.438448
3.124146 1.124170 -0.400514
3.123980 1.123968 -0.382599
3.141789 1.117987 -0.382476
3.141941 1.118327 -0.400933
3.108714 1.077723 -0.401341
3.108548 1.077521 -0.383425
3.126357 1.071540 -0.383303
3.126509 1.071880 -0.401760
3.141958 1.118318 -0.400771
3.141806 1.117978 -0.382314
3.159612 1.111992 -0.382192
3.159755 1.112483 -0.401190
3.126527 1.071877 -0.401922
3.126376 1.071537 -0.383466
3.144182 1.065551 -0.383343
3.144325 1.066042 -0.402341
3.159668 1.112509 -0.401086
3.159525 1.112018 -0.382088
3.177165 1.106226 -0.382054
3.177603 1.106668 -0.401496
3.144447 1.066004 -0.402445
3.144304 1.065513 -0.383447
3.161945 1.059721 -0.383413
3.162383 1.060163 -0.402856
3.177170 1.106806 -0.401525
3.176732 1.106364 -0.382083
3.194032 1.101112 -0.382324
3.193636 1.101740 -0.401826
3.162851 1.060014 -0.402827
3.162413 1.059572 -0.383385
3.179713 1.054320 -0.383625
3.179317 1.054948 -0.403128
3.193862 1.101672 -0.401899
3.194258 1.101044 -0.382396
3.212399 1.095370 -0.383800
3.212100 1.095925 -0.403174
3.179127 1.055005 -0.403057
3.179523 1.054377 -0.383554
3.197664 1.048703 -0.384958
3.197365 1.049259 -0.404332
3.212208 1.095892 -0.403220
3.212506 1.095336 -0.383846
3.230229 1.089725 -0.385728
3.229834 1.090275 -0.404902
3.197293 1.049281 -0.404289
3.197592 1.048725 -0.384915
3.215314 1.043113 -0.386797
3.214920 1.043664 -0.405971
3.229855 1.090270 -0.404954
3.230250 1.089719 -0.385780
3.247956 1.084116 -0.387660
3.247445 1.084648 -0.406634
3.214934 1.043658 -0.405922
3.215329 1.043108 -0.386748
3.233035 1.037505 -0.388628
3.232524 1.038036 -0.407602
3.244665 1.085357 -0.406499
3.245176 1.084825 -0.387525
3.262696 1.081499 -0.392689
3.262249 1.082119 -0.410991
3.235339 1.037319 -0.407743
3.235850 1.036787 -0.388770
3.253370 1.033460 -0.393934
3.252923 1.034081 -0.412236
3.262153 1.082134 -0.410872
3.262600 1.081514 -0.392570
3.280128 1.078330 -0.397948
3.279753 1.078978 -0.415478
3.253054 1.034059 -0.412365
3.253501 1.033439 -0.394063
3.271029 1.030256 -0.399441
3.270653 1.030904 -0.416971
3.279786 1.078969 -0.415398
3.280162 1.078321 -0.397869
3.297692 1.075147 -0.403247
3.297387 1.075814 -0.420005
3.270655 1.030906 -0.417060
3.271031 1.030258 -0.399531
3.288561 1.027084 -0.404909
3.288255 1.027751 -0.421667
3.123836 1.124019 -0.382899
3.123669 1.123813 -0.364983
3.142031 1.118025 -0.364635
3.141645 1.118038 -0.382776
3.108692 1.077470 -0.383089
3.108525 1.077264 -0.365174
3.126887 1.071476 -0.364826
3.126501 1.071489 -0.382967
3.142282 1.117820 -0.382597
3.142668 1.117807 -0.364456
3.159802 1.111370 -0.363377
3.160088 1.111833 -0.382475
3.125900 1.071695 -0.383145
3.126286 1.071681 -0.365004
3.143419 1.065244 -0.363925
3.143706 1.065708 -0.383023
3.159542 1.112012 -0.382074
3.159255 1.111548 -0.362976
3.177062 1.105698 -0.362587
3.177182 1.106220 -0.382040
3.144288 1.065518 -0.383423
3.144001 1.065054 -0.364326
3.161808 1.059204 -0.363937
3.161928 1.059726 -0.383389
3.176306 1.106497 -0.382408
3.176186 1.105975 -0.362956
3.189565 1.102445 -0.362712
3.193606 1.101245 -0.382649
3.162837 1.059439 -0.383020
3.162717 1.058917 -0.363568
3.176096 1.055388 -0.363324
3.180137 1.054187 -0.383261
3.194759 1.100875 -0.382235
3.190718 1.102076 -0.362299
3.205057 1.096784 -0.363209
3.212900 1.095201 -0.383639
3.179016 1.054547 -0.383675
3.174974 1.055748 -0.363739
3.189314 1.050456 -0.364649
3.197157 1.048873 -0.385079
3.213448 1.094908 -0.382109
3.205605 1.096491 -0.361678
3.220225 1.090542 -0.363038
3.231171 1.089297 -0.383991
3.196641 1.049154 -0.386612
3.188798 1.050737 -0.366182
3.203418 1.044788 -0.367542
3.214363 1.043542 -0.388495
3.231384 1.088972 -0.382219
3.220438 1.090217 -0.361267
3.239670 1.082394 -0.363057
3.249090 1.083369 -0.384099
3.214185 1.043854 -0.390269
3.203239 1.045100 -0.369317
3.222471 1.037277 -0.371107
3.231891 1.038252 -0.392149
3.244188 1.084949 -0.386513
3.234768 1.083974 -0.365471
3.255940 1.082131 -0.371157
3.261708 1.081623 -0.391677
3.236830 1.036662 -0.389743
3.227411 1.035687 -0.368701
3.248583 1.033844 -0.374387
3.254351 1.033336 -0.394907
3.262678 1.081498 -0.392559
3.256910 1.082007 -0.372038
3.277475 1.078239 -0.379299
3.280206 1.078315 -0.397937
3.253420 1.033454 -0.394037
3.247652 1.033963 -0.373517
3.268217 1.030194 -0.380777
3.270948 1.030270 -0.399415
3.280258 1.078302 -0.397846
3.277527 1.078226 -0.379208
3.298089 1.074444 -0.386467
3.297788 1.075128 -0.403225
3.270934 1.030276 -0.399518
3.268203 1.030200 -0.380880
3.288765 1.026418 -0.388139
3.288464 1.027103 -0.404897
3.238118 1.068255 -0.487947
3.220992 1.068644 -0.488023
3.221376 1.073714 -0.486931
3.237670 1.057974 -0.440090
3.220544 1.058363 -0.440166
3.220929 1.063433 -0.439073
3.221359 1.073713 -0.486931
3.220975 1.068642 -0.488024
3.205846 1.068983 -0.488089
3.204070 1.079348 -0.485882
3.220918 1.063440 -0.439072
3.220534 1.058369 -0.440165
3.205405 1.058710 -0.440230
3.203629 1.069075 -0.438023
3.204135 1.079251 -0.485902
3.205912 1.068886 -0.488109
3.190784 1.069228 -0.488178
3.186645 1.084956 -0.484973
3.203530 1.069179 -0.438002
3.205307 1.058813 -0.440209
3.190178 1.059155 -0.440278
3.186040 1.074884 -0.437074
3.186559 1.084991 -0.484967
3.178932 1.068106 -0.488575
3.165169 1.066995 -0.488990
3.169186 1.090556 -0.483919
3.186082 1.074853 -0.437080
3.178455 1.057968 -0.440687
3.164692 1.056857 -0.441103
3.168709 1.080418 -0.436032
3.186663 1.084888 -0.484987
3.190802 1.069160 -0.488192
3.179037 1.068003 -0.488595
3.185998 1.074948 -0.437061
3.190137 1.059220 -0.440265
3.178372 1.058063 -0.440668
3.161673 1.064796 -0.310085
3.146474 1.051202 -0.305550
3.160747 1.052302 -0.304797
3.165524 1.045534 -0.354922
3.150325 1.031940 -0.350387
3.164599 1.033040 -0.349633
3.292511 1.060414 -0.494690
3.295838 1.048923 -0.497899
3.287935 1.048865 -0.498125
3.291263 1.046919 -0.447653
3.294589 1.035427 -0.450861
3.286687 1.035369 -0.451088
3.293198 1.059409 -0.494927
3.288622 1.047860 -0.498362
3.277831 1.047761 -0.498596
3.275726 1.060624 -0.495995
3.290558 1.047928 -0.447415
3.285982 1.036379 -0.450850
3.275191 1.036279 -0.451084
3.273085 1.049142 -0.448482
3.082876 1.110018 -0.384518
3.093169 1.115754 -0.374330
3.093456 1.116452 -0.385962
3.108104 1.068111 -0.386410
3.118396 1.073847 -0.376222
3.118684 1.074545 -0.387855
3.093973 1.116233 -0.374797
3.104265 1.121967 -0.364608
3.104431 1.122172 -0.382524
3.094260 1.116931 -0.386430
3.117610 1.073377 -0.375745
3.127902 1.079111 -0.365556
3.128068 1.079317 -0.383471
3.117897 1.074076 -0.387377
3.084206 1.110683 -0.383375
3.094786 1.117117 -0.384820
3.095793 1.118399 -0.400552
3.086438 1.114208 -0.399720
3.106772 1.067447 -0.387576
3.117352 1.073881 -0.389021
3.118359 1.075163 -0.404753
3.109004 1.070972 -0.403920
3.095314 1.117477 -0.386325
3.105485 1.122718 -0.382419
3.105651 1.122920 -0.400335
3.096321 1.118759 -0.402058
3.116844 1.073531 -0.387513
3.127015 1.078772 -0.383607
3.127181 1.078974 -0.401523
3.117851 1.074813 -0.403246
3.106497 1.123322 -0.400731
3.106663 1.123526 -0.418646
3.095845 1.118729 -0.414301
3.097166 1.119161 -0.402454
3.126336 1.078573 -0.401159
3.126502 1.078777 -0.419074
3.115684 1.073981 -0.414728
3.117005 1.074412 -0.402882
3.106790 1.123582 -0.418671
3.106956 1.123782 -0.436587
3.095343 1.118638 -0.424513
3.095973 1.118785 -0.414325
3.126373 1.078721 -0.419078
3.126539 1.078921 -0.436994
3.114926 1.073777 -0.424921
3.115556 1.073924 -0.414733
3.107062 1.123829 -0.436603
3.107229 1.124029 -0.454518
3.094128 1.118253 -0.436375
3.095450 1.118684 -0.424529
3.126432 1.078874 -0.437007
3.126598 1.079075 -0.454922
3.113497 1.073299 -0.436780
3.114819 1.073730 -0.424934
3.097268 1.119202 -0.402232
3.095947 1.118771 -0.414078
3.084402 1.113718 -0.409684
3.087913 1.115011 -0.401399
3.116883 1.074362 -0.403100
3.115562 1.073930 -0.414947
3.104017 1.068878 -0.410553
3.107529 1.070170 -0.402267
3.096031 1.118810 -0.414246
3.095402 1.118663 -0.424434
3.084486 1.113758 -0.409852
3.115478 1.073891 -0.414797
3.114849 1.073744 -0.424985
3.103934 1.068839 -0.410403
3.095592 1.118743 -0.424359
3.094270 1.118312 -0.436205
3.081166 1.112544 -0.418062
3.084677 1.113838 -0.409777
3.114652 1.073661 -0.425072
3.113330 1.073230 -0.436918
3.100226 1.067462 -0.418775
3.103737 1.068756 -0.410490
3.083467 1.113285 -0.416245
3.096572 1.119053 -0.434388
3.085878 1.115756 -0.434627
3.097920 1.066720 -0.420609
3.111024 1.072488 -0.438752
3.100330 1.069191 -0.438992
3.096950 1.119113 -0.433868
3.110051 1.124889 -0.452010
3.091028 1.119439 -0.451617
3.086256 1.115816 -0.434108
3.110659 1.072436 -0.439302
3.123760 1.078212 -0.457444
3.104737 1.072762 -0.457050
3.099965 1.069139 -0.439542
3.082518 1.112908 -0.415674
3.084928 1.115379 -0.434057
3.071727 1.111396 -0.435117
3.072776 1.109246 -0.419059
3.098850 1.067091 -0.421176
3.101260 1.069562 -0.439559
3.088060 1.065579 -0.440618
3.089109 1.063429 -0.424561
3.086218 1.115737 -0.433581
3.090989 1.119361 -0.451090
3.071967 1.113911 -0.450697
3.073018 1.111754 -0.434641
3.099973 1.069209 -0.440068
3.104744 1.072832 -0.457577
3.085722 1.067382 -0.457184
3.086773 1.065226 -0.441128
3.022017 1.096518 -0.423069
3.020047 1.093040 -0.408712
3.038274 1.099248 -0.416551
3.033841 1.100488 -0.428366
3.033648 1.049926 -0.432562
3.031678 1.046448 -0.418205
3.049905 1.052656 -0.426044
3.045472 1.053896 -0.437859
3.033760 1.100544 -0.428758
3.038193 1.099304 -0.416943
3.055530 1.105315 -0.424782
3.053445 1.107275 -0.438926
3.045586 1.053851 -0.437483
3.050019 1.052612 -0.425667
3.067356 1.058622 -0.433506
3.065272 1.060582 -0.447650
3.053180 1.107301 -0.439469
3.055265 1.105341 -0.425325
3.073680 1.111851 -0.434051
3.072629 1.114007 -0.450108
3.065575 1.060569 -0.447126
3.067659 1.058608 -0.432981
3.086075 1.065118 -0.441708
3.085024 1.067274 -0.457764
3.019948 1.092986 -0.408573
3.026366 1.092322 -0.397972
3.042502 1.097902 -0.404635
3.038175 1.099195 -0.416411
3.031783 1.046498 -0.418320
3.038200 1.045834 -0.407720
3.054336 1.051414 -0.414382
3.050010 1.052707 -0.426159
3.037951 1.099200 -0.416724
3.042278 1.097907 -0.404947
3.058453 1.103579 -0.411368
3.055288 1.105210 -0.424562
3.050268 1.052713 -0.425861
3.054594 1.051421 -0.414084
3.070770 1.057092 -0.420506
3.067605 1.058723 -0.433700
3.054773 1.105180 -0.425175
3.057937 1.103549 -0.411981
3.074237 1.109540 -0.417844
3.073188 1.111690 -0.433902
3.068155 1.058765 -0.433101
3.071319 1.057135 -0.419907
3.087619 1.063125 -0.425771
3.086570 1.065275 -0.441828
3.024783 1.091233 -0.390840
3.029330 1.093119 -0.399339
3.022912 1.093783 -0.409940
3.011955 1.091187 -0.400668
3.030665 1.043143 -0.397838
3.035211 1.045029 -0.406337
3.028794 1.045693 -0.416937
3.017837 1.043097 -0.407665
3.012121 1.091018 -0.399554
3.023079 1.093614 -0.408825
3.025049 1.097092 -0.423183
2.999294 1.090966 -0.409382
3.017655 1.043268 -0.408802
3.028612 1.045864 -0.418074
3.030582 1.049343 -0.432431
3.004827 1.043216 -0.418631
3.034132 1.099951 -0.357053
3.036108 1.095565 -0.373813
3.025561 1.091997 -0.378168
3.013404 1.090412 -0.361059
3.050217 1.054912 -0.346617
3.052194 1.050526 -0.363376
3.041646 1.046958 -0.367732
3.029490 1.045372 -0.350623
3.034945 1.094690 -0.375361
3.032969 1.099076 -0.358601
3.054987 1.106659 -0.364402
3.049506 1.099878 -0.378579
3.053391 1.051414 -0.361829
3.051414 1.055800 -0.345069
3.073433 1.063383 -0.350870
3.067952 1.056602 -0.365047
3.049531 1.099872 -0.378632
3.055012 1.106653 -0.364456
3.077030 1.114237 -0.370256
3.078656 1.110240 -0.385064
3.067972 1.056624 -0.365004
3.073452 1.063405 -0.350827
3.095471 1.070989 -0.356627
3.097097 1.066992 -0.371436
3.002025 1.090745 -0.382423
3.004863 1.090737 -0.360642
3.016913 1.091761 -0.369552
3.013967 1.091211 -0.383133
3.005153 1.041895 -0.382187
3.007992 1.041887 -0.360406
3.020041 1.042911 -0.369315
3.017096 1.042361 -0.382896
3.003859 1.090652 -0.360457
3.006697 1.090641 -0.338676
3.018854 1.092227 -0.355785
3.015909 1.091676 -0.369366
3.009002 1.041972 -0.360556
3.011839 1.041961 -0.338776
3.023997 1.043547 -0.355884
3.021051 1.042996 -0.369466
3.002771 1.090776 -0.381768
3.014714 1.091242 -0.382478
3.014389 1.091418 -0.393039
3.002004 1.091159 -0.397598
3.004403 1.041865 -0.382873
3.016346 1.042331 -0.383582
3.016021 1.042506 -0.394143
3.003635 1.042248 -0.398702
3.002205 1.091166 -0.397617
3.014591 1.091424 -0.393058
3.014266 1.091602 -0.403618
3.001438 1.091550 -0.413447
3.003432 1.042242 -0.398710
3.015818 1.042501 -0.394151
3.015493 1.042679 -0.404712
3.002665 1.042627 -0.414541
3.026804 1.091717 -0.383608
3.027039 1.091652 -0.394192
3.014536 1.091428 -0.393459
3.014861 1.091252 -0.382898
3.028166 1.042785 -0.383871
3.028401 1.042721 -0.394456
3.015898 1.042497 -0.393722
3.016223 1.042321 -0.383161
3.027304 1.091655 -0.393907
3.014476 1.091609 -0.403735
3.014801 1.091431 -0.393174
3.028131 1.042718 -0.394758
3.015303 1.042672 -0.404586
3.015628 1.042494 -0.394025
3.015011 1.091563 -0.369654
3.017956 1.092114 -0.356072
3.030113 1.093700 -0.373182
3.021971 1.043112 -0.369198
3.024916 1.043662 -0.355617
3.037073 1.045248 -0.372727
3.030978 1.093743 -0.374756
3.024873 1.091521 -0.385519
3.012930 1.091057 -0.384809
3.015876 1.091607 -0.371228
3.036206 1.045204 -0.371174
3.030101 1.042982 -0.381937
3.018159 1.042518 -0.381227
3.021104 1.043068 -0.367646
3.016279 1.081093 -0.447913
3.028103 1.085063 -0.453210
3.027579 1.075277 -0.456691
3.012729 1.071779 -0.449577
3.039382 1.065344 -0.407734
3.051206 1.069313 -0.413031
3.050682 1.059528 -0.416511
3.035833 1.056030 -0.409398
3.027590 1.083777 -0.453371
3.047275 1.090508 -0.463538
3.041915 1.077490 -0.463965
3.027066 1.073992 -0.456851
3.051750 1.070608 -0.412885
3.071435 1.077339 -0.423053
3.066076 1.064321 -0.423479
3.051226 1.060822 -0.416366
3.027605 1.077005 -0.455939
3.023993 1.070083 -0.457226
3.012755 1.073507 -0.448826
3.050657 1.057787 -0.417268
3.047046 1.050865 -0.418555
3.035807 1.054289 -0.410155
3.042465 1.080503 -0.463059
3.035242 1.066659 -0.465633
3.024004 1.070083 -0.457233
3.027615 1.077005 -0.455946
3.065518 1.061286 -0.424388
3.058295 1.047442 -0.426962
3.047057 1.050865 -0.418562
3.050668 1.057787 -0.417275
3.034875 1.066478 -0.465500
3.027652 1.052635 -0.468074
3.018251 1.058322 -0.459217
3.023637 1.069902 -0.457099
3.058650 1.047600 -0.427100
3.051427 1.033756 -0.429675
3.042026 1.039443 -0.420817
3.047412 1.051023 -0.418700
3.023243 1.069205 -0.457181
3.017857 1.057625 -0.459299
3.008456 1.063313 -0.450443
3.012005 1.072628 -0.448781
3.047785 1.051730 -0.418600
3.042399 1.040150 -0.420718
3.032998 1.045838 -0.411862
3.036547 1.055153 -0.410200
3.024760 1.044160 -0.469929
3.014873 1.049384 -0.460921
3.017255 1.057280 -0.459058
3.026656 1.051593 -0.467916
3.050519 1.027346 -0.431851
3.040632 1.032569 -0.422842
3.043013 1.040466 -0.420980
3.052415 1.034778 -0.429837
3.014761 1.049279 -0.460891
3.005017 1.054690 -0.451835
3.007742 1.062863 -0.450173
3.017143 1.057175 -0.459028
3.040725 1.032685 -0.422854
3.030980 1.038096 -0.413799
3.033705 1.046269 -0.412137
3.043106 1.040581 -0.420992
3.022929 1.036468 -0.471998
3.012635 1.041595 -0.462875
3.014887 1.049308 -0.460963
3.024774 1.044085 -0.469971
3.048657 1.019789 -0.433839
3.038363 1.024916 -0.424716
3.040614 1.032629 -0.422804
3.050501 1.027406 -0.431812
3.012423 1.041622 -0.462719
3.002228 1.046613 -0.453418
3.004930 1.054746 -0.451751
3.014674 1.049335 -0.460806
3.038555 1.024899 -0.424855
3.028360 1.029891 -0.415554
3.031062 1.038024 -0.413887
3.040807 1.032613 -0.422942
3.021280 1.028541 -0.474182
3.010587 1.033809 -0.464971
3.012777 1.041474 -0.463023
3.023071 1.036347 -0.472145
3.046719 1.012090 -0.435732
3.036027 1.017357 -0.426522
3.038217 1.025022 -0.424573
3.048511 1.019895 -0.433696
3.010118 1.033992 -0.464572
2.999435 1.038554 -0.455001
3.002113 1.046649 -0.453323
3.012308 1.041657 -0.462623
3.036475 1.017183 -0.426902
3.025792 1.021745 -0.417332
3.028470 1.029839 -0.415654
3.038665 1.024848 -0.424954
3.025651 1.048012 -0.463664
3.018970 1.051145 -0.458738
3.031244 1.048416 -0.449555
3.041937 1.043149 -0.458765
3.009760 1.002341 -0.456056
3.003079 1.005474 -0.451130
3.015354 1.002745 -0.441947
3.026046 0.997478 -0.451157
3.018695 1.051370 -0.457832
3.011988 1.054429 -0.452897
3.020287 1.053204 -0.439079
3.030970 1.048642 -0.448649
3.003336 1.005256 -0.452021
2.996629 1.008315 -0.447085
3.004928 1.007089 -0.433267
3.015611 1.002528 -0.442838
3.026280 1.047926 -0.462685
3.010847 1.053581 -0.464056
3.019599 1.051058 -0.457759
3.009109 1.002434 -0.457045
2.993676 1.008089 -0.458416
3.002427 1.005566 -0.452119
3.019477 1.051127 -0.457565
3.010725 1.053650 -0.463862
3.012769 1.054186 -0.452629
3.002541 1.005501 -0.452306
2.993789 1.008024 -0.458603
2.995833 1.008560 -0.447371
3.094789 1.119338 -0.370606
3.109687 1.123295 -0.371421
3.099395 1.117561 -0.381610
3.107575 1.073824 -0.357908
3.122473 1.077782 -0.358724
3.112181 1.072048 -0.368913
3.032850 1.099598 -0.356391
3.012122 1.090059 -0.360397
3.016410 1.094036 -0.349840
3.051488 1.055265 -0.347256
3.030760 1.045726 -0.351263
3.035048 1.049704 -0.340706
3.016399 1.094033 -0.349836
3.012111 1.090055 -0.360392
2.999954 1.088469 -0.343283
3.035037 1.049700 -0.340702
3.030749 1.045722 -0.351258
3.018592 1.044136 -0.334150
3.088747 1.111685 -0.391930
3.081161 1.111244 -0.384731
3.079535 1.115241 -0.369922
3.099040 1.117421 -0.381742
3.102216 1.066440 -0.378984
3.094630 1.065999 -0.371784
3.093004 1.069995 -0.356976
3.112508 1.072176 -0.368796
3.099386 1.117559 -0.381609
3.079882 1.115379 -0.369789
3.094781 1.119336 -0.370605
3.112169 1.072045 -0.368913
3.092665 1.069864 -0.357093
3.107564 1.073821 -0.357908
3.063754 1.037622 -0.291167
3.044703 1.045683 -0.291007
3.039253 1.033867 -0.288559
3.059078 1.026477 -0.289114
3.059806 1.029920 -0.339347
3.040756 1.037982 -0.339187
3.035306 1.026165 -0.336739
3.055130 1.018775 -0.337294
3.066560 1.045943 -0.293441
3.045403 1.047674 -0.291479
3.064454 1.039612 -0.291639
3.061225 1.034274 -0.340680
3.040068 1.036004 -0.338718
3.059119 1.027943 -0.338878
3.043027 1.046591 -0.291089
3.023419 1.055441 -0.292544
3.018210 1.043916 -0.290233
3.037577 1.034775 -0.288642
3.042393 1.037091 -0.339106
3.022786 1.045942 -0.340560
3.017577 1.034416 -0.338249
3.036943 1.025275 -0.336658
3.037493 1.034768 -0.288639
3.018126 1.043910 -0.290231
3.012917 1.032386 -0.287924
3.032041 1.022946 -0.286216
3.037017 1.025257 -0.336655
3.017650 1.034399 -0.338247
3.012441 1.022875 -0.335940
3.031565 1.013435 -0.334232
3.023328 1.055317 -0.292518
3.003678 1.064189 -0.293978
2.998683 1.052890 -0.291801
3.018119 1.043791 -0.290208
3.022838 1.046084 -0.340588
3.003188 1.054957 -0.342048
2.998193 1.043657 -0.339871
3.017629 1.034559 -0.338278
3.018058 1.043839 -0.290216
2.998622 1.052937 -0.291810
2.993723 1.041750 -0.289618
3.012849 1.032314 -0.287909
3.017679 1.034489 -0.338264
2.998243 1.043587 -0.339858
2.993344 1.032401 -0.337666
3.012470 1.022965 -0.335958
3.064174 1.066891 -0.329719
3.047407 1.067535 -0.326119
3.044739 1.066003 -0.311743
3.065896 1.064272 -0.313705
3.060162 1.018571 -0.336445
3.043395 1.019215 -0.332845
3.040727 1.017682 -0.318470
3.061884 1.015952 -0.320431
3.044441 1.070645 -0.324201
3.033139 1.072465 -0.311598
3.052746 1.063614 -0.310143
3.055414 1.065147 -0.324519
3.024381 1.027110 -0.334125
3.013079 1.028930 -0.321522
3.032686 1.020079 -0.320067
3.035354 1.021611 -0.334443
3.032970 1.071963 -0.309519
3.044273 1.070144 -0.322123
3.028166 1.078216 -0.321659
3.013320 1.080835 -0.310979
3.013214 1.029447 -0.323601
3.024517 1.027628 -0.336205
3.008410 1.035700 -0.335741
2.993564 1.038319 -0.325061
3.017205 1.087564 -0.329556
3.005018 1.089091 -0.326394
3.011373 1.080854 -0.308883
3.026219 1.078235 -0.319563
3.001317 1.045028 -0.347844
2.989130 1.046555 -0.344682
2.995485 1.038318 -0.327171
3.010331 1.035699 -0.337852
2.984142 1.082120 -0.320448
2.973744 1.071240 -0.314781
2.985502 1.062584 -0.300761
