2.967433 0.666432 0.913488
2.964018 0.680004 0.884609
2.962676 0.654839 0.884837
2.966946 0.655188 0.913383
3.093813 0.660024 0.895100
3.090399 0.673595 0.866221
3.089057 0.648430 0.866449
3.093327 0.648779 0.894995
2.964047 0.680397 0.884657
2.960634 0.693967 0.855778
2.958439 0.654882 0.856339
2.962704 0.655232 0.884885
3.090363 0.673216 0.866116
3.086951 0.686786 0.837237
3.084756 0.647701 0.837797
3.089021 0.648051 0.866344
2.967010 0.655176 0.913813
2.962740 0.654827 0.885267
2.961395 0.629663 0.885496
2.966522 0.643932 0.913708
3.093262 0.648755 0.894565
3.088992 0.648406 0.866019
3.087647 0.623241 0.866247
3.092773 0.637510 0.894460
2.962738 0.655204 0.885121
2.958473 0.654854 0.856574
2.956278 0.615769 0.857135
2.961393 0.630039 0.885349
3.088984 0.648015 0.866109
3.084719 0.647665 0.837562
3.082524 0.608580 0.838123
3.087639 0.622850 0.866337
2.991553 0.724139 0.899425
3.003507 0.727266 0.913916
3.011607 0.740236 0.897491
2.988141 0.737709 0.870545
3.062876 0.629509 0.851369
3.074831 0.632636 0.865860
3.082931 0.645606 0.849435
3.059464 0.643079 0.822490
3.007601 0.731666 0.910305
3.019555 0.734796 0.924797
3.039170 0.747139 0.919961
3.015702 0.744637 0.893880
3.070772 0.628241 0.869512
3.082726 0.631371 0.884005
3.102340 0.643714 0.879169
3.078872 0.641212 0.853087
3.107084 0.753103 0.913222
3.108139 0.753480 0.905575
3.082515 0.758209 0.902626
3.067364 0.760287 0.922341
3.083619 0.627550 0.907133
3.084674 0.627927 0.899485
3.059050 0.632656 0.896536
3.043899 0.634734 0.916251
3.064247 0.681839 0.962457
3.061121 0.676026 0.959722
3.086746 0.671297 0.962671
3.087695 0.676499 0.964145
3.083580 0.720657 0.842163
3.080454 0.714844 0.839428
3.106078 0.710115 0.842377
3.107028 0.715317 0.843851
2.966553 0.643131 0.914139
2.961426 0.628862 0.885927
2.964325 0.626027 0.904269
2.966828 0.639370 0.917309
3.092743 0.638290 0.894040
3.087616 0.624020 0.865828
3.090515 0.621185 0.884170
3.093018 0.634529 0.897210
2.961460 0.628280 0.886255
2.956345 0.614011 0.858041
2.961859 0.612102 0.891557
2.964358 0.625446 0.904598
3.087575 0.624574 0.865458
3.082460 0.610304 0.837243
3.087974 0.608395 0.870759
3.090473 0.621739 0.883800
2.966778 0.638634 0.917145
2.964275 0.625291 0.904106
2.967175 0.622455 0.922448
2.967066 0.634873 0.920314
3.093070 0.635258 0.897394
3.090567 0.621915 0.884355
3.093467 0.619080 0.902696
3.093358 0.631498 0.900562
2.964347 0.625041 0.904591
2.961847 0.611697 0.891550
2.967361 0.609789 0.925067
2.967247 0.622206 0.922933
3.090493 0.622139 0.883859
3.087994 0.608795 0.870818
3.093508 0.606886 0.904335
3.093393 0.619303 0.902200
3.081307 0.538285 0.913181
3.052105 0.541580 0.913142
3.049847 0.542538 0.893730
3.082305 0.538101 0.907859
3.096488 0.665213 0.916375
3.067286 0.668507 0.916336
3.065029 0.669465 0.896924
3.097487 0.665028 0.911054
3.052478 0.541561 0.912349
3.023263 0.544843 0.912319
3.017749 0.546752 0.878802
3.050221 0.542519 0.892937
3.066851 0.668534 0.917114
3.037636 0.671816 0.917084
3.032122 0.673724 0.883567
3.064594 0.669491 0.897702
3.081778 0.538166 0.907857
3.049320 0.542603 0.893728
3.047060 0.543451 0.874313
3.082775 0.538099 0.902539
3.098013 0.664963 0.911031
3.065555 0.669401 0.896901
3.063296 0.670248 0.877486
3.099011 0.664896 0.905712
3.049909 0.542550 0.893089
3.017437 0.546782 0.878954
3.011923 0.548691 0.845438
3.047650 0.543397 0.873674
3.064898 0.669464 0.897497
3.032426 0.673696 0.883362
3.026912 0.675605 0.849847
3.062638 0.670311 0.878083
3.042102 0.739905 0.869099
3.051866 0.741102 0.871587
3.057166 0.727877 0.859196
3.030036 0.650325 0.959549
3.039800 0.651522 0.962037
3.045100 0.638297 0.949646
3.026824 0.699432 0.847588
3.007210 0.687088 0.852424
3.011761 0.711460 0.857491
3.075431 0.666725 0.961249
3.055817 0.654382 0.966085
3.060368 0.678753 0.971152
3.020316 0.737398 0.918095
3.008363 0.734268 0.903603
3.000702 0.725054 0.922931
3.081942 0.628749 0.890726
3.069988 0.625620 0.876233
3.062327 0.616406 0.895562
3.040814 0.759185 0.906317
3.050578 0.760382 0.908805
3.065728 0.758303 0.889090
3.050878 0.633449 0.927307
3.060641 0.634646 0.929794
3.075792 0.632568 0.910079
3.039735 0.726526 0.853121
3.020121 0.714183 0.857957
3.014821 0.727408 0.870348
3.101782 0.664335 0.946039
3.082168 0.651991 0.950875
3.076868 0.665216 0.963266
2.998110 0.722250 0.914645
2.986156 0.719123 0.900154
2.989570 0.705551 0.929032
3.080224 0.637629 0.865168
3.068269 0.634502 0.850677
3.071684 0.620930 0.879555
2.979552 0.697130 0.874485
2.971012 0.680431 0.888872
2.971892 0.687916 0.893814
3.098784 0.662745 0.905351
3.090244 0.646046 0.919737
3.091124 0.653531 0.924679
