-0.524404 0.716342 -0.677103
-0.522251 0.673010 -0.677995
-0.552428 0.673164 -0.676858
-0.554581 0.716496 -0.675966
-0.519154 0.713727 -0.537366
-0.517002 0.670395 -0.538258
-0.547178 0.670548 -0.537121
-0.549331 0.713880 -0.536229
-0.522249 0.672967 -0.677995
-0.520097 0.629635 -0.678887
-0.550273 0.629788 -0.677751
-0.552426 0.673120 -0.676859
-0.517000 0.670351 -0.538259
-0.514847 0.627019 -0.539151
-0.545024 0.627173 -0.538014
-0.547176 0.670505 -0.537122
-0.554611 0.716496 -0.675965
-0.552458 0.673164 -0.676857
-0.582635 0.673317 -0.675720
-0.584787 0.716649 -0.674828
-0.549361 0.713880 -0.536228
-0.547209 0.670548 -0.537120
-0.577385 0.670701 -0.535983
-0.579538 0.714033 -0.535091
-0.552456 0.673120 -0.676858
-0.550304 0.629788 -0.677750
-0.580480 0.629942 -0.676613
-0.582633 0.673274 -0.675721
-0.547206 0.670505 -0.537121
-0.545054 0.627173 -0.538013
-0.575230 0.627326 -0.536876
-0.577383 0.670658 -0.535984
-0.581785 0.783976 -0.518915
-0.551608 0.783823 -0.520052
-0.551600 0.784476 -0.562504
-0.581776 0.784629 -0.561367
-0.582576 0.644135 -0.521066
-0.552399 0.643982 -0.522203
-0.552391 0.644635 -0.564655
-0.582567 0.644788 -0.563519
-0.551578 0.783823 -0.520053
-0.521401 0.783670 -0.521189
-0.521393 0.784323 -0.563642
-0.551569 0.784476 -0.562505
-0.552369 0.643982 -0.522204
-0.522192 0.643828 -0.523341
-0.522184 0.644482 -0.565793
-0.552361 0.644635 -0.564657
-0.581776 0.784630 -0.561410
-0.551600 0.784477 -0.562547
-0.551591 0.785130 -0.604999
-0.581768 0.785283 -0.603862
-0.582568 0.644789 -0.563561
-0.552391 0.644636 -0.564698
-0.552383 0.645289 -0.607150
-0.582559 0.645442 -0.606014
-0.551569 0.784477 -0.562548
-0.521393 0.784323 -0.563684
-0.521385 0.784977 -0.606137
-0.551561 0.785130 -0.605000
-0.552361 0.644635 -0.564699
-0.522184 0.644482 -0.565836
-0.522176 0.645135 -0.608288
-0.552353 0.645289 -0.607152
-0.519171 0.712419 -0.452376
-0.549347 0.712572 -0.451239
-0.547195 0.669240 -0.452131
-0.517018 0.669087 -0.453268
-0.524420 0.715035 -0.592113
-0.554597 0.715188 -0.590976
-0.552444 0.671856 -0.591868
-0.522268 0.671703 -0.593005
-0.517016 0.669044 -0.453269
-0.547193 0.669197 -0.452132
-0.545040 0.625865 -0.453024
-0.514863 0.625712 -0.454161
-0.522265 0.671660 -0.593006
-0.552442 0.671813 -0.591869
-0.550290 0.628481 -0.592761
-0.520113 0.628328 -0.593898
-0.549378 0.712573 -0.451238
-0.579554 0.712726 -0.450101
-0.577402 0.669394 -0.450993
-0.547225 0.669241 -0.452130
-0.554627 0.715188 -0.590975
-0.584804 0.715342 -0.589838
-0.582651 0.672010 -0.590730
-0.552475 0.671856 -0.591867
-0.547223 0.669197 -0.452131
-0.577399 0.669351 -0.450994
-0.575247 0.626019 -0.451886
-0.545070 0.625865 -0.453023
-0.552473 0.671813 -0.591868
-0.582649 0.671966 -0.590731
-0.580497 0.628634 -0.591623
-0.550320 0.628481 -0.592760
-0.520095 0.629592 -0.678888
-0.517942 0.586260 -0.679780
-0.548119 0.586413 -0.678644
-0.550271 0.629745 -0.677752
-0.514845 0.626976 -0.539151
-0.512692 0.583644 -0.540043
-0.542869 0.583797 -0.538907
-0.545021 0.627129 -0.538015
-0.550301 0.629745 -0.677751
-0.548149 0.586413 -0.678643
-0.578326 0.586566 -0.677506
-0.580478 0.629898 -0.676614
-0.545052 0.627129 -0.538014
-0.542899 0.583797 -0.538906
-0.573076 0.583951 -0.537769
-0.575228 0.627283 -0.536877
-0.514861 0.625668 -0.454161
-0.545038 0.625822 -0.453025
-0.542885 0.582490 -0.453917
-0.512709 0.582336 -0.455053
-0.520111 0.628284 -0.593898
-0.550287 0.628437 -0.592762
-0.548135 0.585105 -0.593654
-0.517958 0.584952 -0.594790
-0.545068 0.625822 -0.453024
-0.575244 0.625975 -0.451887
-0.573092 0.582643 -0.452779
-0.542915 0.582490 -0.453916
-0.550318 0.628438 -0.592761
-0.580494 0.628591 -0.591624
-0.578342 0.585259 -0.592516
-0.548165 0.585106 -0.593653
