0.341636 0.230899 -0.747444
0.315736 0.279456 -0.748266
0.355403 0.319449 -0.749855
0.405555 0.295121 -0.749999
0.341203 0.230179 -0.776382
0.315303 0.278736 -0.777204
0.354970 0.318729 -0.778793
0.405122 0.294401 -0.778937
0.363970 0.375129 -0.751370
0.419496 0.384656 -0.752438
0.363537 0.374409 -0.780308
0.419064 0.383935 -0.781375
0.338164 0.425220 -0.752231
0.378135 0.465303 -0.753827
0.337732 0.424499 -0.781169
0.377702 0.464583 -0.782765
0.287843 0.450593 -0.752111
0.297269 0.506259 -0.753638
0.287410 0.449872 -0.781048
0.296836 0.505538 -0.782576
0.232232 0.441552 -0.751053
0.207787 0.491880 -0.751941
0.231800 0.440831 -0.779991
0.207354 0.491159 -0.780879
0.192565 0.401555 -0.749464
0.143867 0.427657 -0.749386
0.192132 0.400835 -0.778402
0.143435 0.426937 -0.778323
0.183999 0.345875 -0.747949
0.129926 0.338123 -0.746947
0.183566 0.345154 -0.776887
0.129493 0.337402 -0.775885
0.209803 0.295785 -0.747088
0.171288 0.257476 -0.745558
0.209371 0.295064 -0.776026
0.170855 0.256755 -0.774495
0.260122 0.270416 -0.747209
0.252153 0.216520 -0.745747
0.259689 0.269695 -0.776146
0.251721 0.215799 -0.774685
0.286981 0.330652 -0.749111
0.286447 0.304217 -0.748444
0.259658 0.305622 -0.748079
0.255440 0.331711 -0.748665
0.286548 0.329931 -0.778049
0.286014 0.303497 -0.777382
0.259225 0.304901 -0.777016
0.255007 0.330991 -0.777603
0.228729 0.314150 -0.747828
0.223261 0.330769 -0.748160
0.228296 0.313429 -0.776766
0.222829 0.330049 -0.777098
0.240583 0.359554 -0.749136
0.240150 0.358834 -0.778074
0.225011 0.391420 -0.749697
0.224578 0.390700 -0.778635
0.236551 0.405958 -0.750232
0.257260 0.386334 -0.750053
0.236118 0.405238 -0.779169
0.256827 0.385614 -0.778991
0.303665 0.357430 -0.750027
0.303233 0.356709 -0.778965
0.288801 0.385269 -0.750498
0.288369 0.384548 -0.779436
0.272124 0.358492 -0.749582
0.273031 0.385802 -0.750275
0.271691 0.357771 -0.778519
0.272598 0.385081 -0.779213
0.271210 0.331182 -0.748888
0.270777 0.330461 -0.777826
0.286906 0.449032 -0.814784
0.337227 0.423659 -0.814905
0.287864 0.383708 -0.813172
0.256323 0.384773 -0.812726
0.235614 0.404397 -0.812905
0.231295 0.439991 -0.813727
0.191627 0.399994 -0.812138
0.224074 0.389860 -0.812371
0.239646 0.357994 -0.811810
0.183062 0.344314 -0.810623
0.254502 0.330150 -0.811339
0.222324 0.329208 -0.810834
0.258720 0.304061 -0.810752
0.227792 0.312589 -0.810502
0.208866 0.294224 -0.809762
0.259185 0.268855 -0.809883
0.285509 0.302657 -0.811118
0.314799 0.277896 -0.810940
0.354465 0.317889 -0.812529
0.286044 0.329091 -0.811784
0.363033 0.373569 -0.814043
0.302728 0.355869 -0.812701
0.271187 0.356931 -0.812255
0.272093 0.384241 -0.812949
0.270273 0.329621 -0.811561
0.286892 0.382090 -0.878144
0.301756 0.354251 -0.877673
0.270215 0.355313 -0.877228
0.271122 0.382622 -0.877922
0.285072 0.327473 -0.876757
0.269301 0.328003 -0.876534
0.238674 0.356375 -0.876782
0.253530 0.328532 -0.876311
0.255350 0.383155 -0.877699
