1.749952 1.711780 -0.630670
1.741016 1.658870 -0.667235
1.734275 1.626326 -0.607044
1.739781 1.662096 -0.577154
1.848288 1.694285 -0.628697
1.839352 1.641375 -0.665261
1.832611 1.608831 -0.605070
1.838118 1.644601 -0.575180
1.740827 1.657715 -0.667391
1.732083 1.599310 -0.695916
1.727604 1.577634 -0.630857
1.734086 1.625171 -0.607200
1.839526 1.642433 -0.665165
1.830783 1.584029 -0.693689
1.826303 1.562353 -0.628630
1.832785 1.609889 -0.604973
1.731965 1.598471 -0.696113
1.724433 1.538021 -0.720421
1.720456 1.523581 -0.652760
1.727486 1.576795 -0.631054
1.830886 1.584758 -0.693542
1.823354 1.524308 -0.717849
1.819377 1.509867 -0.650188
1.826407 1.563082 -0.628482
1.724401 1.537716 -0.720745
1.717129 1.476786 -0.743914
1.713523 1.467417 -0.674310
1.720424 1.523275 -0.653084
1.823372 1.524498 -0.717570
1.816100 1.463568 -0.740739
1.812494 1.454199 -0.671135
1.819394 1.510057 -0.649909
1.717044 1.476065 -0.744102
1.710374 1.414376 -0.765340
1.707348 1.409702 -0.695101
1.713438 1.466696 -0.674498
1.816171 1.464171 -0.740594
1.809502 1.402483 -0.761833
1.806475 1.397808 -0.691593
1.812565 1.454802 -0.670991
1.710322 1.413924 -0.765336
1.703972 1.351668 -0.784721
1.701694 1.352532 -0.714990
1.707295 1.409250 -0.695097
1.809542 1.402816 -0.761878
1.803192 1.340560 -0.781263
1.800914 1.341423 -0.711531
1.806515 1.398141 -0.691638
1.704153 1.338977 -0.784236
1.712439 1.281521 -0.803897
1.710903 1.283145 -0.733949
1.701874 1.339841 -0.714504
1.803014 1.353134 -0.781788
1.811300 1.295678 -0.801449
1.809764 1.297301 -0.731501
1.800736 1.353997 -0.712056
1.739618 1.661172 -0.576676
1.734111 1.625403 -0.606566
1.730322 1.604351 -0.554985
1.734727 1.633630 -0.545203
1.838268 1.645459 -0.575559
1.832762 1.609689 -0.605449
1.828972 1.588638 -0.553868
1.833377 1.617917 -0.544086
1.733981 1.624526 -0.606728
1.727500 1.576989 -0.630385
1.724445 1.561068 -0.569398
1.730192 1.603474 -0.555147
1.832880 1.610489 -0.605326
1.826399 1.562952 -0.628983
1.823344 1.547031 -0.567995
1.829091 1.589437 -0.553745
1.727468 1.576763 -0.630409
1.720438 1.523548 -0.652115
1.717875 1.511923 -0.586373
1.724414 1.560841 -0.569422
1.826417 1.563083 -0.628997
1.819387 1.509868 -0.650703
1.816824 1.498242 -0.584961
1.823363 1.547161 -0.568010
1.720378 1.523083 -0.652228
1.713477 1.467225 -0.673454
1.711338 1.459271 -0.605201
1.717815 1.511458 -0.586485
1.819434 1.510228 -0.650630
1.812533 1.454370 -0.671856
1.810394 1.446416 -0.603603
1.816871 1.498602 -0.584888
1.713369 1.466324 -0.673549
1.707279 1.409330 -0.694151
1.705585 1.404752 -0.624751
1.711230 1.458370 -0.605295
1.812628 1.455161 -0.671801
1.806538 1.398167 -0.692404
1.804844 1.393589 -0.623003
1.810489 1.447207 -0.603548
1.707232 1.408891 -0.694159
1.701630 1.352172 -0.714052
1.700274 1.350668 -0.644284
1.705538 1.404313 -0.624758
1.806574 1.398496 -0.692436
1.800973 1.341777 -0.712329
1.799617 1.340273 -0.642561
1.804881 1.393918 -0.623035
1.701999 1.338958 -0.714024
1.711027 1.282262 -0.733469
1.710345 1.282095 -0.663453
1.700643 1.337454 -0.644256
1.800608 1.354880 -0.712396
1.809637 1.298184 -0.731841
1.808955 1.298016 -0.661825
1.799253 1.353376 -0.642628
1.749962 1.711842 -0.630626
1.739791 1.662157 -0.577109
1.741406 1.675537 -0.527666
1.750196 1.722257 -0.560708
1.848286 1.694280 -0.628648
1.838116 1.644596 -0.575131
1.839731 1.657976 -0.525688
1.848520 1.704695 -0.558731
1.739648 1.661366 -0.576523
1.734757 1.633824 -0.545050
1.734797 1.635457 -0.505553
1.741263 1.674746 -0.527080
1.838244 1.645305 -0.575647
1.833353 1.617763 -0.544174
1.833393 1.619397 -0.504677
1.839859 1.658685 -0.526204
1.734664 1.633247 -0.544843
1.730259 1.603968 -0.554625
1.728800 1.595947 -0.502133
1.734705 1.634881 -0.505345
1.833434 1.618272 -0.544358
1.829029 1.588993 -0.554141
1.827570 1.580972 -0.501649
1.833475 1.619906 -0.504861
1.730166 1.603319 -0.554755
1.724419 1.560912 -0.569005
1.722644 1.551648 -0.508675
1.728706 1.595298 -0.502263
1.829112 1.589566 -0.554024
1.823365 1.547159 -0.568275
1.821590 1.537894 -0.507945
1.827652 1.581544 -0.501533
1.724402 1.560783 -0.569089
1.717863 1.511865 -0.586040
1.716166 1.503870 -0.521138
1.722626 1.551519 -0.508758
1.823370 1.547196 -0.568217
1.816831 1.498278 -0.585168
1.815134 1.490283 -0.520266
1.821594 1.537932 -0.507886
1.717799 1.511375 -0.586146
1.711323 1.459188 -0.604861
1.709818 1.453180 -0.537354
1.716102 1.503380 -0.521244
1.816882 1.498668 -0.585094
1.810406 1.446482 -0.603809
1.808901 1.440473 -0.536302
1.815185 1.490673 -0.520192
1.711212 1.458251 -0.604983
1.705567 1.404633 -0.624438
1.704258 1.400792 -0.555572
1.709708 1.452242 -0.537476
1.810504 1.447315 -0.603724
1.804859 1.393697 -0.623179
1.803549 1.389856 -0.554313
1.809000 1.441307 -0.536217
1.705526 1.404242 -0.624495
1.700263 1.350598 -0.644021
1.699125 1.348769 -0.574444
1.704217 1.400401 -0.555630
1.804889 1.393982 -0.623159
1.799626 1.340338 -0.642685
1.798488 1.338509 -0.573107
1.803580 1.390141 -0.554293
1.700772 1.336681 -0.644110
1.710474 1.281321 -0.663308
1.709885 1.281071 -0.593323
1.699634 1.334852 -0.574533
1.799122 1.354147 -0.642634
1.808824 1.298788 -0.661831
1.808236 1.298537 -0.591846
1.797984 1.352318 -0.573056
1.750162 1.722109 -0.560188
1.741372 1.675389 -0.527145
1.741972 1.681101 -0.467308
1.750226 1.728197 -0.489750
1.848556 1.704861 -0.559126
1.839766 1.658142 -0.526083
1.840366 1.663854 -0.466246
1.848620 1.710950 -0.488688
1.741250 1.674677 -0.526842
1.734784 1.635389 -0.505315
1.734707 1.636534 -0.450623
1.741849 1.680389 -0.467005
1.839873 1.658765 -0.526339
1.833407 1.619477 -0.504812
1.833331 1.620622 -0.450120
1.840473 1.664477 -0.466502
1.734698 1.634838 -0.505257
1.728793 1.595904 -0.502045
1.728063 1.592514 -0.444238
1.734621 1.635983 -0.450565
1.833481 1.619945 -0.504846
1.827576 1.581011 -0.501634
1.826846 1.577621 -0.443827
1.833404 1.621090 -0.450154
1.728713 1.595355 -0.502083
1.722650 1.551705 -0.508495
1.721597 1.546577 -0.446678
1.727983 1.591965 -0.444276
1.827643 1.581475 -0.501596
1.821580 1.537825 -0.508008
1.820527 1.532697 -0.446191
1.826913 1.578085 -0.443789
1.722620 1.551485 -0.508531
1.716160 1.503837 -0.520911
1.715118 1.498733 -0.455902
1.721567 1.546358 -0.446714
1.821598 1.537951 -0.507988
1.815137 1.490303 -0.520367
1.814095 1.485199 -0.455358
1.820544 1.532824 -0.446170
1.716092 1.503319 -0.520951
1.709808 1.453119 -0.537061
1.708869 1.448920 -0.469899
1.715050 1.498215 -0.455942
1.815193 1.490723 -0.520352
1.808909 1.440523 -0.536463
1.807970 1.436323 -0.469300
1.814151 1.485619 -0.455343
1.709695 1.452159 -0.537137
1.704245 1.400708 -0.555233
1.703427 1.397749 -0.486707
1.708756 1.447960 -0.469975
1.809010 1.441382 -0.536420
1.803560 1.389931 -0.554516
1.802741 1.386973 -0.485990
1.808071 1.437183 -0.469257
1.704209 1.400362 -0.555300
1.699118 1.348729 -0.574113
1.698332 1.347060 -0.504728
1.703391 1.397403 -0.486773
1.803585 1.390176 -0.554485
1.798494 1.338543 -0.573299
1.797708 1.336874 -0.503914
1.802767 1.387217 -0.485959
1.699733 1.334300 -0.574381
1.709985 1.280519 -0.593171
1.709336 1.279922 -0.523180
1.698947 1.332631 -0.504996
1.797884 1.352868 -0.573069
1.808135 1.299087 -0.591859
1.807486 1.298490 -0.521868
1.797097 1.351199 -0.503684
1.750189 1.728003 -0.489439
1.741935 1.680907 -0.466997
1.742022 1.683239 -0.402379
1.750006 1.729710 -0.418735
1.848656 1.711152 -0.488866
1.840402 1.664056 -0.466424
1.840489 1.666388 -0.401806
1.848473 1.712860 -0.418161
1.741847 1.680376 -0.466906
1.734705 1.636520 -0.450524
1.734544 1.637096 -0.389263
1.741934 1.682708 -0.402288
1.840475 1.664496 -0.466481
1.833333 1.620640 -0.450099
1.833172 1.621215 -0.388838
1.840562 1.666828 -0.401863
1.734612 1.635927 -0.450474
1.728054 1.592459 -0.444148
1.727631 1.590862 -0.382659
1.734451 1.636502 -0.389214
1.833412 1.621144 -0.450127
1.826854 1.577675 -0.443800
1.826430 1.576079 -0.382312
1.833251 1.621719 -0.388867
1.727981 1.591957 -0.444108
1.721595 1.546569 -0.446510
1.721050 1.543717 -0.383277
1.727558 1.590360 -0.382620
1.826913 1.578086 -0.443835
1.820527 1.532699 -0.446236
1.819982 1.529847 -0.383003
1.826490 1.576490 -0.382346
1.721555 1.546278 -0.446479
1.715106 1.498653 -0.455667
1.714578 1.495505 -0.390480
1.721009 1.543426 -0.383246
1.820554 1.532896 -0.446277
1.814106 1.485271 -0.455465
1.813577 1.482124 -0.390277
1.820009 1.530045 -0.383044
1.715038 1.498130 -0.455662
1.708857 1.448834 -0.469619
1.708411 1.446021 -0.402748
1.714510 1.494983 -0.390474
1.814161 1.485697 -0.455491
1.807980 1.436401 -0.469448
1.807534 1.433587 -0.402578
1.813633 1.482549 -0.390304
1.708747 1.447889 -0.469664
1.703418 1.397679 -0.486396
1.703019 1.395542 -0.418235
1.708301 1.445076 -0.402793
1.808079 1.437247 -0.469432
1.802749 1.387037 -0.486165
1.802351 1.384900 -0.418004
1.807632 1.434434 -0.402562
1.703389 1.397403 -0.486460
1.698330 1.347060 -0.504415
1.697917 1.345674 -0.435239
1.702991 1.395266 -0.418299
1.802768 1.387213 -0.486135
1.797708 1.336870 -0.504090
1.797296 1.335484 -0.434913
1.802369 1.385076 -0.417973
1.699000 1.332338 -0.504706
1.709389 1.279629 -0.522890
1.708971 1.278936 -0.452941
1.698587 1.330952 -0.435529
1.797043 1.351489 -0.503834
1.807432 1.298781 -0.522019
1.807015 1.298087 -0.452069
1.796631 1.350104 -0.434658
1.749978 1.729547 -0.418642
1.741994 1.683076 -0.402286
1.741968 1.684418 -0.335637
1.749787 1.731271 -0.347943
1.848501 1.713026 -0.418118
1.840517 1.666554 -0.401762
1.840491 1.667896 -0.335113
1.848310 1.714749 -0.347419
1.741924 1.682649 -0.402138
1.734534 1.637037 -0.389113
1.734496 1.637391 -0.325134
1.741898 1.683991 -0.335488
1.840572 1.666889 -0.401885
1.833182 1.621277 -0.388860
1.833145 1.621631 -0.324881
1.840546 1.668231 -0.335235
1.734440 1.636430 -0.389004
1.727620 1.590790 -0.382449
1.727522 1.589981 -0.319215
1.734402 1.636784 -0.325025
1.833262 1.621791 -0.388951
1.826441 1.576151 -0.382396
1.826344 1.575342 -0.319162
1.833224 1.622145 -0.324972
1.727551 1.590310 -0.382396
1.721042 1.543667 -0.383053
1.720865 1.542059 -0.319265
1.727453 1.589501 -0.319161
1.826497 1.576537 -0.382444
1.819988 1.529894 -0.383101
1.819812 1.528287 -0.319313
1.826399 1.575729 -0.319210
1.720999 1.543345 -0.383032
1.714567 1.495424 -0.390265
1.714398 1.493501 -0.325286
1.720822 1.541738 -0.319244
1.820019 1.530120 -0.383129
1.813587 1.482200 -0.390362
1.813419 1.480276 -0.325383
1.819842 1.528513 -0.319341
1.714501 1.494918 -0.390265
1.708403 1.445956 -0.402540
1.708259 1.444132 -0.336204
1.714333 1.492994 -0.325286
1.813640 1.482609 -0.390381
1.807541 1.433647 -0.402655
1.807398 1.431823 -0.336320
1.813471 1.480686 -0.325401
1.708299 1.445060 -0.402586
1.703017 1.395526 -0.418028
1.702873 1.394038 -0.350368
1.708155 1.443235 -0.336251
1.807634 1.434445 -0.402635
1.802352 1.384912 -0.418076
1.802207 1.383424 -0.350417
1.807490 1.432621 -0.336299
1.702996 1.395324 -0.418104
1.697923 1.345732 -0.435044
1.697705 1.344688 -0.366165
1.702851 1.393836 -0.350444
1.802363 1.385015 -0.418031
1.797289 1.335423 -0.434971
1.797071 1.334380 -0.366092
1.802218 1.383527 -0.350371
1.698598 1.330890 -0.435353
1.708982 1.278874 -0.452765
1.708609 1.278183 -0.382771
1.698380 1.329847 -0.366474
1.796619 1.350163 -0.434695
1.807003 1.298147 -0.452107
1.806630 1.297456 -0.382112
1.796401 1.349120 -0.365816
1.749752 1.731066 -0.347760
1.741933 1.684213 -0.335454
1.742011 1.685155 -0.268140
1.749649 1.732514 -0.277051
1.848344 1.714957 -0.347463
1.840526 1.668104 -0.335157
1.840603 1.669046 -0.267843
1.848242 1.716405 -0.276755
1.741885 1.683914 -0.335330
1.734483 1.637314 -0.324975
1.734510 1.637604 -0.260170
1.741963 1.684856 -0.268016
1.840559 1.668309 -0.335262
1.833157 1.621709 -0.324908
1.833184 1.621999 -0.260103
1.840637 1.669251 -0.267948
1.734389 1.636697 -0.324921
1.727509 1.589894 -0.319111
1.727500 1.589496 -0.255522
1.734416 1.636987 -0.260116
1.833237 1.622232 -0.324947
1.826356 1.575428 -0.319137
1.826347 1.575030 -0.255548
1.833264 1.622522 -0.260142
1.727444 1.589436 -0.319050
1.720857 1.541994 -0.319154
1.720868 1.541072 -0.255604
1.727435 1.589038 -0.255461
1.826408 1.575791 -0.319194
1.819820 1.528349 -0.319297
1.819831 1.527427 -0.255748
1.826399 1.575393 -0.255604
1.720809 1.541637 -0.319077
1.714385 1.493400 -0.325119
1.714487 1.492221 -0.260806
1.720820 1.540715 -0.255528
1.819855 1.528610 -0.319379
1.813432 1.480374 -0.325421
1.813534 1.479195 -0.261107
1.819866 1.527689 -0.255830
1.714322 1.492901 -0.325050
1.708248 1.444038 -0.335969
1.708452 1.442841 -0.270416
1.714424 1.491721 -0.260737
1.813482 1.480776 -0.325506
1.807408 1.431914 -0.336424
1.807613 1.430717 -0.270872
1.813584 1.479597 -0.261192
1.708151 1.443187 -0.335957
1.702868 1.393990 -0.350074
1.703101 1.392969 -0.283078
1.708355 1.441990 -0.270404
1.807494 1.432667 -0.336460
1.802211 1.383469 -0.350577
1.802444 1.382449 -0.283581
1.807698 1.431470 -0.270907
1.702855 1.393863 -0.350125
1.697708 1.344716 -0.365846
1.697876 1.343956 -0.297319
1.703088 1.392843 -0.283129
1.802215 1.383497 -0.350555
1.797068 1.334350 -0.366276
1.797236 1.333590 -0.297749
1.802447 1.382477 -0.283559
1.698372 1.329881 -0.366127
1.708601 1.278217 -0.382424
1.708524 1.277766 -0.312412
1.698540 1.329121 -0.297601
1.796409 1.349084 -0.366024
1.806637 1.297421 -0.382321
1.806561 1.296970 -0.312309
1.796577 1.348324 -0.297498
1.749614 1.732294 -0.276959
1.741976 1.684935 -0.268048
1.742018 1.685672 -0.200817
1.749549 1.733611 -0.206248
1.848277 1.716627 -0.276709
1.840639 1.669268 -0.267798
1.840681 1.670004 -0.200567
1.848212 1.717944 -0.205998
1.741952 1.684786 -0.267936
1.734499 1.637534 -0.260090
1.734557 1.637776 -0.195512
1.741994 1.685522 -0.200705
1.840648 1.669322 -0.267896
1.833195 1.622070 -0.260050
1.833253 1.622313 -0.195472
1.840690 1.670059 -0.200665
1.734402 1.636888 -0.259993
1.727486 1.589396 -0.255399
1.727616 1.589180 -0.192277
1.734460 1.637130 -0.195415
1.833278 1.622621 -0.260137
1.826362 1.575130 -0.255542
1.826492 1.574913 -0.192420
1.833336 1.622864 -0.195559
1.727420 1.588921 -0.255290
1.720852 1.540955 -0.255433
1.721072 1.540391 -0.192632
1.727550 1.588704 -0.192168
1.826415 1.575509 -0.255648
1.819847 1.527543 -0.255792
1.820067 1.526979 -0.192991
1.826545 1.575292 -0.192526
1.720803 1.540578 -0.255337
1.714470 1.492084 -0.260615
1.714788 1.491321 -0.197207
1.721022 1.540014 -0.192536
1.819884 1.527824 -0.255893
1.813551 1.479329 -0.261171
1.813869 1.478567 -0.197763
1.820103 1.527259 -0.193092
1.714412 1.491613 -0.260552
1.708440 1.442733 -0.270232
1.708833 1.441938 -0.205583
1.714730 1.490850 -0.197144
1.813597 1.479703 -0.261248
1.807625 1.430824 -0.270927
1.808018 1.430028 -0.206278
1.813915 1.478941 -0.197840
1.708353 1.441957 -0.270223
1.703099 1.392936 -0.282897
1.703515 1.392228 -0.216617
1.708745 1.441162 -0.205574
1.807701 1.431501 -0.270957
1.802447 1.382480 -0.283631
1.802864 1.381772 -0.217351
1.808094 1.430706 -0.206308
1.703098 1.392933 -0.282960
1.697887 1.344045 -0.297150
1.698197 1.343541 -0.229054
1.703514 1.392224 -0.216681
1.802438 1.382386 -0.283593
1.797226 1.333499 -0.297783
1.797537 1.332994 -0.229687
1.802854 1.381678 -0.217313
1.698505 1.329301 -0.297425
1.708489 1.277946 -0.312236
1.708474 1.277718 -0.242249
1.698816 1.328797 -0.229329
1.796612 1.348143 -0.297535
1.806596 1.296789 -0.312346
1.806581 1.296560 -0.242360
1.796923 1.347639 -0.229439
1.749519 1.733421 -0.206173
1.741988 1.685482 -0.200742
1.741993 1.685933 -0.134264
1.749380 1.734243 -0.135458
1.848242 1.718136 -0.205935
1.840711 1.670196 -0.200504
1.840716 1.670647 -0.134026
1.848103 1.718958 -0.135220
1.741979 1.685424 -0.200629
1.734542 1.637678 -0.195436
1.734603 1.637810 -0.131810
1.741984 1.685875 -0.134151
1.840705 1.670157 -0.200611
1.833269 1.622412 -0.195418
1.833330 1.622543 -0.131792
1.840710 1.670609 -0.134133
1.734441 1.636995 -0.195341
1.727597 1.589044 -0.192203
1.727743 1.588885 -0.130036
1.734502 1.637126 -0.131715
1.833355 1.622999 -0.195506
1.826512 1.575048 -0.192368
1.826658 1.574890 -0.130201
1.833416 1.623131 -0.131881
1.727529 1.588544 -0.192080
1.721051 1.540231 -0.192544
1.721344 1.539835 -0.130670
1.727675 1.588385 -0.129913
1.826567 1.575452 -0.192489
1.820088 1.527139 -0.192953
1.820381 1.526742 -0.131079
1.826713 1.575293 -0.130322
1.721006 1.539878 -0.192421
1.714772 1.491186 -0.197092
1.715191 1.490652 -0.134581
1.721299 1.539482 -0.130546
1.820120 1.527394 -0.193082
1.813886 1.478701 -0.197753
1.814306 1.478167 -0.135242
1.820413 1.526998 -0.131207
1.714723 1.490787 -0.197030
1.708826 1.441874 -0.205468
1.709289 1.441300 -0.141611
1.715143 1.490253 -0.134519
1.813923 1.479002 -0.197827
1.808025 1.430090 -0.206265
1.808489 1.429516 -0.142407
1.814342 1.478468 -0.135316
1.708749 1.441192 -0.205495
1.703519 1.392258 -0.216539
1.703932 1.391747 -0.150870
1.709213 1.440618 -0.141638
1.808091 1.430674 -0.206256
1.802861 1.381740 -0.217300
1.803274 1.381229 -0.151631
1.808554 1.430100 -0.142398
1.703531 1.392376 -0.216633
1.698214 1.343693 -0.229007
1.698501 1.343313 -0.161253
1.703945 1.391865 -0.150964
1.802838 1.381525 -0.217227
1.797521 1.332841 -0.229600
1.797808 1.332461 -0.161846
1.803252 1.381014 -0.151558
1.698760 1.329094 -0.229286
1.708418 1.278015 -0.242207
1.708319 1.277819 -0.172240
1.699047 1.328714 -0.161532
1.796979 1.347341 -0.229344
1.806638 1.296262 -0.242264
1.806538 1.296066 -0.172298
1.797266 1.346961 -0.161590
1.749348 1.734035 -0.135354
1.741961 1.685725 -0.134161
1.741983 1.685837 -0.069610
1.749126 1.734114 -0.064629
1.848135 1.719167 -0.135187
1.840748 1.670856 -0.133994
1.840770 1.670969 -0.069443
1.847914 1.719246 -0.064462
1.741968 1.685774 -0.134035
1.734588 1.637709 -0.131695
1.734687 1.637682 -0.069865
1.741990 1.685887 -0.069484
1.840726 1.670710 -0.134120
1.833345 1.622644 -0.131779
1.833445 1.622617 -0.069950
1.840748 1.670822 -0.069569
1.734485 1.637006 -0.131607
1.727726 1.588765 -0.129928
1.727915 1.588567 -0.069021
1.734585 1.636978 -0.069778
1.833433 1.623251 -0.131865
1.826675 1.575010 -0.130185
1.826863 1.574813 -0.069278
1.833533 1.623224 -0.070035
1.727654 1.588224 -0.129825
1.721323 1.539673 -0.130581
1.721634 1.539334 -0.069585
1.727843 1.588026 -0.068918
1.826734 1.575454 -0.130287
1.820402 1.526903 -0.131044
1.820714 1.526565 -0.070047
1.826922 1.575256 -0.069380
1.721281 1.539339 -0.130470
1.715174 1.490509 -0.134504
1.715622 1.490071 -0.072647
1.721593 1.539000 -0.069473
1.820431 1.527140 -0.131160
1.814324 1.478309 -0.135195
1.814772 1.477871 -0.073337
1.820743 1.526801 -0.070163
1.715135 1.490181 -0.134417
1.709282 1.441229 -0.141508
1.709832 1.440758 -0.078166
1.715583 1.489743 -0.072559
1.814351 1.478539 -0.135292
1.808497 1.429586 -0.142384
1.809048 1.429116 -0.079042
1.814799 1.478101 -0.073435
1.709216 1.440637 -0.141483
1.703936 1.391766 -0.150715
1.704506 1.391314 -0.085419
1.709766 1.440166 -0.078141
1.808552 1.430080 -0.142424
1.803272 1.381210 -0.151656
1.803842 1.380758 -0.086360
1.809103 1.429610 -0.079082
1.703958 1.391974 -0.150767
1.698514 1.343421 -0.161056
1.698996 1.343052 -0.093498
1.704528 1.391523 -0.085471
1.803239 1.380904 -0.151622
1.797795 1.332352 -0.161910
1.798277 1.331982 -0.094352
1.803809 1.380453 -0.086325
1.699001 1.328966 -0.161286
1.708273 1.278071 -0.171994
1.708485 1.277792 -0.102008
1.699483 1.328596 -0.093728
1.797312 1.346708 -0.161698
1.806584 1.295813 -0.172406
1.806796 1.295535 -0.102420
1.797794 1.346338 -0.094140
1.749093 1.733888 -0.064667
1.741949 1.685611 -0.069648
1.741844 1.685601 -0.010296
1.748737 1.734132 0.006052
1.847947 1.719472 -0.064292
1.840803 1.671195 -0.069272
1.840698 1.671184 -0.009920
1.847591 1.719716 0.006428
1.741965 1.685721 -0.069456
1.734662 1.637516 -0.069837
1.734763 1.637348 -0.011026
1.741860 1.685711 -0.010104
1.840773 1.670988 -0.069475
1.833470 1.622783 -0.069856
1.833571 1.622614 -0.011045
1.840668 1.670977 -0.010123
1.734557 1.636772 -0.069616
1.727887 1.588360 -0.068859
1.728273 1.588062 -0.009345
1.734658 1.636603 -0.010805
1.833561 1.623430 -0.070077
1.826891 1.575019 -0.069319
1.827277 1.574720 -0.009805
1.833662 1.623261 -0.011266
1.727822 1.587851 -0.068652
1.721614 1.539160 -0.069319
1.722197 1.538766 -0.008915
1.728208 1.587553 -0.009138
1.826943 1.575430 -0.069525
1.820735 1.526739 -0.070192
1.821318 1.526345 -0.009789
1.827329 1.575132 -0.010011
1.721580 1.538872 -0.069203
1.715609 1.489942 -0.072377
1.716287 1.489501 -0.010776
1.722163 1.538478 -0.008800
1.820757 1.526929 -0.070311
1.814786 1.478000 -0.073484
1.815465 1.477559 -0.011884
1.821341 1.526536 -0.009907
1.715577 1.489666 -0.072337
1.709826 1.440681 -0.077944
1.710546 1.440220 -0.014731
1.716255 1.489225 -0.010736
1.814807 1.478178 -0.073532
1.809056 1.429193 -0.079139
1.809776 1.428732 -0.015927
1.815485 1.477737 -0.011931
1.709770 1.440184 -0.077969
1.704509 1.391332 -0.085247
1.705189 1.390894 -0.020044
1.710490 1.439723 -0.014756
1.809100 1.429592 -0.079125
1.803839 1.380740 -0.086404
1.804519 1.380302 -0.021201
1.809820 1.429131 -0.015913
1.704541 1.391628 -0.085322
1.699009 1.343157 -0.093349
1.699597 1.342763 -0.025873
1.705221 1.391190 -0.020119
1.803797 1.380346 -0.086341
1.798265 1.331875 -0.094368
1.798853 1.331481 -0.026892
1.804476 1.379908 -0.021138
1.699442 1.328831 -0.093583
1.708443 1.278027 -0.101863
1.708768 1.277722 -0.031869
1.700030 1.328436 -0.026107
1.797836 1.346103 -0.094148
1.806837 1.295299 -0.102428
1.807161 1.294994 -0.032434
1.798424 1.345708 -0.026672
1.748691 1.733796 0.006717
1.741798 1.685265 -0.009631
1.742136 1.684956 0.033850
1.847635 1.720035 0.005851
1.840742 1.671504 -0.010497
1.841080 1.671195 0.032984
1.741836 1.685527 -0.009557
1.734739 1.637163 -0.010479
1.735297 1.636747 0.044542
1.742174 1.685218 0.033923
1.840693 1.671161 -0.010562
1.833596 1.622798 -0.011484
1.834154 1.622381 0.043538
1.841030 1.670852 0.032919
1.734639 1.636432 -0.010398
1.728254 1.587891 -0.008938
1.728911 1.587435 0.049771
1.735197 1.636016 0.044623
1.833682 1.623432 -0.011556
1.827297 1.574890 -0.010096
1.827955 1.574435 0.048613
1.834241 1.623015 0.043465
1.728197 1.587441 -0.008903
1.722186 1.538654 -0.008681
1.722885 1.538185 0.051762
1.728854 1.586985 0.049806
1.827342 1.575243 -0.010126
1.821331 1.526456 -0.009904
1.822030 1.525986 0.050539
1.827999 1.574787 0.048583
1.722159 1.538434 -0.008675
1.716283 1.489457 -0.010651
1.716995 1.488980 0.051228
1.722859 1.537964 0.051768
1.821346 1.526579 -0.009910
1.815470 1.477602 -0.011886
1.816181 1.477125 0.049993
1.822045 1.526109 0.050533
1.716258 1.489247 -0.010683
1.710549 1.440241 -0.014679
1.711214 1.439778 0.048827
1.716970 1.488770 0.051196
1.815483 1.477714 -0.011859
1.809774 1.428709 -0.015854
1.810439 1.428245 0.047652
1.816195 1.477237 0.050020
1.710500 1.439816 -0.014753
1.705199 1.390987 -0.020040
1.705778 1.390535 0.045365
1.711165 1.439352 0.048754
1.809812 1.429037 -0.015788
1.804510 1.380208 -0.021075
1.805090 1.379756 0.044329
1.810477 1.428573 0.047718
1.705239 1.391350 -0.020148
1.699615 1.342922 -0.025902
1.700042 1.342504 0.041580
1.705818 1.390898 0.045256
1.804459 1.379748 -0.020976
1.798836 1.331321 -0.026730
1.799263 1.330903 0.040753
1.805039 1.379296 0.044429
1.699978 1.328736 -0.026185
1.708716 1.278021 -0.031946
1.708807 1.277614 0.037626
1.700405 1.328318 0.041298
1.798476 1.345408 -0.026457
1.807214 1.294694 -0.032219
1.807306 1.294287 0.037353
1.798903 1.344990 0.041025
1.748689 1.733778 0.006802
1.742134 1.684938 0.033934
1.742651 1.684184 0.093585
1.749176 1.732743 0.077515
1.847640 1.720068 0.005852
1.841084 1.671228 0.032985
1.841601 1.670474 0.092636
1.848126 1.719033 0.076565
1.742170 1.685191 0.033965
1.735294 1.636720 0.044584
1.735753 1.636073 0.104016
1.742687 1.684436 0.093616
1.841035 1.670879 0.032986
1.834158 1.622408 0.043605
1.834618 1.621761 0.103038
1.841551 1.670124 0.092637
1.735191 1.635980 0.044549
1.728905 1.587399 0.049697
1.729366 1.586819 0.110113
1.735651 1.635333 0.103981
1.834247 1.623051 0.043656
1.827961 1.574470 0.048804
1.828422 1.573890 0.109221
1.834707 1.622404 0.103089
1.728852 1.586978 0.049682
1.722883 1.538177 0.051638
1.723335 1.537646 0.113108
1.729312 1.586399 0.110098
1.828002 1.574793 0.048828
1.822034 1.525992 0.050784
1.822486 1.525461 0.112255
1.828463 1.574214 0.109244
1.722861 1.537994 0.051608
1.716997 1.489011 0.051068
1.717412 1.488522 0.113748
1.723313 1.537463 0.113078
1.822044 1.526078 0.050817
1.816180 1.477094 0.050277
1.816595 1.476605 0.112957
1.822496 1.525546 0.112287
1.716977 1.488846 0.051021
1.711221 1.439854 0.048652
1.711586 1.439387 0.112801
1.717392 1.488357 0.113701
1.816189 1.477160 0.050322
1.810433 1.428168 0.047954
1.810798 1.427701 0.112102
1.816604 1.476671 0.113003
1.711178 1.439478 0.048580
1.705791 1.390661 0.045191
1.706055 1.390216 0.111070
1.711543 1.439012 0.112728
1.810465 1.428446 0.048022
1.805078 1.379629 0.044633
1.805342 1.379183 0.110512
1.810830 1.427979 0.112171
1.705837 1.391061 0.045103
1.700061 1.342668 0.041428
1.700213 1.342216 0.109245
1.706101 1.390615 0.110983
1.805021 1.379131 0.044715
1.799245 1.330738 0.041039
1.799398 1.330286 0.108857
1.805285 1.378686 0.110594
1.700354 1.328625 0.041185
1.708756 1.277921 0.037512
1.708636 1.277392 0.107505
1.700506 1.328172 0.109003
1.798955 1.344683 0.041276
1.807357 1.293979 0.037604
1.807237 1.293450 0.107597
1.799107 1.344230 0.109094
1.749161 1.732637 0.077533
1.742636 1.684077 0.093604
1.743104 1.683091 0.158637
1.749597 1.731665 0.148246
1.848141 1.719138 0.076680
1.841616 1.670579 0.092750
1.842084 1.669592 0.157784
1.848577 1.718166 0.147393
1.742692 1.684473 0.093646
1.735759 1.636110 0.104046
1.736208 1.635261 0.166889
1.743160 1.683487 0.158679
1.841547 1.670086 0.092731
1.834613 1.621723 0.103131
1.835062 1.620874 0.165974
1.842014 1.669099 0.157764
1.735651 1.635327 0.104048
1.729366 1.586813 0.110180
1.729855 1.586095 0.172546
1.736100 1.634478 0.166891
1.834708 1.622409 0.103144
1.828423 1.573895 0.109276
1.828912 1.573177 0.171642
1.835157 1.621560 0.165987
1.729314 1.586402 0.110200
1.723337 1.537649 0.113211
1.723863 1.537039 0.175935
1.729803 1.585684 0.172566
1.828463 1.574209 0.109266
1.822485 1.525456 0.112276
1.823011 1.524845 0.175000
1.828952 1.573491 0.171631
1.723316 1.537477 0.113229
1.717415 1.488536 0.113899
1.717981 1.487989 0.177502
1.723842 1.536867 0.175953
1.822494 1.525530 0.112262
1.816593 1.476589 0.112932
1.817160 1.476042 0.176535
1.823020 1.524920 0.174986
1.717398 1.488396 0.113899
1.711593 1.439426 0.112999
1.712154 1.438921 0.177867
1.717964 1.487849 0.177503
1.816598 1.476631 0.112932
1.810793 1.427661 0.112032
1.811354 1.427156 0.176900
1.817165 1.476084 0.176536
1.711554 1.439095 0.112963
1.706066 1.390299 0.111305
1.706577 1.389799 0.177701
1.712115 1.438590 0.177831
1.810820 1.427895 0.112067
1.805332 1.379099 0.110408
1.805843 1.378598 0.176805
1.811382 1.427389 0.176934
1.706118 1.390748 0.111224
1.700231 1.342348 0.109487
1.700596 1.341840 0.177577
1.706629 1.390247 0.177621
1.805268 1.378552 0.110487
1.799381 1.330153 0.108749
1.799746 1.329645 0.176840
1.805779 1.378052 0.176884
1.700460 1.328458 0.109205
1.708591 1.277678 0.107707
1.708637 1.277116 0.177438
1.700826 1.327950 0.177295
1.799153 1.343943 0.109030
1.807283 1.293163 0.107533
1.807329 1.292601 0.177263
1.799518 1.343436 0.177120
1.749586 1.731580 0.148311
1.743093 1.683006 0.158702
1.743524 1.681655 0.225660
1.749915 1.729845 0.219002
1.848589 1.718248 0.147465
1.842095 1.669674 0.157856
1.842527 1.668323 0.224815
1.848918 1.716513 0.218157
1.743161 1.683488 0.158757
1.736209 1.635263 0.166966
1.736679 1.634211 0.231594
1.743592 1.682137 0.225715
1.842014 1.669096 0.157817
1.835062 1.620870 0.166026
1.835532 1.619819 0.230654
1.842445 1.667745 0.224775
1.736097 1.634451 0.166979
1.729853 1.586068 0.172634
1.730376 1.585270 0.236249
1.736567 1.633400 0.231607
1.835160 1.621585 0.166026
1.828916 1.573202 0.171681
1.829439 1.572404 0.235297
1.835631 1.620534 0.230654
1.729801 1.585655 0.172661
1.723860 1.537010 0.176030
1.724445 1.536390 0.239608
1.730324 1.584857 0.236277
1.828956 1.573518 0.171662
1.823015 1.524873 0.175031
1.823599 1.524252 0.238609
1.829479 1.572720 0.235278
1.723841 1.536848 0.176053
1.717980 1.487970 0.177602
1.718599 1.487458 0.241842
1.724425 1.536227 0.239631
1.823023 1.524937 0.175014
1.817162 1.476060 0.176563
1.817781 1.475548 0.240803
1.823607 1.524317 0.238592
1.717967 1.487861 0.177608
1.712157 1.438933 0.177972
1.712789 1.438457 0.243341
1.718586 1.487349 0.241848
1.817163 1.476071 0.176560
1.811353 1.427143 0.176923
1.811986 1.426666 0.242292
1.817783 1.475559 0.240800
1.712124 1.438652 0.177947
1.706585 1.389861 0.177818
1.707171 1.389384 0.244605
1.712756 1.438176 0.243316
1.811374 1.427326 0.176950
1.805836 1.378535 0.176821
1.806422 1.378057 0.243608
1.812007 1.426849 0.242319
1.706646 1.390376 0.177762
1.700613 1.341969 0.177719
1.701108 1.341438 0.246067
1.707232 1.389898 0.244550
1.805763 1.377923 0.176877
1.799730 1.329516 0.176833
1.800225 1.328985 0.245181
1.806349 1.377445 0.243665
1.700781 1.328243 0.177472
1.708593 1.277409 0.177615
1.708819 1.276796 0.247614
1.701276 1.327713 0.245821
1.799563 1.343142 0.177081
1.807375 1.292307 0.177224
1.807601 1.291694 0.247223
1.800058 1.342611 0.245429
1.749904 1.729758 0.219060
1.743513 1.681568 0.225718
1.743900 1.679952 0.293211
1.750170 1.727657 0.289745
1.848930 1.716597 0.218237
1.842539 1.668407 0.224895
1.842926 1.666791 0.292388
1.849196 1.714496 0.288923
1.743591 1.682131 0.225763
1.736678 1.634205 0.231642
1.737099 1.633050 0.296793
1.743979 1.680515 0.293256
1.842447 1.667748 0.224860
1.835534 1.619822 0.230739
1.835954 1.618667 0.295890
1.842834 1.666132 0.292353
1.736565 1.633378 0.231630
1.730373 1.585248 0.236272
1.730840 1.584503 0.300205
1.736986 1.632223 0.296781
1.835634 1.620553 0.230759
1.829443 1.572424 0.235402
1.829909 1.571678 0.299335
1.836055 1.619398 0.295911
1.730321 1.584835 0.236271
1.724442 1.536368 0.239602
1.724938 1.535928 0.303350
1.730788 1.584089 0.300204
1.829483 1.572741 0.235411
1.823603 1.524273 0.238742
1.824099 1.523833 0.302490
1.829949 1.571995 0.299344
1.724425 1.536226 0.239594
1.718599 1.487457 0.241805
1.719096 1.487169 0.306151
1.724920 1.535786 0.303341
1.823609 1.524318 0.238757
1.817783 1.475549 0.240968
1.818281 1.475261 0.305314
1.824105 1.523878 0.302504
1.718588 1.487371 0.241780
1.712791 1.438479 0.243272
1.713252 1.438225 0.308746
1.719086 1.487084 0.306126
1.817782 1.475536 0.240998
1.811985 1.426644 0.242491
1.812446 1.426390 0.307964
1.818279 1.475249 0.305344
1.712762 1.438232 0.243233
1.707176 1.389440 0.244522
1.707582 1.389126 0.311416
1.713223 1.437978 0.308707
1.812003 1.426793 0.242534
1.806417 1.378001 0.243823
1.806823 1.377687 0.310717
1.812464 1.426539 0.308008
1.707242 1.389984 0.244475
1.701118 1.341524 0.245992
1.701439 1.341108 0.314435
1.707648 1.389670 0.311369
1.806339 1.377359 0.243875
1.800215 1.328899 0.245391
1.800537 1.328483 0.313834
1.806745 1.377046 0.310769
1.701243 1.327936 0.245814
1.708785 1.277018 0.247608
1.708955 1.276382 0.317667
1.701564 1.327520 0.314257
1.800092 1.342388 0.245574
1.807634 1.291470 0.247368
1.807804 1.290834 0.317426
1.800413 1.341971 0.314017
1.750166 1.727614 0.289856
1.743896 1.679910 0.293322
1.744271 1.678086 0.360525
1.750507 1.725307 0.360538
1.849201 1.714534 0.288950
1.842931 1.666830 0.292415
1.843307 1.665007 0.359619
1.849542 1.712227 0.359631
1.743984 1.680546 0.293324
1.737104 1.633081 0.296861
1.737500 1.631904 0.361451
1.744360 1.678723 0.360528
1.842830 1.666099 0.292417
1.835950 1.618633 0.295954
1.836346 1.617457 0.360544
1.843206 1.664276 0.359620
1.736987 1.632235 0.296818
1.730842 1.584515 0.300243
1.731282 1.584018 0.363510
1.737383 1.631059 0.361408
1.836054 1.619384 0.296002
1.829908 1.571664 0.299426
1.830349 1.571168 0.362694
1.836450 1.618208 0.360592
1.730788 1.584087 0.300233
1.724938 1.535925 0.303379
1.725444 1.535921 0.366503
1.731229 1.583590 0.363500
1.829950 1.571997 0.299442
1.824100 1.523835 0.302588
1.824607 1.523831 0.365712
1.830391 1.571500 0.362709
1.724922 1.535797 0.303384
1.719098 1.487180 0.306193
1.719635 1.487405 0.370051
1.725429 1.535793 0.366507
1.824104 1.523867 0.302589
1.818280 1.475250 0.305399
1.818817 1.475475 0.369257
1.824610 1.523862 0.365713
1.719089 1.487107 0.306197
1.713256 1.438248 0.308818
1.713804 1.438451 0.373953
1.719626 1.487332 0.370055
1.818277 1.475226 0.305402
1.812443 1.426366 0.308023
1.812992 1.426569 0.373158
1.818814 1.475451 0.369259
1.713228 1.438017 0.308818
1.707588 1.389165 0.311527
1.708115 1.389207 0.378227
1.713777 1.438220 0.373953
1.812459 1.426499 0.308029
1.806818 1.377648 0.310739
1.807345 1.377690 0.377439
1.813008 1.426703 0.373165
1.707657 1.389737 0.311508
1.701449 1.341174 0.314574
1.701917 1.340996 0.382936
1.708184 1.389779 0.378208
1.806737 1.376979 0.310765
1.800528 1.328416 0.313831
1.800996 1.328238 0.382193
1.807264 1.377021 0.377465
1.701537 1.327715 0.314452
1.708928 1.276577 0.317861
1.709224 1.276201 0.387849
1.702005 1.327537 0.382814
1.800441 1.341775 0.313961
1.807832 1.290638 0.317371
1.808129 1.290261 0.387358
1.800909 1.341597 0.382323
1.750507 1.725296 0.360693
1.744271 1.678075 0.360680
1.744710 1.675883 0.426747
1.750933 1.722747 0.431373
1.849543 1.712234 0.359614
1.843308 1.665014 0.359601
1.843746 1.662822 0.425668
1.849970 1.709685 0.430294
1.744370 1.678777 0.360688
1.737510 1.631959 0.361612
1.738005 1.630768 0.424416
1.744808 1.676586 0.426754
1.843197 1.664218 0.359590
1.836337 1.617399 0.360514
1.836832 1.616209 0.423318
1.843635 1.662026 0.425657
1.737390 1.631103 0.361558
1.731290 1.584062 0.363659
1.731878 1.584049 0.425142
1.737885 1.629912 0.424361
1.836444 1.618163 0.360569
1.830343 1.571122 0.362670
1.830932 1.571109 0.424154
1.836939 1.616972 0.423373
1.731231 1.583603 0.363633
1.725447 1.535934 0.366636
1.726114 1.536747 0.428310
1.731820 1.583590 0.425116
1.830389 1.571487 0.362701
1.824605 1.523818 0.365703
1.825272 1.524631 0.427378
1.830978 1.571474 0.424184
1.725433 1.535819 0.366614
1.719639 1.487432 0.370157
1.720312 1.488559 0.432957
1.726100 1.536632 0.428288
1.824608 1.523837 0.365733
1.818814 1.475449 0.369276
1.819487 1.476577 0.432076
1.825275 1.524650 0.427407
1.719630 1.487359 0.370124
1.713808 1.438477 0.374022
1.714427 1.439505 0.438453
1.720303 1.488486 0.432923
1.818811 1.475425 0.369319
1.812989 1.426544 0.373217
1.813608 1.427572 0.437648
1.819484 1.476553 0.432118
1.713780 1.438242 0.373996
1.708118 1.389230 0.378270
1.708675 1.389892 0.444540
1.714399 1.439270 0.438428
1.813006 1.426681 0.373253
1.807344 1.377668 0.377527
1.807901 1.378330 0.443796
1.813625 1.427709 0.437684
1.708186 1.389791 0.378263
1.701919 1.341008 0.382991
1.702450 1.341234 0.451125
1.708744 1.390453 0.444533
1.807263 1.377009 0.377545
1.800996 1.328226 0.382273
1.801527 1.328453 0.450407
1.807820 1.377671 0.443815
1.701994 1.327629 0.383064
1.709213 1.276294 0.388099
1.709856 1.276177 0.458085
1.702525 1.327856 0.451198
1.800922 1.341504 0.382211
1.808141 1.290168 0.387246
1.808785 1.290052 0.457232
1.801453 1.341730 0.450346
1.750933 1.722744 0.431429
1.744710 1.675881 0.426802
1.744966 1.672733 0.490421
1.751370 1.720300 0.502094
1.849970 1.709683 0.430374
1.843747 1.662819 0.425747
1.844003 1.659671 0.489366
1.850407 1.707238 0.501039
1.744819 1.676655 0.426800
1.738016 1.630838 0.424461
1.738415 1.629513 0.483608
1.745075 1.673507 0.490419
1.843625 1.661953 0.425737
1.836822 1.616135 0.423398
1.837222 1.614811 0.482544
1.843881 1.658804 0.489355
1.737896 1.629995 0.424362
1.731889 1.584132 0.425143
1.732466 1.585051 0.483447
1.738296 1.628671 0.483508
1.836929 1.616888 0.423493
1.830922 1.571025 0.424274
1.831499 1.571944 0.482578
1.837328 1.615564 0.482639
1.731823 1.583620 0.425087
1.726117 1.536777 0.428281
1.726820 1.539001 0.487659
1.732401 1.584539 0.483391
1.830976 1.571446 0.424334
1.825270 1.524603 0.427528
1.825973 1.526828 0.486906
1.831553 1.572365 0.482637
1.726105 1.536672 0.428248
1.720317 1.488600 0.432917
1.721022 1.491166 0.494203
1.726808 1.538897 0.487626
1.825272 1.524613 0.427570
1.819484 1.476540 0.432239
1.820189 1.479106 0.493525
1.825975 1.526838 0.486948
1.720305 1.488502 0.432907
1.714429 1.439522 0.438437
1.715114 1.441741 0.501927
1.721010 1.491069 0.494193
1.819484 1.476540 0.432261
1.813608 1.427559 0.437791
1.814293 1.429778 0.501281
1.820189 1.479106 0.493547
1.714398 1.439256 0.438479
1.708674 1.389877 0.444591
1.709353 1.391375 0.510330
1.715083 1.441475 0.501969
1.813627 1.427726 0.437763
1.807904 1.378348 0.443875
1.808583 1.379845 0.509614
1.814313 1.429945 0.501252
1.708737 1.390394 0.444652
1.702444 1.341176 0.451245
1.703147 1.341809 0.519168
1.709416 1.391892 0.510391
1.807828 1.377731 0.443829
1.801535 1.328512 0.450422
1.802238 1.329146 0.518345
1.808507 1.379228 0.509568
1.702515 1.327940 0.451342
1.709846 1.276262 0.458228
1.710472 1.276111 0.528186
1.703218 1.328573 0.519265
1.801465 1.341646 0.450340
1.808796 1.289968 0.457227
1.809422 1.289817 0.527184
1.802168 1.342279 0.518263
1.751394 1.720454 0.502320
1.744989 1.672887 0.490647
1.744721 1.666265 0.549265
1.751565 1.713103 0.572652
1.850384 1.707074 0.500944
1.843980 1.659507 0.489271
1.843712 1.652884 0.547889
1.850556 1.699722 0.571276
1.745093 1.673625 0.490501
1.738434 1.629632 0.483690
1.738668 1.627806 0.535646
1.744825 1.667003 0.549119
1.843863 1.658680 0.489390
1.837203 1.614686 0.482578
1.837437 1.612860 0.534535
1.843595 1.652057 0.548007
1.738309 1.628765 0.483559
1.732479 1.585146 0.483497
1.733288 1.587936 0.536821
1.738543 1.626940 0.535515
1.837316 1.615470 0.482700
1.831487 1.571850 0.482639
1.832295 1.574641 0.535962
1.837550 1.613644 0.534656
1.732405 1.584564 0.483509
1.726824 1.539026 0.487777
1.727896 1.543629 0.544165
1.733213 1.587354 0.536832
1.831551 1.572346 0.482633
1.825971 1.526808 0.486902
1.827042 1.531411 0.543290
1.832359 1.575136 0.535957
1.726815 1.538948 0.487786
1.721029 1.491217 0.494363
1.722117 1.495840 0.553922
1.727886 1.543551 0.544174
1.825969 1.526793 0.486907
1.820183 1.479062 0.493484
1.821271 1.483685 0.553043
1.827040 1.531397 0.543295
1.721013 1.491083 0.494376
1.715117 1.441755 0.502109
1.716133 1.445493 0.564638
1.722101 1.495706 0.553936
1.820187 1.479099 0.493488
1.814292 1.429771 0.501221
1.815308 1.433509 0.563751
1.821275 1.483722 0.553048
1.715081 1.441442 0.502160
1.709351 1.391341 0.510521
1.710295 1.393765 0.575753
1.716096 1.445180 0.564689
1.814317 1.429983 0.501190
1.808587 1.379883 0.509551
1.809531 1.382307 0.574784
1.815332 1.433721 0.563719
1.709404 1.391780 0.510594
1.703135 1.341698 0.519371
1.704092 1.342701 0.587064
1.710349 1.394204 0.575827
1.808521 1.379343 0.509498
1.802252 1.329260 0.518275
1.803208 1.330264 0.585967
1.809465 1.381766 0.574730
1.703187 1.328827 0.519533
1.710441 1.276364 0.528453
1.711325 1.276148 0.598419
1.704144 1.329830 0.587225
1.802201 1.342027 0.518133
1.809455 1.289564 0.527054
1.810339 1.289348 0.597019
1.803158 1.343030 0.585825
1.751703 1.713837 0.573911
1.744859 1.666999 0.550524
1.743477 1.652805 0.599239
1.753609 1.701520 0.643454
1.850418 1.698968 0.570140
1.843574 1.652129 0.546753
1.842192 1.637935 0.595468
1.852324 1.686650 0.639684
1.744846 1.667122 0.549348
1.738689 1.627925 0.535875
1.738831 1.625776 0.572683
1.743464 1.652928 0.598063
1.843573 1.651926 0.547876
1.837416 1.612729 0.534404
1.837557 1.610581 0.571212
1.842191 1.637732 0.596591
1.738564 1.627086 0.535603
1.733309 1.588083 0.536909
1.734694 1.595568 0.583712
1.738705 1.624938 0.572411
1.837531 1.613501 0.534663
1.832276 1.574497 0.535969
1.833661 1.581983 0.582772
1.837673 1.611352 0.571471
1.733218 1.587387 0.536904
1.727900 1.543662 0.544237
1.729448 1.552406 0.597682
1.734603 1.594873 0.583708
1.832357 1.575116 0.535990
1.827039 1.531390 0.543323
1.828587 1.540134 0.596768
1.833742 1.582601 0.582794
1.727894 1.543613 0.544169
1.722124 1.495902 0.553917
1.723438 1.503421 0.612088
1.729442 1.552357 0.597614
1.827035 1.531348 0.543414
1.821266 1.483636 0.553163
1.822579 1.491155 0.611333
1.828583 1.540091 0.596859
1.722101 1.495710 0.553873
1.716133 1.445497 0.564576
1.717172 1.451031 0.626462
1.723414 1.503229 0.612043
1.821277 1.483729 0.553232
1.815310 1.433515 0.563935
1.816349 1.439050 0.625821
1.822591 1.491248 0.611402
1.716088 1.445115 0.564604
1.710287 1.393701 0.575669
1.711118 1.397030 0.640640
1.717128 1.450650 0.626490
1.815342 1.433793 0.563931
1.809541 1.382379 0.574996
1.810372 1.385707 0.639967
1.816382 1.439327 0.625818
1.710320 1.393980 0.575771
1.704064 1.342477 0.587007
1.704911 1.343624 0.654611
1.711152 1.397309 0.640742
1.809495 1.381994 0.574919
1.803238 1.330491 0.586156
1.804086 1.331638 0.653759
1.810327 1.385323 0.639890
1.704117 1.330036 0.587248
1.711298 1.276354 0.598442
1.712202 1.275710 0.668513
1.704964 1.331183 0.654851
1.803186 1.342825 0.585940
1.810367 1.289143 0.597134
1.811272 1.288498 0.667206
1.804034 1.343971 0.653544
1.738795 1.625544 0.572661
1.734784 1.596174 0.583962
1.738226 1.616657 0.627742
1.743429 1.652695 0.598040
1.837588 1.610773 0.571298
1.833576 1.581403 0.582599
1.837019 1.601886 0.626379
1.842221 1.637924 0.596677
1.734651 1.595232 0.583894
1.729496 1.552765 0.597868
1.731895 1.568081 0.650483
1.738093 1.615715 0.627674
1.833699 1.582267 0.582706
1.828544 1.539800 0.596680
1.830943 1.555116 0.649295
1.837141 1.602750 0.626486
1.729463 1.552529 0.597605
1.723460 1.503593 0.612080
1.725102 1.514587 0.670018
1.731862 1.567844 0.650220
1.828565 1.539941 0.596978
1.822561 1.491005 0.611453
1.824204 1.501999 0.669390
1.830964 1.555256 0.649593
1.723423 1.503300 0.611975
1.717181 1.451102 0.626393
1.718237 1.458412 0.688365
1.725065 1.514294 0.669913
1.822585 1.491192 0.611591
1.816343 1.438994 0.626010
1.817400 1.446304 0.687981
1.824228 1.502186 0.669529
1.717123 1.450613 0.626392
1.711114 1.396993 0.640541
1.711771 1.400882 0.705707
1.718180 1.457922 0.688364
1.816388 1.439374 0.626043
1.810379 1.385754 0.640193
1.811036 1.389644 0.705359
1.817445 1.446684 0.688015
1.711118 1.397024 0.640652
1.704877 1.343338 0.654521
1.705479 1.344128 0.722267
1.711775 1.400913 0.705818
1.810362 1.385613 0.640113
1.804122 1.331928 0.653982
1.804724 1.332717 0.721728
1.811020 1.389502 0.705279
1.704960 1.331214 0.654807
1.712198 1.275741 0.668469
1.713061 1.275249 0.738447
1.705562 1.332004 0.722553
1.804040 1.343940 0.653726
1.811278 1.288467 0.667388
1.812141 1.287974 0.737365
1.804642 1.344730 0.721472
1.743666 1.653828 0.599788
1.738463 1.617790 0.629489
1.746776 1.649280 0.679983
1.753798 1.702542 0.644003
1.841997 1.636855 0.595012
1.836795 1.600817 0.624713
1.845107 1.632307 0.675207
1.852129 1.685569 0.639227
1.738407 1.617491 0.629385
1.732210 1.569857 0.652194
1.737477 1.590505 0.707671
1.746720 1.648981 0.679878
1.836837 1.601018 0.624876
1.830639 1.553384 0.647685
1.835906 1.574032 0.703162
1.845149 1.632508 0.675370
1.732018 1.568760 0.651714
1.725258 1.515502 0.671511
1.729016 1.528927 0.730678
1.737286 1.589408 0.707191
1.830815 1.554371 0.648212
1.824054 1.501114 0.668009
1.827813 1.514539 0.727176
1.836082 1.575019 0.703689
1.725177 1.515014 0.671131
1.718349 1.459131 0.689584
1.720899 1.467467 0.752569
1.728935 1.528439 0.730298
1.824120 1.501487 0.668431
1.817292 1.445605 0.686884
1.819842 1.453940 0.749869
1.827879 1.514912 0.727598
1.718245 1.458378 0.689290
1.711836 1.401338 0.706634
1.713454 1.405009 0.772650
1.720794 1.466713 0.752275
1.817383 1.446240 0.687217
1.810974 1.389200 0.704561
1.812592 1.392872 0.770577
1.819932 1.454576 0.750203
1.711785 1.400922 0.706569
1.705489 1.344136 0.723018
1.706661 1.342297 0.791092
1.713403 1.404593 0.772586
1.811012 1.389497 0.704661
1.804715 1.332712 0.721110
1.805887 1.330873 0.789184
1.812629 1.393169 0.770678
1.705588 1.331845 0.722941
1.713087 1.275089 0.738835
1.714913 1.272498 0.809879
1.706760 1.330006 0.791015
1.804618 1.344887 0.721222
1.812117 1.288132 0.737116
1.813943 1.285541 0.808161
1.805790 1.343048 0.789296
