3.285469 0.785492 0.285373
3.293219 0.774145 0.207688
3.293338 0.711145 0.196685
3.292124 0.699647 0.258777
3.247409 0.647808 0.209380
3.243757 0.686836 0.154751
3.246862 0.629512 0.170391
3.249771 0.602598 0.225410
3.260285 0.749358 0.112020
3.270769 0.675675 0.151502
3.238993 0.719817 0.101633
3.242850 0.659439 0.117748
3.255212 0.732053 0.031505
3.267097 0.661036 0.038213
3.221188 0.733580 0.040994
3.227487 0.669628 0.043776
3.259056 0.746055 -0.043246
3.275877 0.687938 -0.065464
3.226449 0.717570 -0.021881
3.230387 0.666604 -0.025346
3.282718 0.788795 -0.118785
3.294785 0.724201 -0.113640
3.227090 0.682758 -0.079341
3.230423 0.642067 -0.092835
3.293823 0.778140 -0.205424
3.299384 0.709958 -0.187080
3.230295 0.642182 -0.132840
3.232689 0.613167 -0.150346
3.294174 0.637974 0.196059
3.294388 0.631762 0.248245
3.249820 0.583675 0.182413
3.250433 0.589923 0.229904
3.279710 0.615574 0.143249
3.246108 0.595557 0.115956
3.277584 0.606944 0.044976
3.232899 0.609356 0.051129
3.282185 0.621490 -0.047117
3.235270 0.603386 -0.026169
3.293035 0.644649 -0.102960
3.234400 0.592986 -0.096630
3.294709 0.640932 -0.170033
3.234498 0.587488 -0.152923
3.319884 0.576210 0.161831
3.321724 0.573311 0.200415
3.252820 0.541883 0.192415
3.253652 0.547715 0.235996
3.313293 0.569594 0.111541
3.250025 0.540272 0.123037
3.310536 0.566823 0.045028
3.239704 0.550924 0.053706
3.309700 0.570673 -0.019359
3.239382 0.553160 -0.018573
3.311113 0.579252 -0.070828
3.238171 0.553112 -0.089108
3.309290 0.581516 -0.125601
3.236471 0.561875 -0.155959
3.346330 0.524113 0.126732
3.348528 0.524461 0.162529
3.254716 0.517729 0.187144
3.256668 0.518241 0.254521
3.343135 0.523658 0.086193
3.250543 0.517049 0.118905
3.339939 0.523202 0.045655
3.243057 0.516129 0.051103
3.336744 0.522747 0.005117
3.242702 0.515716 -0.019461
3.333549 0.522291 -0.035421
3.241434 0.515237 -0.090038
3.329961 0.521779 -0.080943
3.238945 0.529684 -0.158090
3.316428 0.834773 -0.213245
3.305669 0.847921 -0.121860
3.369720 0.840363 -0.214232
3.369800 0.858937 -0.125748
3.374307 0.799444 -0.126456
3.374003 0.784999 -0.209520
3.281431 0.800856 -0.048288
3.373359 0.824047 -0.071905
3.377779 0.766621 -0.068401
3.278424 0.783757 0.049367
3.376588 0.806199 0.039120
3.380773 0.751656 0.041661
3.284550 0.799549 0.134768
3.319593 0.855476 0.222392
3.378008 0.813310 0.155271
3.375353 0.860765 0.211471
3.379852 0.801764 0.212594
3.382215 0.757850 0.155041
3.310196 0.834622 0.287137
3.378195 0.840221 0.287472
3.382645 0.780174 0.281019
3.380026 0.726737 -0.114775
3.379504 0.716736 -0.190764
3.272140 0.684552 -0.035343
3.382938 0.701749 -0.054617
3.271786 0.685494 0.149759
3.268390 0.673329 0.055612
3.386767 0.695182 0.142781
3.385385 0.691291 0.043361
3.297008 0.725268 0.211177
3.385390 0.726248 0.200965
3.387746 0.708638 0.261394
3.385535 0.656643 -0.103721
3.384986 0.648549 -0.172769
3.282196 0.626036 -0.025775
3.387628 0.642999 -0.041081
3.390379 0.659275 0.195301
3.390794 0.640359 0.134705
3.392080 0.649160 0.250611
3.390868 0.594001 -0.069586
3.390221 0.590108 -0.125517
3.311449 0.578446 -0.010412
3.392073 0.589972 -0.016281
3.394885 0.591892 0.159103
3.394349 0.587258 0.106472
3.395913 0.588348 0.204132
3.396552 0.526823 -0.035113
3.395506 0.526512 -0.079947
3.397204 0.527078 0.004736
3.313350 0.574054 0.050503
3.393273 0.587759 0.044920
3.397856 0.527333 0.044585
3.398508 0.527588 0.084435
3.399161 0.527842 0.124284
3.399771 0.528054 0.161407
3.457981 0.848609 -0.215807
3.457689 0.871425 -0.130355
3.462342 0.809346 -0.134013
3.462279 0.792473 -0.213752
3.460991 0.835422 -0.096680
3.465611 0.775340 -0.093303
3.463547 0.829866 0.029775
3.468091 0.769791 0.028664
3.466104 0.824310 0.156230
3.470599 0.763602 0.149515
3.463583 0.867355 0.200546
3.468773 0.798749 0.199448
3.466566 0.847366 0.287463
3.471907 0.775064 0.278608
3.468142 0.735692 -0.121760
3.467792 0.724135 -0.194586
3.472848 0.707826 0.031762
3.470823 0.710997 -0.073985
3.474934 0.703519 0.135996
3.476740 0.707675 0.261774
3.474085 0.726735 0.190146
3.473590 0.666644 -0.109649
3.474025 0.640858 -0.194875
3.475344 0.655422 -0.056197
3.389491 0.637860 0.046214
3.476747 0.657314 0.035472
3.478275 0.657793 0.128228
3.477952 0.674993 0.186502
3.481191 0.650861 0.269496
3.479028 0.603579 -0.071205
3.479352 0.580554 -0.148330
3.480033 0.601208 -0.022317
3.481003 0.602086 0.039196
3.482040 0.602213 0.101244
3.482515 0.607270 0.152158
3.485158 0.588571 0.224238
3.484972 0.533285 -0.035265
3.489405 0.534784 -0.080291
3.485613 0.533531 0.003821
3.486253 0.533778 0.042908
3.486893 0.534024 0.081994
3.487534 0.534271 0.121081
3.489012 0.536295 0.168762
3.614711 0.855214 0.285915
3.611728 0.875204 0.198998
3.645196 0.823530 0.194194
3.648187 0.805752 0.278629
3.564739 0.855174 0.285810
3.561756 0.875164 0.198893
3.566533 0.811705 0.196481
3.569483 0.791014 0.278282
3.640467 0.838258 0.153294
3.669642 0.785862 0.143776
3.564277 0.832118 0.154577
3.568521 0.774433 0.146536
3.651202 0.844825 0.026614
3.679981 0.790035 0.023461
3.561720 0.837676 0.028122
3.566127 0.779202 0.026127
3.646938 0.851486 -0.100096
3.674894 0.795156 -0.096757
3.559164 0.843233 -0.098334
3.563715 0.784098 -0.094795
3.605834 0.879278 -0.131903
3.649388 0.826030 -0.136043
3.555862 0.879236 -0.132008
3.560435 0.818373 -0.134914
3.606126 0.856461 -0.217356
3.646858 0.807201 -0.216861
3.556154 0.856419 -0.217461
3.560452 0.800283 -0.215406
3.652983 0.747008 0.185313
3.653458 0.735180 0.261351
3.572044 0.737182 0.187700
3.574458 0.721740 0.261349
3.672288 0.719778 0.130357
3.573087 0.711346 0.133268
3.680734 0.723481 0.024173
3.571029 0.715070 0.028027
3.688565 0.728428 -0.081766
3.568959 0.718827 -0.077769
3.658967 0.752878 -0.127928
3.566181 0.745004 -0.124624
3.653714 0.738965 -0.197717
3.565965 0.731946 -0.196240
3.662686 0.670189 0.176666
3.660580 0.665286 0.242534
3.576808 0.673079 0.181569
3.580123 0.648482 0.266914
3.674888 0.655742 0.117576
3.577057 0.656780 0.122958
3.680141 0.659616 0.024541
3.575385 0.658182 0.030129
3.684847 0.664621 -0.068117
3.573733 0.659467 -0.062000
3.668664 0.680383 -0.121426
3.571733 0.673964 -0.115283
3.660571 0.670729 -0.178574
3.572270 0.647111 -0.198589
3.666967 0.607136 0.138057
3.663660 0.607623 0.189048
3.581159 0.607662 0.145081
3.583426 0.592924 0.212785
3.673089 0.604511 0.087440
3.580617 0.603541 0.094349
3.677256 0.608418 0.024347
3.579436 0.605200 0.031804
3.681082 0.612970 -0.038522
3.578264 0.606820 -0.030379
3.678215 0.620152 -0.086969
3.577063 0.611840 -0.079015
3.667142 0.613576 -0.128086
3.577480 0.589193 -0.148942
3.668926 0.550109 0.119169
3.670989 0.550485 0.160496
3.585763 0.541529 0.120290
3.586904 0.541992 0.165524
3.671971 0.550099 0.076247
3.585104 0.541271 0.080071
3.665003 0.549372 0.036478
3.584446 0.541012 0.039851
3.663041 0.549003 -0.004867
3.583787 0.540754 -0.000368
3.661080 0.548635 -0.046212
3.583129 0.540495 -0.040587
3.664401 0.547116 -0.077569
3.582880 0.538001 -0.085562
2.562315 0.417931 0.004618
2.561179 0.437437 0.005668
2.561472 0.439847 0.028982
2.562771 0.418229 0.027855
2.592062 0.420366 0.006699
2.589942 0.442237 0.006461
2.590413 0.442848 0.029084
2.592645 0.419761 0.029938
2.559884 0.456616 0.009520
2.559668 0.463568 0.030460
2.588156 0.463945 0.012828
2.588369 0.464175 0.032967
2.558230 0.475576 0.014469
2.557520 0.487027 0.032183
2.587215 0.485857 0.018647
2.587372 0.485754 0.036639
2.554696 0.493998 0.020425
2.554020 0.507505 0.034722
2.587654 0.508206 0.022906
2.587771 0.508276 0.038020
2.561948 0.441093 0.053526
2.563213 0.418535 0.051098
2.591093 0.442650 0.053434
2.593157 0.419932 0.053173
2.559913 0.465595 0.054978
2.588634 0.464325 0.053370
2.557506 0.489859 0.055466
2.587575 0.486455 0.054281
2.554276 0.511154 0.053716
2.587891 0.508348 0.053134
2.562587 0.440719 0.077655
2.563662 0.418853 0.074353
2.591772 0.442454 0.077781
2.593667 0.420106 0.076406
2.560603 0.463540 0.078759
2.588902 0.464474 0.073774
2.558200 0.486148 0.077973
2.587782 0.487154 0.071926
2.555321 0.506646 0.072430
2.588011 0.508419 0.068257
2.563159 0.437794 0.099912
2.564124 0.419144 0.097599
2.592244 0.443066 0.100409
2.594178 0.420275 0.099646
2.561033 0.456735 0.097655
2.589112 0.464707 0.093918
2.558419 0.475529 0.093429
2.587933 0.487051 0.089916
2.555624 0.493017 0.085837
2.588130 0.508489 0.083379
2.655797 0.404440 0.012161
2.653695 0.431390 0.008809
2.653932 0.432973 0.029503
2.656164 0.404156 0.032005
2.651690 0.457855 0.008802
2.651361 0.466652 0.028648
2.649679 0.483969 0.006698
2.648686 0.501224 0.025585
2.647647 0.509728 0.002100
2.646257 0.532104 0.020551
2.654352 0.432893 0.053956
2.656521 0.403869 0.051849
2.651703 0.468112 0.055429
2.648867 0.505249 0.054441
2.646312 0.538195 0.051332
2.654826 0.432003 0.078046
2.656875 0.403583 0.071697
2.652375 0.464935 0.080777
2.649605 0.499972 0.080832
2.647266 0.531852 0.079386
2.655348 0.430002 0.099442
2.657244 0.403296 0.091542
2.653391 0.456496 0.102778
2.651271 0.484407 0.103249
2.649160 0.511933 0.101913
2.705150 0.388180 0.017855
2.708815 0.419837 0.011325
2.708502 0.422323 0.030101
2.705507 0.387458 0.034313
2.712513 0.451507 0.004871
2.711284 0.468671 0.024394
2.714735 0.482277 -0.005321
2.712790 0.516497 0.014392
2.715559 0.511859 -0.018858
2.713326 0.555783 0.002694
2.708362 0.422328 0.054617
2.705860 0.386740 0.050772
2.711973 0.524113 0.054216
2.710573 0.471470 0.057426
2.712842 0.568447 0.048741
2.708220 0.420708 0.078408
2.706211 0.386022 0.067230
2.711419 0.512166 0.089924
2.709957 0.464660 0.087925
2.712795 0.554717 0.090815
2.708101 0.416134 0.098569
2.706570 0.385303 0.083689
2.709649 0.447680 0.111749
2.711237 0.481526 0.116630
2.712828 0.515573 0.120386
2.783893 0.529865 -0.029734
2.780896 0.575238 -0.003063
2.784944 0.521471 -0.005183
2.786635 0.492854 -0.033804
2.780693 0.589264 0.048169
2.785406 0.526800 0.046348
2.782203 0.580698 0.099244
2.786909 0.518442 0.097946
2.785804 0.541315 0.135513
2.789627 0.491031 0.135780
2.789435 0.461296 -0.009732
2.789240 0.456623 -0.042312
2.790758 0.454719 0.039095
2.792150 0.447502 0.089226
2.793310 0.441291 0.130052
2.793621 0.404499 -0.017109
2.791780 0.420910 -0.052349
2.796790 0.392672 0.117298
2.796939 0.381263 0.074865
2.796885 0.361505 -0.017098
2.794565 0.385275 -0.047608
2.795641 0.387835 0.027568
2.798873 0.343055 0.017598
2.799981 0.336794 0.055079
2.799602 0.350073 0.092193
2.854864 0.549777 -0.037538
2.851875 0.590281 -0.000940
2.856366 0.534804 -0.004188
2.858089 0.509707 -0.041201
2.852642 0.601314 0.053446
2.857463 0.537908 0.050746
2.853958 0.588619 0.107121
2.858464 0.526174 0.105432
2.856311 0.544073 0.138885
2.860220 0.494887 0.139049
2.861180 0.470226 -0.012930
2.860647 0.470589 -0.050748
2.862828 0.462809 0.040034
2.863240 0.455137 0.094261
2.863931 0.446183 0.133170
2.864521 0.407123 -0.022203
2.861786 0.431431 -0.060123
2.866637 0.397820 0.125667
2.866817 0.386394 0.081830
2.868669 0.357650 -0.027758
2.865197 0.392295 -0.061358
2.866806 0.390147 0.028350
2.870751 0.336689 0.016238
2.870182 0.334537 0.063855
2.869624 0.354000 0.105840
2.938598 0.570658 -0.045556
2.936683 0.606219 0.001126
2.940950 0.549049 -0.003323
2.941821 0.527487 -0.048803
2.937056 0.614049 0.058557
2.941874 0.549794 0.054978
2.939255 0.597527 0.114659
2.943971 0.534959 0.112596
2.943468 0.548094 0.141977
2.947123 0.499982 0.142044
2.945965 0.480108 -0.016327
2.944828 0.485521 -0.059398
2.947558 0.471812 0.040798
2.949138 0.463911 0.098978
2.950644 0.452297 0.136020
2.951029 0.410920 -0.027564
2.947896 0.443162 -0.068161
2.954251 0.404316 0.133756
2.954357 0.392857 0.088491
2.955088 0.354987 -0.038699
2.951016 0.400469 -0.075362
2.953296 0.393604 0.028911
2.957772 0.331471 0.014596
2.958582 0.333660 0.072412
2.957425 0.359274 0.119189
3.000950 0.424395 -0.059783
2.997470 0.463227 -0.057864
3.001876 0.420867 -0.026718
3.006252 0.369335 -0.032584
2.994648 0.501938 -0.054551
2.996609 0.489286 -0.019986
2.992710 0.540340 -0.046628
2.991903 0.559493 -0.009041
2.990745 0.578879 -0.040006
2.989015 0.616901 -0.002647
3.005210 0.391789 0.027952
3.009880 0.335424 0.019371
2.992590 0.554742 0.049645
2.998891 0.471675 0.036805
2.989689 0.621619 0.051840
3.005909 0.397571 0.088516
3.010240 0.343090 0.078779
2.994684 0.548078 0.108992
3.000473 0.471296 0.096854
2.992926 0.612981 0.105431
3.002730 0.428174 0.132376
3.006463 0.382187 0.122574
2.999398 0.475678 0.135994
2.995902 0.522745 0.143100
2.996169 0.569059 0.135812
3.071278 0.449871 -0.044547
3.068559 0.484927 -0.047928
3.072925 0.432243 -0.026232
3.076492 0.385138 -0.026790
3.065861 0.519981 -0.050063
3.067833 0.499797 -0.024012
3.063314 0.554691 -0.044786
3.062565 0.571136 -0.015135
3.060918 0.588470 -0.034759
3.058343 0.628565 -0.006895
3.076891 0.391763 0.026709
3.080677 0.341279 0.023879
3.064311 0.561251 0.043953
3.070809 0.473144 0.032482
3.059069 0.630460 0.044779
3.077019 0.403740 0.088217
3.080751 0.353851 0.084833
3.065223 0.562807 0.105058
3.071318 0.480186 0.094434
3.059994 0.629637 0.095916
3.073935 0.453759 0.130602
3.077420 0.406763 0.125588
3.070450 0.500753 0.135602
3.067058 0.547227 0.143761
3.063481 0.591133 0.129403
3.099786 0.606059 -0.045605
3.097085 0.640323 -0.006883
3.099356 0.586227 -0.027415
3.099191 0.573180 -0.072674
3.096550 0.646362 0.051849
3.102765 0.576659 0.045127
3.095224 0.638887 0.110669
3.104453 0.566482 0.119207
3.102370 0.596066 0.148815
3.105642 0.547473 0.163328
3.105369 0.512577 -0.038403
3.101725 0.534175 -0.087072
3.112451 0.483249 0.039744
3.117658 0.472675 0.121651
3.108726 0.494336 0.168548
3.111224 0.437978 -0.042114
3.105120 0.492353 -0.088989
3.109255 0.442952 0.157223
3.127904 0.384474 0.112582
3.112823 0.386010 -0.035802
3.107073 0.452434 -0.074372
3.120204 0.393701 0.032447
3.120542 0.341140 0.025234
3.128029 0.333991 0.091922
3.106722 0.398516 0.127473
3.164329 0.625651 -0.102677
3.169349 0.667187 -0.061828
3.131063 0.648087 -0.037720
3.163037 0.583600 -0.125396
3.169203 0.603206 -0.081475
3.132129 0.592612 -0.060294
3.129992 0.663854 -0.001671
3.132956 0.596000 -0.018508
3.168447 0.691304 -0.010018
3.170749 0.611906 -0.023219
3.127566 0.668924 0.050443
3.133976 0.591596 0.045164
3.161562 0.693647 0.047163
3.167438 0.607772 0.043927
3.130473 0.658889 0.101156
3.139118 0.579597 0.107337
3.169969 0.680590 0.103725
3.177539 0.595247 0.111370
3.133309 0.639162 0.137923
3.141217 0.567369 0.151942
3.173736 0.654827 0.155160
3.183273 0.576802 0.172864
3.172989 0.608919 0.191305
3.183487 0.545900 0.217106
3.165996 0.537389 -0.136500
3.172710 0.524548 -0.095415
3.136810 0.522671 -0.074065
3.139465 0.506827 -0.032370
3.177040 0.510410 -0.038694
3.144717 0.490682 0.035944
3.178685 0.498618 0.031441
3.152043 0.477505 0.103839
3.189537 0.489135 0.103280
3.152473 0.481218 0.151963
3.196846 0.484227 0.169075
3.196914 0.478237 0.218394
3.171518 0.490105 -0.138373
3.178208 0.450745 -0.102272
3.142578 0.454850 -0.079386
3.146053 0.421694 -0.042696
3.184130 0.416999 -0.053040
3.162441 0.381988 0.087945
3.160513 0.401380 0.134678
3.199311 0.391771 0.080368
3.206931 0.398830 0.143931
3.206196 0.415071 0.195144
3.178260 0.444683 -0.125353
3.185182 0.401354 -0.093140
3.147308 0.407082 -0.070364
3.150450 0.369003 -0.042740
3.191949 0.362300 -0.056810
3.154176 0.396082 0.022043
3.159251 0.341439 0.008304
3.189236 0.398721 0.012197
3.198670 0.341366 -0.007408
3.167115 0.326745 0.061725
3.208421 0.333669 0.045176
3.162975 0.351132 0.100853
3.216240 0.343258 0.097257
3.215286 0.366626 0.146132
3.198790 0.578421 -0.141385
3.197495 0.606696 -0.133399
3.201338 0.592089 -0.090964
3.199060 0.635885 -0.082977
3.201586 0.541718 -0.147300
3.204514 0.533335 -0.098484
3.205001 0.503707 -0.149933
3.209124 0.474511 -0.107032
3.208928 0.474802 -0.141839
3.214388 0.435026 -0.105658
3.240709 0.510410 -0.162653
3.243842 0.488597 -0.113007
3.243729 0.476411 -0.149132
3.247881 0.440676 -0.110450
3.246748 0.442457 -0.135486
3.251054 0.398233 -0.107768
3.202658 0.599667 -0.026707
3.199231 0.655544 -0.021057
3.206561 0.523400 -0.032511
3.212448 0.448331 -0.047267
3.218503 0.401651 -0.055945
3.246356 0.468214 -0.042980
3.249871 0.410777 -0.055450
3.252153 0.364756 -0.067205
3.199958 0.599883 0.045822
3.194125 0.662586 0.047487
3.206766 0.513621 0.044434
3.223963 0.380568 0.005407
3.216018 0.430204 0.024992
3.225419 0.684114 0.048108
3.250360 0.450094 0.036586
3.254934 0.387309 0.006950
3.261959 0.340354 -0.013042
3.212657 0.581067 0.117042
3.207389 0.643118 0.114132
3.217196 0.497510 0.121471
3.231261 0.370451 0.070719
3.224782 0.417087 0.099585
3.248213 0.584012 0.125376
3.259347 0.429108 0.118250
3.259808 0.372652 0.073778
3.258875 0.332079 0.030813
3.217636 0.558864 0.180532
3.212118 0.614747 0.174065
3.221805 0.486544 0.189901
3.229381 0.416860 0.167497
3.235352 0.377046 0.132562
3.247457 0.625429 0.179301
3.252307 0.555930 0.189902
3.261813 0.420755 0.191202
3.260352 0.375642 0.136728
3.257680 0.341895 0.082048
3.218871 0.532284 0.228316
3.213294 0.577484 0.219928
3.221979 0.477164 0.240843
3.229451 0.424117 0.221131
3.236081 0.393077 0.186184
3.264633 0.420072 0.249136
3.262298 0.383480 0.186432
3.259090 0.357790 0.132024
3.205865 0.365717 0.245750
3.206093 0.322437 0.196601
3.236820 0.337815 0.230013
3.234789 0.364708 0.246423
3.267274 0.342790 0.230696
3.263713 0.363698 0.247097
3.268440 0.322610 0.213405
3.132518 0.367378 0.238567
3.113068 0.400752 0.202494
3.160069 0.393277 0.215393
3.161407 0.362775 0.247175
3.118131 0.331864 0.198919
3.104642 0.361417 0.168213
3.158169 0.351267 0.173117
3.154327 0.323378 0.202777
2.585169 0.443498 0.113363
2.570487 0.443426 0.113125
2.570555 0.419837 0.112588
2.586635 0.420445 0.114162
2.570703 0.418736 -0.006352
2.568137 0.442069 -0.006144
2.581920 0.442398 -0.005821
2.584584 0.420270 -0.005395
3.253006 0.362629 -0.070757
3.192366 0.359906 -0.063417
3.244377 0.307926 -0.037563
3.272055 0.328646 -0.043308
3.260187 0.342263 -0.014553
3.196679 0.342612 -0.012364
3.247780 0.312996 -0.018369
3.269357 0.329399 -0.021411
