2.3307179110086865e-05 0.00526683241341178825 0.018500584280179623
-6.26393071523854294e-05 -0.00556229014122314961 0.0183100544343615008
1.46509290783620698e-06 0.00510694843516011458 0.00140237965864283953
1.03036365737261346e-05 -0.00527864947138846456 0.00150672303564262423
0.00525861180204315742 0.00849211387834137611 0.00951937146079927417
-0.00540823081440533829 0.0083994218490338439 0.00955194636471794895
0.00524420487442033446 -0.00850436783152532655 0.00958281536315050073
-0.00540537701630669758 -0.00840988914100818455 0.00976406791753571535
0.0087671676532526787 -0.000149427281549476622 0.0148077482075591946
-0.00871823093802765424 -0.000254288666105010317 0.0148916036823835158
0.00839581795601348872 -1.75697087116105706e-05 0.00456769550238416127
-0.00834759733583974144 -6.37602665123989819e-05 0.00449422545438922603
8.65348231505340447e-05 -0.00016958580559278509 0.0199981874546801622
0.00317823088488424377 0.00817563763914763014 0.0148018535625027634
-0.00325255607336319722 0.0081268146271311608 0.0148348488089986019
0.00525707065333388089 0.00299824995661146423 0.0179607603495856513
-0.00521378309096280027 0.00300842945341474322 0.0179853502180065371
0.00318223735814030569 -0.0082260799730449162 0.0147122153679055852
-0.00339471674550311702 -0.00809806225486499331 0.014785110859126635
0.00523439886024326239 -0.00350626524914446651 0.0177657692841421654
-0.00507416149488247765 -0.00325402045774565241 0.0179789871527923154
0.000149779667649624338 -8.63364016073163941e-05 1.49450783187066175e-06
0.00298893359392427569 0.00795564797830165295 0.00472990121378585957
-0.0030010480604065401 0.00798488767588855994 0.00478125691927901598
0.00486557752668264828 0.00302732420809518395 0.00180479021190295234
-0.00482602766826132484 0.00301195629527234833 0.00177579327712724337
0.00296762799004231638 -0.00807757972391140444 0.00490628918011899989
-0.00308683755268431524 -0.00811400274279452764 0.00503669531327555643
0.00498006017442347362 -0.00314789745531014091 0.00191979317901000879
-0.00485221731462332113 -0.00301983973348948992 0.00179411460501014753
-0.00010629409644903151 0.00999539402577613242 0.0097157468829741668
0.00825116764670041219 0.0050019351014497582 0.0126265714737903399
0.00807987854093400286 0.00488674331811515643 0.00670829793167560667
-0.00832888981219591373 0.00484938606820339239 0.0126670300444153214
-0.00807054937295320282 0.00481001350044182874 0.0065750908122561803
-0.000120103333579202372 -0.00999909196450382738 0.0100611152571635845
0.00806085963658380658 -0.00520181223507083009 0.0128220013094187957
0.00795856378361861627 -0.00499349403073467979 0.00657563438472302374
-0.00810319091384934485 -0.00510197195347520966 0.0128823912294589362
-0.00797127450101557666 -0.00498897255326468878 0.00659868618145422435
0.00999184354568121921 -0.00020320774052012388 0.00965104560065634109
-0.00998997160381584655 -0.000240673754954407533 0.00962245066729077413
5.82314221227597122e-05 0.00276964056072243016 0.0196086263464596601
0.00161055913294826493 0.00693761736512410292 0.0170196555880189303
-0.0016210234224008403 0.00692445525342943666 0.0170302348827959769
0.00264906942997419643 0.0043539753319528484 0.0186037974153232082
-0.00259248357442679348 0.00436119990150957235 0.0186173641176058113
5.75364231285831554e-05 -0.00310246711467828144 0.0195063866617318574
0.00150740982509264885 -0.00718977112840289007 0.0167849028541607256
-0.0018265784265392819 -0.00708370280122328291 0.0168179737367961969
0.00260712252592803107 -0.00471292770789246123 0.0184256290302254704
-0.00260945207970851014 -0.00461125186087739912 0.0184809855629672927
-2.68502260764895691e-05 0.0025721546523986517 0.000336496519920758124
0.0016214308095264438 0.0067601305926148084 0.00281170420052765388
-0.00162631606692332847 0.00677652605064157053 0.00282826445444039117
0.00250636631145232389 0.00419375993519801975 0.00127472031859466651
-0.00249151158121211106 0.00422109591099910017 0.00128365217818651842
0.000177680491886225646 -0.00276754340068604372 0.000392235787233212755
0.00157242901088818789 -0.00692006633304719909 0.00295442344786859276
-0.00162656545768037511 -0.00697892107547076323 0.0030251204000190067
0.00262503351333565104 -0.00441975121153486295 0.00142241302684718916
-0.00253004973863264673 -0.00430350702328717409 0.00133520481369796772
0.00444587591759730474 0.00870025541683248048 0.0121306672680654235
0.004203207558984858 0.00857654171330910799 0.00703757220240536219
0.00271590568973283228 0.00961333524008605757 0.00954432265121427786
0.00700951384261156926 0.00705004432191565743 0.0110786986369054152
0.0068829662020783557 0.00695633759920265965 0.00794229655514541374
-0.00458078563392886728 0.00861726579816702448 0.0121815437515052864
-0.00429404003060298873 0.00854409496244073162 0.00707431008335230194
-0.00292217159186473723 0.00955656917211390559 0.00963544705967322133
-0.0071129651287197785 0.00693949580566904749 0.0111176426265663601
-0.00702039091397045015 0.00682531376082833995 0.00796795583677704922
0.00445289550426543682 -0.00868821021346063635 0.0121648845038040566
0.00418912313855130097 -0.0086283073363164868 0.00717094364847194795
0.00268313300285099796 -0.00962609197006706122 0.00962697094909080453
0.00693471858732168898 -0.00710807207298459927 0.0111768557770226141
0.00689273963245876867 -0.00696893010725632613 0.00801905236835789154
-0.00466605726621171363 -0.00853336792323294152 0.0123258421002234771
-0.00439006408740413336 -0.00857145974789074415 0.00730604099905487504
-0.00289449027687706684 -0.00957065249164596073 0.00984335734547988998
-0.00707063873091740361 -0.00694769666448501796 0.0113174137524538337
-0.00698290028887105577 -0.00691981549213497617 0.00816826390806609307
0.00739026341268839409 0.00140836091239408888 0.0165879075761215557
0.00734024749355564627 -0.00180509595681177916 0.0165469378582702165
0.00888690432951294226 0.0024764723484629607 0.0138587583683592429
0.0088107285647092623 -0.00274476618986620223 0.0138519242881946225
0.00973226179878865054 -8.08923660707508446e-05 0.0122970713321424261
-0.00736108598796372891 0.00137305870247222224 0.0166279048633311971
-0.00722100284169477965 -0.00184405132950086407 0.0166675777201620995
-0.00892782193078358807 0.0023279080344392987 0.0138567913808517757
-0.00867266180832364057 -0.00281940114769734873 0.0141031590667201057
-0.00971991553257872849 -0.000328857371488378144 0.0123270356397684362
0.00688998376123021311 0.00164195140668276472 0.00294081312415682937
0.00689292400675921551 -0.00155330612443421224 0.00292364227014789381
0.00860617282771463689 0.00249751911803854131 0.00556196129866601881
0.00848999967126455417 -0.00260388242198709898 0.00540220684301758076
0.00954668257362915884 -0.000203333295723357111 0.00703023445214683539
-0.00680238776408521872 0.00158004996702108976 0.00284241920697080996
-0.00686250674720778608 -0.00158190490778646001 0.00290045226741528781
-0.00851670218064428872 0.00244065517410316148 0.00536222183720132424
-0.00844502489652955782 -0.00267181280790397286 0.00535855940288834307
-0.00953013135828288324 -7.02416729849325729e-05 0.0069715247398650362
0.00290046911428435686 0.00134974220655009899 0.0194744643591571835
-0.00277278315777476246 0.00140751527610837751 0.0195042398069220774
0.00289968926567320609 -0.00177886487903408576 0.0194035866510964133
-0.0027307792112935261 -0.00165594817202455754 0.0194763221004108783
-3.31746814355740087e-05 0.00866322088228222049 0.0149947475797382289
0.0045620536781339387 0.00590003001496207987 0.0166616298351357772
0.00148838187766874128 0.00958273873369955807 0.0124404585118131975
0.00603351822990280933 0.00685315603623954869 0.0140781012876562903
-0.00457987143044908535 0.00586095932443593277 0.0166838561832121854
-0.00161878805452837652 0.00954900236302752038 0.0124891924605002036
-0.00611100298162549609 0.00676134414807348042 0.014115807073937843
0.00540222622247599552 -0.000240349327431437702 0.0184117883973621208
0.00705905101417073685 0.00434792356023866716 0.0155915435698612444
-0.00529756056938654549 -0.000140059971405756772 0.018480344050691027
-0.00709346192063044223 0.0042652052162478445 0.0156116684189158989
-0.00013065951268320585 -0.00884670252421657435 0.0146603414617134525
0.004491790967453042 -0.00614207622722054859 0.0164883521423948229
0.0017182799081999745 -0.00955935173073916601 0.0123804009420873645
0.00591810790028047921 -0.0069219876443558882 0.0141306277890923815
-0.00512718531796684494 -0.00574406797508753009 0.0163810386155232648
-0.00190658606475695332 -0.0094807293908675417 0.012545721861243881
-0.0059898964804359139 -0.00642300302086936704 0.0147818586708062007
0.00690570693839017476 -0.00465356387236876435 0.0155367458824524369
-0.00653066416535580743 -0.00498716137672023264 0.0156990040324505378
0.0030675806516480492 0.000783118679117743885 0.000514396483088099877
-0.00308925588237570674 0.000917390335259269589 0.00053348569609806384
0.00328063090833945366 -0.00111973486917918918 0.00062003973004191588
-0.00270205964040756696 -0.000873610768807430728 0.000411690559629177564
-2.22194274740410537e-05 0.00880358932353246873 0.00525697129255706021
0.00495540764499834401 0.00554254533870926838 0.00331239009509046514
0.000882598853637268682 0.00940090160750961003 0.00670696671297094354
0.00560215777689083896 0.00641092651687826063 0.00475444479220658075
-0.00493225569905911525 0.0055562035358837714 0.00330661102378387297
-0.000827166964821892683 0.00946632909253590504 0.00688481006612506538
-0.00561403833431815998 0.00640772405732635986 0.00476324088906438306
0.0045494868691225137 -5.40905606702915174e-05 0.00109498773504897347
0.0064751321593920488 0.0048954237000211169 0.00415983816014672044
-0.0043516287221540299 -0.000257203289139969411 0.00100015700511505204
-0.00642547647196693456 0.0048865935752659944 0.00409792787756973857
0.000149894468168086843 -0.00888924537282903549 0.00542191651997801696
0.00480216229801686163 -0.00587829272213199333 0.00348963043011877661
0.000839824626209463056 -0.00946568442737781915 0.00688623814036635248
0.00554202884733922662 -0.00653954264540742777 0.00485021376713969977
-0.00476516621856411856 -0.00582872148046631369 0.00341826794737084888
-0.0009443396454976912 -0.00946550469985938704 0.00691577507128919838
-0.00574475535868923873 -0.00636829861499631916 0.00485776715627858537
0.00627509991418774993 -0.00497096999907911327 0.00400728956688075223
-0.0061338147071427207 -0.00484937130264046987 0.0037662278588669342
0.00896465318660563323 0.00441696586267691354 0.00964587316985543626
0.00954591935090770387 0.00292263482077480827 0.0105776066571296058
0.00956155356687074694 0.00271523072661232403 0.00890263247308770676
-0.00900157911884529559 0.00435251460507693564 0.00983510615608719323
-0.00963131147856264962 0.00265751968028387015 0.0104188416786940938
-0.00942280128689894532 0.0030586734287440338 0.00863789399681565498
0.00885294968259310588 -0.00464915361556406462 0.00989678868103642008
0.00951653409616803891 -0.00303618196141966891 0.0104660234904176003
0.00932087968234752463 -0.00337158060215481722 0.00867574693114402107
-0.00887106144215375064 -0.00460655994859595751 0.00971038934839228013
-0.00938373405120795055 -0.00337770426553626662 0.010732563410756053
-0.00940916251163365774 -0.00315885048723493289 0.00877962119447959523
4.00915452657841975e-05 0.00411333315798190647 0.0191147618180314942
0.000789717057189931178 0.00611998276845314177 0.0178690633421913631
-0.000770273237288255372 0.00611716017902886027 0.0178731842658495614
0.00129050507422650532 0.00487762043928040203 0.0186338528771174752
-0.00123610351545451187 0.00487988582747448957 0.0186405302157850589
2.455431944114992e-06 -0.00443293194646888697 0.0189637664142273087
0.000679788357979820446 -0.00640103207356742566 0.017652756116688692
-0.000907099260641195879 -0.00636416780942300562 0.0176599307454342012
0.00122426646990849331 -0.00520300652058380657 0.0184516208361130488
-0.00130806852722879351 -0.0051581888707130279 0.0184665249247920916
-2.08145504073533118e-06 0.00391997828779147486 0.000800338816522190295
0.000774823499717960376 0.00597233140173504193 0.00201683608009115434
-0.000773446434740749809 0.00598016716620443801 0.00202257050944120061
0.00123083688646866509 0.00470774962695303702 0.00126374599677689945
-0.001224241897900226 0.00471893219545483928 0.00126885398643881379
6.98146480110224926e-05 -0.0041040227703639607 0.000881221407707214518
0.000754564821022740673 -0.00614196873819658311 0.00214462910169794683
-0.000797463656896244314 -0.00614640191367881762 0.00215233823158419773
0.00128332593993149232 -0.00489600220433101044 0.00137548627764528153
-0.00122617221330807301 -0.00486829453676636444 0.00135151978630916104
0.00491722997079567428 0.00867381874638691215 0.0107653220035617454
0.00480218012265563703 0.00860516190264069142 0.00829992509020563603
0.00407632079595787646 0.00911948207382863932 0.00953239389058796981
0.00616441513315416773 0.00786931555287201552 0.01027176974715098
0.00610426256152476858 0.00782176420201007722 0.00875180796825138912
-0.00506773103330271282 0.00858266463653878028 0.0108099196940482766
-0.00494056844594657849 0.00853261744082814931 0.00833110124950843522
-0.00424427936221897888 0.00904498730450733687 0.00958251065074281795
-0.00629678593201007074 0.00776275799417481833 0.010300125390986856
-0.00623994611469288682 0.00771745474917569403 0.00877363762282322261
0.00490597991197543656 -0.00867623783110955428 0.0108088622882276594
0.00478951135735252755 -0.00863007243276040815 0.00839300567421661682
0.00406005441241929534 -0.00912987158053650896 0.00959824996439779914
0.00613400287958352098 -0.00789069473129811252 0.0103330845699297642
0.00609432843912086509 -0.00784077754403657116 0.00882468371020628597
-0.00508929133553155059 -0.00854966071956714257 0.0110012069128677375
-0.00495475752233267425 -0.00856503096485252378 0.00855410150217753365
-0.00424377662763442999 -0.00905229872993312118 0.00978494735808424151
-0.00627833148857302997 -0.00776631166117646658 0.0105166787213218666
-0.00621974441998087487 -0.0077643844715483681 0.00898554786801183253
0.00818944952065147821 0.000602371335330616339 0.015707018952401796
0.00816540900121252161 -0.000945202272742754076 0.0156949704570365847
0.00890650695187515835 0.00112117317855691019 0.0144064843832565712
0.00887079634473892861 -0.00140501130035955023 0.0143971485596950718
0.00932076231947965954 -0.000122754517496015045 0.0136205415495754892
-0.00815330634559011287 0.00052775382571642747 0.0157658539293327286
-0.00807627452512085266 -0.00102152171042354752 0.0158077778185823636
-0.0089037650413278744 0.000994833380494741923 0.0144422150593910975
-0.00878060973817432894 -0.00150676033948166695 0.0145420882758091827
-0.00929155829283194283 -0.000268894129747837085 0.01368709105364827
0.00774868948182149461 0.000793358834948096098 0.00372876462941162511
0.00773656526000741744 -0.000756263237458832944 0.00370924297931364598
0.00856622547571755759 0.00121172441535341135 0.00498487238044694088
0.00852468597896859429 -0.00128460167520472049 0.0049325028370962587
0.00903856758814240713 -8.4724605534645657e-05 0.00572248697304163396
-0.00767921703175288971 0.000738384457273654404 0.00363726362541296226
-0.00769244042592403914 -0.000805580009652281004 0.00366143540368497715
-0.00850355508705031779 0.0011654376496452797 0.00486859610181678004
-0.00848947933007158755 -0.00132889311943003123 0.0048850431300529254
-0.00900338274763974253 -8.76144742832956123e-05 0.0056489745112905743
7.51617847910494147e-05 0.00132610937800466491 0.0199113967039804794
8.44049946148002701e-05 -0.00166408546245786133 0.0198602076738028412
0.00152855937445318013 0.00056850258650470724 0.0198661193509864255
-0.00136987103987728262 0.000609602760249240835 0.0198869529081917851
0.00153038755425082668 -0.000956270183854425774 0.0198358253984739462
-0.00135651621304940049 -0.000899714175070139726 0.0198666295241542307
0.00241774586686268993 0.00763460490136493117 0.0159889325362140254
0.00386177133076163939 0.00853539164319157273 0.0134976866192160431
0.00159881787339760813 0.0085438456088069055 0.0149443385422698659
0.00394159221928947097 0.00713494585532858591 0.0157927884838276397
0.00233836613416417991 0.00899746742781764794 0.0136847827219463754
0.00466794048804404591 0.007597198133416601 0.0145269097761818108
-0.00245970903114763485 0.00760534693090631365 0.0160090373224539596
-0.0039685659294456466 0.00846723282684561616 0.0135435085324620286
-0.0016679612603834272 0.00851859103112882592 0.0149650289101103638
-0.00398787761748854806 0.00708701943966897653 0.015819878655924699
-0.00244081320856774772 0.00895354744883832855 0.013725106570593908
-0.0047453393411505387 0.00752690114173917759 0.0145637170968207965
0.00398915049763037908 0.00372070754218836123 0.0183811105286088398
0.00640415364915572754 0.00221617596910304599 0.0173535964066554235
0.00415052844059737337 0.002174647533988099 0.0188342527565556889
0.00499934625192641636 0.00450786666264044091 0.0173949763491984336
0.00537595308388114524 0.00140404688249772588 0.0183143118050538151
0.00622456959522475935 0.00374655551125301772 0.016871539504019685
-0.00393659352947624188 0.00373262545190087332 0.0184006391792236601
-0.00637100410313050369 0.0022113986611694194 0.0173837675125421177
-0.00406403467149952461 0.00222002268252264288 0.018863132712418039
-0.00498738330726161694 0.00448799230392402972 0.0174151151593462707
-0.00530094064133545401 0.00145426610937156027 0.0183537499603574072
-0.00622235612745536317 0.00371090152301315618 0.0168928581959603176
0.00236712762276122769 -0.00781104079840782509 0.0157779190426285167
0.00388178796948412518 -0.00851685619903541115 0.0135206366817552191
0.00148612107131646225 -0.00872117056659981425 0.0146618266923666651
0.00410530636092603426 -0.00712981897868482893 0.0156843769240019512
0.00230155588111881663 -0.00905260430440870019 0.0135711616924872568
0.00479397258646081965 -0.007474221894417943 0.0145993297243474096
-0.00268889174125466496 -0.00764976702645850208 0.0158524290379910351
-0.00407349787406709532 -0.00839712650028725908 0.0135909443894530468
-0.00177031479282497824 -0.00859446012302736602 0.0147959608764039689
-0.0043986728582436109 -0.00700198168589504129 0.0156235157647633023
-0.00257051358229009284 -0.00892780445421650568 0.0136995631567164919
-0.00479751372238715855 -0.00750348027632885637 0.0145477077551499218
0.00398181744720577623 -0.00415237092107734618 0.0181794220792742406
0.00634583150056778917 -0.00269779567055848483 0.0172423974681259716
0.00414591864749491029 -0.0026415235010161177 0.0187082554028883165
0.0053589592894410067 -0.0018950560496354405 0.0182274125885878678
0.00502119783345277623 -0.00503686411999516512 0.0170297633071131577
0.00614137401152684437 -0.00434695471062937142 0.0165869196134672686
-0.00384690502557877723 -0.00393090458008267269 0.0183516052891921216
-0.00621214979699559727 -0.00261045272332610006 0.0173888247698106152
-0.00398042302811215526 -0.00244014180990635232 0.0188431861037084043
-0.00522734300506141978 -0.00172758329091154852 0.0183480740940889266
-0.00482348686893212947 -0.00461666871536325994 0.0174444841592836693
-0.00589501194833886959 -0.00422870502108037716 0.0168823606396084451
-5.51325111247037255e-05 0.00122917822124221144 7.59846177748735302e-05
0.000303770061739856256 -0.0014165977600662169 0.000105507868729898258
0.00144372397743027241 0.000653371427096191885 0.000126359999714026339
-0.00155681267185775376 0.000374487130894895625 0.000129027722988113154
0.00183442680709298869 -0.00053441751814301084 0.000184233284876801357
-0.0011383641350063054 -0.000816536070674004602 9.86164632704189536e-05
0.00242742926254562678 0.00737810278625714022 0.00370149331581193014
0.00352370904926228206 0.00839587380804887595 0.00586565875435203238
0.00148519167555852933 0.00829658770575497813 0.00461847250981963463
0.00410083093395251317 0.00682818425766958115 0.00395358904849732375
0.00180184281813628756 0.00882701148348442703 0.00565981213204258538
0.00438623612781403882 0.00745438003070960243 0.00498072206499611952
-0.00243867400466156285 0.00740036535484557036 0.00373202889973244011
-0.00355683273570840284 0.00840609182193608959 0.00591508125278209819
-0.00151462049499325661 0.00831812707271560071 0.00466008551020691102
-0.00410442042438857561 0.00684772164657346596 0.00397816961124683802
-0.00181682486015026338 0.00886200384506813897 0.00573807141336958506
-0.00441089208409874752 0.00746257687988981407 0.0050146236517020085
0.0037036068462768159 0.00362478276463671333 0.00144755904800248584
0.00591216557888659885 0.00239956116158190989 0.00230010361110903226
0.00379241598489005963 0.00219164438622570547 0.00101032392786727264
0.00467468782472058898 0.00438696925375873376 0.0023252495475107062
0.00468792301462402864 0.00143924477678249976 0.00128495827425578637
0.00575004314500068663 0.00405413465884420059 0.00289359472035341731
-0.00368238981882410389 0.00365588142111032471 0.00145163546302563449
-0.00583346938069835997 0.002343605696558304 0.00222323027706785269
-0.00378501297222003791 0.00223386292063097345 0.00101759869233420839
-0.00464413010173700055 0.00439909445360338758 0.00231364692546483404
-0.00463279572014365596 0.00138494445723906143 0.00124676444588737068
-0.00569712254316528943 0.00404131104483171529 0.00284384182909020247
0.00237620383667705394 -0.00752507818611733784 0.00385778105084308648
0.00351453091299381692 -0.0084797353076417354 0.00603236070516169429
0.00152766947013132336 -0.0083946515235529158 0.00478501660710799713
0.00401801476799896681 -0.007018386109772453 0.00411800937281473454
0.00183393233144794388 -0.0089114622966727404 0.00584999615197164934
0.00435133043126985624 -0.00757693506186743297 0.0051362587912031285
-0.00238688692638288832 -0.00764824336178517982 0.00401609289179958966
-0.0037728119330332024 -0.00842026083298437478 0.00614447181018326107
-0.0014603168843626464 -0.00867779134334152255 0.0052499040011098402
-0.00409369040011991168 -0.00700544060700960224 0.00415487375588627708
-0.00230115344580422449 -0.00892215745032174865 0.00611415398522645141
-0.00453281719782145515 -0.00749458096701170057 0.00517456485070620469
0.00388949562623111663 -0.00389768586604587707 0.00165255316499977943
0.00594933145956430542 -0.00230847347967811506 0.0023008828182796647
0.00394927072407532092 -0.00245976282420217731 0.00114828674229477175
0.00477698164393229856 -0.00155060197834464572 0.00135268366033209362
0.0050355216449436517 -0.004642335850550754 0.00271355782195486063
0.00590645590128640458 -0.003790740556558936 0.00287651316285218121
-0.00374551184682575967 -0.0036640344773637497 0.00148260648120696406
-0.00592542810798712006 -0.00231602770793803807 0.00228473478141292619
-0.00383926300263863268 -0.00194454917846159864 0.000973439852905508903
-0.00494467208030748874 -0.00158443952642703411 0.00145366924315918473
-0.00488842054895588345 -0.00453066346491967208 0.00254503969801395027
-0.00578797023673220841 -0.00371643538737820734 0.00274138384055575652
0.0013057396640118314 0.00990588669028764045 0.00958956997063024896
-0.00154316089583242107 0.0098767233767330341 0.00973734092616300277
0.00067191376358268569 0.00991700057318042547 0.0110961895483205827
-0.000831189110523234201 0.00989893522219036613 0.0111490022321242607
0.000395853848689878187 0.00981339451262968135 0.00811835500958148909
-0.00082890637727724148 0.00984035840054839177 0.00842511563393823042
0.0076856820534764456 0.00610820307194448377 0.0119026682855290569
0.00867373600689403702 0.00378159570340916209 0.0132350946846525579
0.00723655166379620716 0.00598003815666905882 0.0134454990439688837
0.00774686317605864736 0.0047628417668073731 0.0141595010801515292
0.00853060979235629666 0.00509926757967802628 0.0111073241266221329
0.00903755436353295173 0.00401042155128779419 0.0114963723156864747
0.00749792947934503629 0.00599450053628181913 0.00719874727250723913
0.00848933171421675445 0.00369759313774181524 0.00622388400155420539
0.00691696573234572721 0.00572351280210102887 0.00559579902119117928
0.00754093672854457605 0.00463672862133778126 0.00534865385633852448
0.00844547963815212542 0.0050252502829879345 0.00815047755491112719
0.00896977797766131645 0.0038929316101594673 0.00790520490021498837
-0.0077641390925932488 0.00598999830137133572 0.0119590978792377366
-0.00874414113863750293 0.0036169714140076711 0.0132338079005776751
-0.0073116388125224422 0.00586388697642107985 0.0134863687990478941
-0.00780882835552120218 0.00463854826762124129 0.0141840255356481745
-0.00859371237513913144 0.00496934174263238999 0.0112057156622984676
-0.00911834154663382183 0.00381258214934136795 0.0115231758905179182
-0.00763203520141017382 0.00583899463017367813 0.00723265824422806344
-0.00837511135908575698 0.00364522507913105477 0.00592939269329664873
-0.0069347456517985474 0.00568428176994835617 0.00557300965613274565
-0.00747193747011486772 0.00461126991189490104 0.00521394314259157523
-0.00867827707882000768 0.00462631209792723451 0.00818761391646277356
-0.00887591686245830722 0.00375824296002546078 0.00733659809564020816
0.00125221878099798746 -0.00991860607342660329 0.00976934509608327374
-0.00148165933188968563 -0.00988941187349944018 0.0100649493688381737
0.000741362792115610701 -0.00987016122393350424 0.0114248854775124958
-0.000714123095531141584 -0.00981526346850196234 0.0117750017600892348
0.000306812837049095838 -0.00984913806959263928 0.00829696002127875559
-0.000863604180862018525 -0.00986812634457567665 0.00863096009324449374
0.00753732670037751511 -0.00622955780392895654 0.0120931592818713206
0.00853272301038888147 -0.00403117128526100758 0.0133079141610488033
0.00692170916767603089 -0.00614790617608539786 0.0137806337892158529
0.00739803140855447173 -0.00509232776345016833 0.0143974230212291499
0.0083962176888712145 -0.00526999741553136562 0.0113155439032502168
0.0089397155453350037 -0.00418225323230287088 0.0116094234586919271
0.00751283112679846602 -0.00600404152656320873 0.00725977121256041538
0.00829437664823401075 -0.00383495420690314935 0.00593841875026657282
0.00683162846277875907 -0.00580526236791592889 0.00556967479904575593
0.00736279933409676821 -0.00475335595925796984 0.00518390271169581144
0.00855232029160670273 -0.00486744784480656542 0.00822073916812059678
0.00877405037782311333 -0.00400205807390697534 0.00735432973700461505
-0.00770353718454528432 -0.00603433990334291404 0.012059673949257884
-0.00839964506408279708 -0.00404933245405261245 0.0136123218951231008
-0.00713381333895431614 -0.00602980996274378976 0.013570728085160395
-0.00731208726522579455 -0.00519435662151982586 0.0144217687766544176
-0.00865052546592141695 -0.00486077808589797239 0.0112414691148389895
-0.00888173634886892105 -0.00406937534514928163 0.0121342314142266084
-0.00760447926316331832 -0.00596066675161666983 0.00742272488618489316
-0.0082163660237794707 -0.00392661169404904132 0.00586804526072227592
-0.0069551377058403108 -0.00594477592545792407 0.00596444567761821986
-0.00707001276466453187 -0.00508732184437062779 0.00508735550245389533
-0.00862137769921678641 -0.00474236737909345275 0.00821624042843275074
-0.00881330300217834234 -0.00391433913001979546 0.00735356100259422583
0.00995277101026390172 -3.06960009936448828e-05 0.0109702612909796434
0.00985674487036892859 -0.000337090029933886329 0.00834744111385554363
0.00988986806348757068 0.00147659393844934536 0.0101008961235292925
0.00988143445211259186 0.00110770375036584653 0.00893686991857640077
0.00988228744734109647 -0.00148136789459440304 0.0103820261365266831
0.00978986973487317932 -0.00187616425037958928 0.00920096415611579808
-0.00994487024827785809 -0.000417245843570654851 0.0109620091740419839
-0.00985478944994348793 -3.52490402287806618e-05 0.00830238920760809074
-0.00993749893555837156 0.001059659468149284 0.0103510508757114969
-0.00985201335997313785 0.00149547958346986365 0.00916251951047466345
-0.00981014171331347565 -0.00193710919518235488 0.0100934212537214067
-0.00981728547584961517 -0.00154191693724244679 0.00888492240435156261
0.00144195120914780532 0.00351258532074868925 0.0192510821569640139
-0.00135048237621771092 0.00352460856709483012 0.0192603094872842717
0.00150129916898269654 0.00207288759305155517 0.0196669145973151563
-0.00137353297766943674 0.00209818004695438466 0.0196804466658216277
-5.17047405361490747e-06 0.00710292647953755362 0.0170390630550153709
0.00226503471496520333 0.00573638267357465866 0.0178716917852717629
0.000805054202160122552 0.00790633450125825983 0.0160697415501648531
0.00313525598022626516 0.00650430804518296879 0.0169183919223923375
-0.0022435685206986136 0.00572892535911716672 0.0178832616677739725
-0.000844101911972633466 0.00789642664227477482 0.0160773298614915773
-0.00314791108877396798 0.00647879702410325033 0.0169365585773959097
0.00282357068206000664 0.00288177338211709341 0.0191500180752571525
0.00366691719467316345 0.00518160285934373376 0.0177268823011258007
-0.00273064101374973856 0.00291106196384411471 0.0191689322113694285
-0.00364786381313685071 0.00516965536114473174 0.0177438848808459324
0.00141686355893265231 -0.00387159142595791496 0.0191106134527713259
-0.00134930650512722432 -0.00381528746869665147 0.0191445586818844195
0.00149932442774594783 -0.00245239240873403519 0.0195779850560516139
-0.00134587485836649653 -0.00238838611504120025 0.0196168722894242177
-0.000143512118965275067 -0.00732945460845904964 0.0168013601150246786
0.00217978218785364053 -0.00603944375553344594 0.0176663986810799284
0.000696764377504860595 -0.00811885636604592342 0.0157964377603624639
0.00307423262093085153 -0.00673963719948222385 0.0167176174505370631
-0.00240039692614005089 -0.00594314525749908059 0.017675748761211741
-0.000979335692079814912 -0.00805655807566548789 0.0158423260415392585
-0.00349052936880080112 -0.00653917918823431008 0.0167123274852842459
0.00281448778384287565 -0.00329114440641603209 0.0190137132753774515
0.00361760947950346161 -0.00551700743360774605 0.0175150203347245563
-0.00267377790265971912 -0.00315656592629668959 0.01910422996635033
-0.00379581948877801782 -0.00535787442338825793 0.0175422102908772658
0.00134973780054475781 0.00330850947652241512 0.000660194171528940589
-0.00135242302172853515 0.00330363535752911707 0.000658857382804708394
0.0015139329470712701 0.00184233420449227939 0.00028847016630593412
-0.00153783484691636893 0.00180859850857541921 0.000285884733111898528
-6.14747984424202966e-06 0.00697704422347449928 0.00283614516393773447
0.00224514038530867653 0.00558006389587333701 0.00201111825295762197
0.000738164871947791994 0.0078297093346854172 0.00382336949816792582
0.00328517518786494104 0.00625672097345538955 0.00292461544187455538
-0.00223608711814101595 0.0056016025132544691 0.0020236622636961377
-0.000764926335293592019 0.00783738439042100041 0.00383637333882400197
-0.003279029926533698 0.00628000045116204695 0.00294241138388607118
0.00267804284088972964 0.00258466982063853884 0.000718428556508353736
0.00363951850100156186 0.00506364760793634027 0.00218249541199316485
-0.00265829050218225737 0.00263136997771813317 0.000725875585998897476
-0.00362219423132042377 0.00508872692632348061 0.0021907383690966376
0.00148712737422186572 -0.0035083707104612877 0.000754472046939811368
-0.00129743206342512805 -0.00346522353487579765 0.000709741882265094702
0.0017331339768403395 -0.00201360007000117667 0.000359374430234683524
-0.00131306209570102917 -0.00202226786974981938 0.000295037321256163003
-5.21822878936295523e-05 -0.00715349633379536946 0.00301252783825177624
0.00226214318458146111 -0.00575610751196232052 0.0021418873434403728
0.000727054165856475128 -0.007954482362203915 0.00398355565227288561
0.00320797653926675102 -0.00644918469333963587 0.00306336513035983292
-0.00225526651938649011 -0.00574081325873997735 0.00212873351646574935
-0.000779118708624074651 -0.00803152473167948432 0.00409342869997383896
-0.00320902390222332478 -0.00647070912103176778 0.00308392531373787851
0.00283612765562763153 -0.00286558191703871479 0.000848780398344445362
0.00370987674869305457 -0.00526569849213938488 0.00235086711454248094
-0.00262243056142297997 -0.00268305381743497943 0.000730475731556535796
-0.00363605239469343578 -0.00518685370812307402 0.00226206283344365568
0.00355415314290059977 0.00930132437656954435 0.0109237750151649389
0.00581378772125126873 0.00794903373408224756 0.011735723199894051
0.00299477749849272334 0.00925302333567214717 0.0123265568731557671
0.00529659619113442837 0.00787182873286701099 0.013159174130761021
0.00336866158766850913 0.00923872973057122959 0.00818396253529121535
0.0056529569166445812 0.00780005294728392234 0.0073161124989807062
0.00258604334728753478 0.00914567778213734757 0.00689050523215279254
0.00507654429761315255 0.00761589933655032469 0.00597175282661258425
0.00213581824017925349 0.00971709261611618594 0.0110081624545369221
0.00187268239091212371 0.00963910719109970122 0.00810773331127516254
0.00715100063665678829 0.0069738951069167731 0.00952253070019475241
0.00658834466180395657 0.00705215885533068149 0.0126193071787135576
0.00804309306178761264 0.00593468681933196837 0.0102968945197732149
0.00633656995889292796 0.00681753204725659302 0.00634361682250273156
0.00798857954333710187 0.00590151038520845932 0.00883605324303356025
-0.00372409875358453626 0.00922763766726216947 0.0109908539525452251
-0.00593465325679101187 0.00785024918843980901 0.0117758035930417386
-0.00313503294477108976 0.00919069245899517724 0.01238804115529216
-0.00539975091124365175 0.00778391718219384812 0.0132020811041056937
-0.00352277296591199706 0.00919089600581005257 0.0082343552902623806
-0.00576521964989929348 0.00772588445445867699 0.00734049783140362528
-0.00263665627589837427 0.00915121870592771822 0.00694987871076503498
-0.00513845387186535711 0.00759023061553920457 0.00600191408175821534
-0.00231692722852440934 0.00966545694850108085 0.0111003591206485196
-0.00205743675311066297 0.00961981243315323913 0.00820384779099882222
-0.00727816053455978412 0.00684230558636261289 0.00954039854655646877
-0.00668209856252895661 0.00694685668788406346 0.0126628445239346781
-0.00811616938559369186 0.00583100842562258356 0.0103565602959811258
-0.00642195541274371423 0.00675010196094107638 0.00636756112320783271
-0.00810891593454471198 0.00574061404097641389 0.00886385177066050488
0.00357307624995875824 -0.00929135350238683051 0.0109507240428560904
0.00576972648494471739 -0.0079688779673621965 0.0117908769444651507
0.0030737692278993145 -0.00922680645796658712 0.0123276566157501221
0.00525435125020056598 -0.00787719186830254312 0.0132158422239693381
0.00333267413825809279 -0.00927437884867125285 0.00830318531963418829
0.00565299502460042593 -0.00783305512166372099 0.00741409692509162766
0.00255365654841129778 -0.00921037930734361875 0.00705929409025441747
0.00506232552093259687 -0.00769198415083737191 0.0061004820626927303
0.00216900064712427596 -0.00970504915446256979 0.0110523578774541636
0.00180496895261697239 -0.00968156960695352141 0.00826526744833601563
0.00712361850682801442 -0.00700634660381585766 0.00959359301633042234
0.00647625178206544336 -0.00711298705484525451 0.0127319549800276755
0.00794514154244285384 -0.00605682138997661913 0.0104354773478270782
0.00632801944756325799 -0.00687012453371966918 0.00642822750410327812
0.00796732270484871649 -0.00594503663947989602 0.00891450091108110867
-0.0037559865832724232 -0.00919849532539002319 0.0111314806825816449
-0.00594049594375374232 -0.0077906984021757688 0.0120038778277582834
-0.00326930790440758175 -0.00912692160376246155 0.0124517193691269391
-0.00546464050052474035 -0.00761546056636751723 0.0134846039318875354
-0.00354765007510805374 -0.00922503011986947237 0.00847914555854714473
-0.00577606409345551158 -0.00778755144910586988 0.00755232232190939171
-0.00275880988787578383 -0.00919731480654210377 0.00720744411838899687
-0.00523324601050759522 -0.00760551128433757401 0.00615691083927003089
-0.0022992788673620191 -0.00964683249054393462 0.0112852780203085718
-0.00205592409708133016 -0.00965765239959479223 0.00841793608357902824
-0.00723069843005689876 -0.00690243992398728058 0.00972921722854073502
-0.00659354960276154357 -0.00689163408029722351 0.0130050762617958532
-0.00805429460850563481 -0.00590800645195802433 0.0104730730630879405
-0.00642260001866913621 -0.00684646034625361992 0.00655381519251099862
-0.00802558968466939027 -0.00587518566997082946 0.00896457566346075575
0.00738434888438432857 -0.00020149041818173056 0.0167402368775194307
0.00820817645499707059 0.0020690989538626396 0.0153239711496923302
0.00646179991141998013 0.000598839552681650761 0.0176083199916221185
0.00730583459609677761 0.00292701768083234587 0.0161690638147591152
0.00813924447137675047 -0.00239210368650577239 0.0152943875366437325
0.00644264924238918246 -0.0010591528523902511 0.0175743294075987808
0.00720534219946073178 -0.00331242783487155747 0.0160918688123956287
0.00944997866827724207 0.00131912587660493403 0.0129929600884035046
0.00807478452836040209 0.00345366147519680661 0.014782266955669969
0.00935347537690511301 0.00271477172440003208 0.0122677109291150464
0.00941236747926025262 -0.00154780257160572351 0.0130019403116475724
0.00793919939104805426 -0.0037532958311123246 0.0147835011689490658
0.0092893391753128933 -0.00293072877314488932 0.0122625221643683033
0.00977118353832438606 0.00146693521875477747 0.0115401536690718336
0.00973939649463350515 -0.00163008755377449361 0.0115770131538291306
-0.00731440808542714333 -0.000221440909166084642 0.0168154529037757815
-0.00821586501214606989 0.00197600277709157699 0.0153474269632338529
-0.00639602047801197428 0.000629162644739417513 0.0176612712007418182
-0.00731207900260035914 0.00286571183491960606 0.0161904116453538589
-0.00798231818258007819 -0.0024995991841894943 0.0154803832302541321
-0.00634464415293488088 -0.000996376675449327752 0.0176650325565681603
-0.00700235212740854453 -0.00343226475551584214 0.0162599219908734355
-0.00946772438928889133 0.00113327193019274958 0.013012953637330231
-0.00811614272051838087 0.00333849826835090797 0.014794023013335926
-0.00941781515883698649 0.00252200316416819389 0.0122235686798266192
-0.00935520975926340363 -0.00166236293649265959 0.0131171461030176722
-0.00770965401831180588 -0.00390705391655766631 0.0150295292633645192
-0.00921054418581831319 -0.00298153965659137292 0.0125052538947702414
-0.00980356800799129201 0.00120858451126504502 0.0115586461406682016
-0.00969478119697911832 -0.00186203885639917434 0.0115950012037486956
0.00686887010107330599 4.20425326866426071e-05 0.00273247938014438939
0.00778465243037530438 0.00224637970828186302 0.00413885977437227978
0.00584103832760007186 0.000784445863362773677 0.00192120578656938433
0.00681785069745124116 0.00325575994197333917 0.00344889787383028225
0.00773864898885602732 -0.00224225910786536933 0.00407669130295639642
0.00585503792258414407 -0.000739631890436541917 0.00192711479136790996
0.00679830213601321717 -0.00321884913088696118 0.00341045537688176902
0.00922669934759361328 0.00128101934904125705 0.00636310454143956816
0.00766303107434621392 0.00361502529848678434 0.00468873396967306108
0.00922220940805608402 0.0026223837039674896 0.00715852901772206195
0.00916925639444203522 -0.00150442653450681718 0.00630386174835740037
0.00751959388003372361 -0.00369904045911988296 0.00454355357754210754
0.00908647499174913831 -0.00286116050861081814 0.00695866266779178629
0.00966109446343490878 0.00130139064272832036 0.00777073192199625139
0.00958412673398873101 -0.00178386973329410664 0.0077723726699737844
-0.00680479083730901099 3.02216304809221547e-06 0.00267232557171063643
-0.00769719638907692943 0.00218740517580731609 0.00400263171509098858
-0.0057251736065874418 0.00070766716026996997 0.00183167126244848221
-0.00673839267160073613 0.00321392766768317144 0.00334682533295433977
-0.00769707622278149612 -0.00231016864348415358 0.00404868598884629977
-0.00579643053443491905 -0.000763194942105936691 0.00188711355066432441
-0.00674342361998603139 -0.00321209732318666029 0.00335104003111828114
-0.00918421467827906443 0.00128450212285233624 0.00625830853227163277
-0.0075640572033098645 0.00357336666674674518 0.00452130587730621616
-0.00915225518396685193 0.00261214597224479397 0.00693195201027800405
-0.00914706951075344374 -0.00147901976220517228 0.00623919956545799723
-0.00743677337404354509 -0.00378581035644855179 0.00448982380244298748
-0.00908852066289484416 -0.00282798165812775393 0.00693384411658075177
-0.00962797917076195671 0.00147428688253903512 0.00773538186986254869
-0.00959265663859193603 -0.0016264160196204358 0.00769008451557203713
0.00292267232600278322 -0.000217047097727050218 0.0195609035677694054
0.00421351533790547978 0.000575133365946273309 0.0190507187619884978
-0.00276620103138891646 -0.000125632986711682337 0.0196089722762943161
-0.00409470412389200018 0.000663766518886851117 0.0190990555634190234
0.00421080897194351083 -0.00104386754684821577 0.0190099627272501612
-0.00406444101479399439 -0.00090289905979852288 0.0190920345646656726
0.000756632895511551553 0.00922797422732948673 0.0137778298428029491
-0.000851622223252868678 0.00921277621458426073 0.013794666521428774
0.00535329499974252637 0.00646555779510641498 0.015434960445474313
0.00587843607223227042 0.00517068427178310822 0.0162215764486352831
-6.09351655334511416e-05 0.00968196964698350183 0.0125011498676591924
0.00663015023576666966 0.00566624517525120708 0.0148923178009104842
-0.00540435964774779991 0.00639778212807122926 0.0154645476152676774
-0.00590391088727772184 0.00511352611353741229 0.0162446526661820523
-0.00668654275900044948 0.00557406827611249198 0.0149213726525528421
0.000579705093937514905 -0.00945549058667878931 0.0132027550279863303
-0.000991557525516766286 -0.00932015839080305511 0.013485894611707943
0.00584546309038269218 -0.00598698824677995536 0.0154759960730347802
