  -3.0431739e-03   1.4999000e-02   2.7826304e-02
  -3.0431739e-03   1.0002000e-02   2.8695783e-02
  -3.0431739e-03   1.4999000e-02   2.8695783e-02
  -3.0431739e-03   1.0002000e-02   2.9565261e-02
  -3.0431739e-03   1.4999000e-02   2.9565261e-02
  -3.0431739e-03   1.0002000e-02   3.0434739e-02
  -3.0431739e-03   1.4999000e-02   3.0434739e-02
  -3.0431739e-03   1.0002000e-02   3.1304217e-02
  -3.0431739e-03   1.4999000e-02   3.1304217e-02
  -3.0431739e-03   1.0002000e-02   3.2173696e-02
  -3.0431739e-03   1.4999000e-02   3.2173696e-02
  -3.0431739e-03   1.0002000e-02   3.3043174e-02
  -3.0431739e-03   1.4999000e-02   3.3043174e-02
  -3.0431739e-03   1.0002000e-02   3.3912652e-02
  -3.0431739e-03   1.4999000e-02   3.3912652e-02
  -3.0431739e-03   1.0002000e-02   3.4782130e-02
  -3.0431739e-03   1.4999000e-02   3.4782130e-02
  -3.0431739e-03   1.0002000e-02   3.5651609e-02
  -3.0431739e-03   1.4999000e-02   3.5651609e-02
  -3.0431739e-03   1.0002000e-02   3.6521087e-02
  -3.0431739e-03   1.4999000e-02   3.6521087e-02
  -3.0431739e-03   1.0002000e-02   3.7390565e-02
  -3.0431739e-03   1.4999000e-02   3.7390565e-02
  -3.0431739e-03   1.0002000e-02   3.8260043e-02
  -3.0431739e-03   1.4999000e-02   3.8260043e-02
  -3.0431739e-03   1.0002000e-02   3.9129522e-02
  -3.0431739e-03   1.4999000e-02   3.9129522e-02
  -3.0431739e-03   1.0002000e-02   3.9999000e-02
  -3.0431739e-03   1.0834833e-02   3.9999000e-02
  -3.0431739e-03   1.1667667e-02   3.9999000e-02
  -3.0431739e-03   1.2500500e-02   3.9999000e-02
  -3.0431739e-03   1.3333333e-02   3.9999000e-02
  -3.0431739e-03   1.4166167e-02   3.9999000e-02
  -3.0431739e-03   1.4999000e-02   3.9999000e-02
  -2.1736957e-03   1.0002000e-02   2.0001000e-02
  -2.1736957e-03   1.0834833e-02   2.0001000e-02
  -2.1736957e-03   1.1667667e-02   2.0001000e-02
  -2.1736957e-03   1.2500500e-02   2.0001000e-02
  -2.1736957e-03   1.3333333e-02   2.0001000e-02
  -2.1736957e-03   1.4166167e-02   2.0001000e-02
  -2.1736957e-03   1.4999000e-02   2.0001000e-02
  -2.1736957e-03   1.0002000e-02   2.0870478e-02
  -2.1736957e-03   1.4999000e-02   2.0870478e-02
  -2.1736957e-03   1.0002000e-02   2.1739957e-02
  -2.1736957e-03   1.4999000e-02   2.1739957e-02
  -2.1736957e-03   1.0002000e-02   2.2609435e-02
  -2.1736957e-03   1.4999000e-02   2.2609435e-02
  -2.1736957e-03   1.0002000e-02   2.3478913e-02
  -2.1736957e-03   1.4999000e-02   2.3478913e-02
  -2.1736957e-03   1.0002000e-02   2.4348391e-02
  -2.1736957e-03   1.4999000e-02   2.4348391e-02
  -2.1736957e-03   1.0002000e-02   2.5217870e-02
  -2.1736957e-03   1.4999000e-02   2.5217870e-02
  -2.1736957e-03   1.0002000e-02   2.6087348e-02
  -2.1736957e-03   1.4999000e-02   2.6087348e-02
  -2.1736957e-03   1.0002000e-02   2.6956826e-02
  -2.1736957e-03   1.4999000e-02   2.6956826e-02
  -2.1736957e-03   1.0002000e-02   2.7826304e-02
  -2.1736957e-03   1.4999000e-02   2.7826304e-02
  -2.1736957e-03   1.0002000e-02   2.8695783e-02
  -2.1736957e-03   1.4999000e-02   2.8695783e-02
  -2.1736957e-03   1.0002000e-02   2.9565261e-02
  -2.1736957e-03   1.4999000e-02   2.9565261e-02
  -2.1736957e-03   1.0002000e-02   3.0434739e-02
  -2.1736957e-03   1.4999000e-02   3.0434739e-02
  -2.1736957e-03   1.0002000e-02   3.1304217e-02
  -2.1736957e-03   1.4999000e-02   3.1304217e-02
  -2.1736957e-03   1.0002000e-02   3.2173696e-02
  -2.1736957e-03   1.4999000e-02   3.2173696e-02
  -2.1736957e-03   1.0002000e-02   3.3043174e-02
  -2.1736957e-03   1.4999000e-02   3.3043174e-02
  -2.1736957e-03   1.0002000e-02   3.3912652e-02
  -2.1736957e-03   1.4999000e-02   3.3912652e-02
  -2.1736957e-03   1.0002000e-02   3.4782130e-02
  -2.1736957e-03   1.4999000e-02   3.4782130e-02
  -2.1736957e-03   1.0002000e-02   3.5651609e-02
  -2.1736957e-03   1.4999000e-02   3.5651609e-02
  -2.1736957e-03   1.0002000e-02   3.6521087e-02
  -2.1736957e-03   1.4999000e-02   3.6521087e-02
  -2.1736957e-03   1.0002000e-02   3.7390565e-02
  -2.1736957e-03   1.4999000e-02   3.7390565e-02
  -2.1736957e-03   1.0002000e-02   3.8260043e-02
  -2.1736957e-03   1.4999000e-02   3.8260043e-02
  -2.1736957e-03   1.0002000e-02   3.9129522e-02
  -2.1736957e-03   1.4999000e-02   3.9129522e-02
  -2.1736957e-03   1.0002000e-02   3.9999000e-02
  -2.1736957e-03   1.0834833e-02   3.9999000e-02
  -2.1736957e-03   1.1667667e-02   3.9999000e-02
  -2.1736957e-03   1.2500500e-02   3.9999000e-02
  -2.1736957e-03   1.3333333e-02   3.9999000e-02
  -2.1736957e-03   1.4166167e-02   3.9999000e-02
  -2.1736957e-03   1.4999000e-02   3.9999000e-02
  -1.3042174e-03   1.0002000e-02   2.0001000e-02
  -1.3042174e-03   1.0834833e-02   2.0001000e-02
  -1.3042174e-03   1.1667667e-02   2.0001000e-02
  -1.3042174e-03   1.2500500e-02   2.0001000e-02
  -1.3042174e-03   1.3333333e-02   2.0001000e-02
  -1.3042174e-03   1.4166167e-02   2.0001000e-02
  -1.3042174e-03   1.4999000e-02   2.0001000e-02
  -1.3042174e-03   1.0002000e-02   2.0870478e-02
  -1.3042174e-03   1.4999000e-02   2.0870478e-02
  -1.3042174e-03   1.0002000e-02   2.1739957e-02
  -1.3042174e-03   1.4999000e-02   2.1739957e-02
  -1.3042174e-03   1.0002000e-02   2.2609435e-02
  -1.3042174e-03   1.4999000e-02   2.2609435e-02
  -1.3042174e-03   1.0002000e-02   2.3478913e-02
  -1.3042174e-03   1.4999000e-02   2.3478913e-02
  -1.3042174e-03   1.0002000e-02   2.4348391e-02
  -1.3042174e-03   1.4999000e-02   2.4348391e-02
  -1.3042174e-03   1.0002000e-02   2.5217870e-02
  -1.3042174e-03   1.4999000e-02   2.5217870e-02
  -1.3042174e-03   1.0002000e-02   2.6087348e-02
  -1.3042174e-03   1.4999000e-02   2.6087348e-02
  -1.3042174e-03   1.0002000e-02   2.6956826e-02
  -1.3042174e-03   1.4999000e-02   2.6956826e-02
  -1.3042174e-03   1.0002000e-02   2.7826304e-02
  -1.3042174e-03   1.4999000e-02   2.7826304e-02
  -1.3042174e-03   1.0002000e-02   2.8695783e-02
  -1.3042174e-03   1.4999000e-02   2.8695783e-02
  -1.3042174e-03   1.0002000e-02   2.9565261e-02
  -1.3042174e-03   1.4999000e-02   2.9565261e-02
  -1.3042174e-03   1.0002000e-02   3.0434739e-02
  -1.3042174e-03   1.4999000e-02   3.0434739e-02
  -1.3042174e-03   1.0002000e-02   3.1304217e-02
  -1.3042174e-03   1.4999000e-02   3.1304217e-02
  -1.3042174e-03   1.0002000e-02   3.2173696e-02
  -1.3042174e-03   1.4999000e-02   3.2173696e-02
  -1.3042174e-03   1.0002000e-02   3.3043174e-02
  -1.3042174e-03   1.4999000e-02   3.3043174e-02
  -1.3042174e-03   1.0002000e-02   3.3912652e-02
  -1.3042174e-03   1.4999000e-02   3.3912652e-02
  -1.3042174e-03   1.0002000e-02   3.4782130e-02
  -1.3042174e-03   1.4999000e-02   3.4782130e-02
  -1.3042174e-03   1.0002000e-02   3.5651609e-02
  -1.3042174e-03   1.4999000e-02   3.5651609e-02
  -1.3042174e-03   1.0002000e-02   3.6521087e-02
  -1.3042174e-03   1.4999000e-02   3.6521087e-02
  -1.3042174e-03   1.0002000e-02   3.7390565e-02
  -1.3042174e-03   1.4999000e-02   3.7390565e-02
  -1.3042174e-03   1.0002000e-02   3.8260043e-02
  -1.3042174e-03   1.4999000e-02   3.8260043e-02
  -1.3042174e-03   1.0002000e-02   3.9129522e-02
  -1.3042174e-03   1.4999000e-02   3.9129522e-02
  -1.3042174e-03   1.0002000e-02   3.9999000e-02
  -1.3042174e-03   1.0834833e-02   3.9999000e-02
  -1.3042174e-03   1.1667667e-02   3.9999000e-02
  -1.3042174e-03   1.2500500e-02   3.9999000e-02
  -1.3042174e-03   1.3333333e-02   3.9999000e-02
  -1.3042174e-03   1.4166167e-02   3.9999000e-02
  -1.3042174e-03   1.4999000e-02   3.9999000e-02
  -4.3473913e-04   1.0002000e-02   2.0001000e-02
  -4.3473913e-04   1.0834833e-02   2.0001000e-02
  -4.3473913e-04   1.1667667e-02   2.0001000e-02
  -4.3473913e-04   1.2500500e-02   2.0001000e-02
  -4.3473913e-04   1.3333333e-02   2.0001000e-02
  -4.3473913e-04   1.4166167e-02   2.0001000e-02
  -4.3473913e-04   1.4999000e-02   2.0001000e-02
  -4.3473913e-04   1.0002000e-02   2.0870478e-02
  -4.3473913e-04   1.4999000e-02   2.0870478e-02
  -4.3473913e-04   1.0002000e-02   2.1739957e-02
  -4.3473913e-04   1.4999000e-02   2.1739957e-02
  -4.3473913e-04   1.0002000e-02   2.2609435e-02
  -4.3473913e-04   1.4999000e-02   2.2609435e-02
  -4.3473913e-04   1.0002000e-02   2.3478913e-02
  -4.3473913e-04   1.4999000e-02   2.3478913e-02
  -4.3473913e-04   1.0002000e-02   2.4348391e-02
  -4.3473913e-04   1.4999000e-02   2.4348391e-02
  -4.3473913e-04   1.0002000e-02   2.5217870e-02
  -4.3473913e-04   1.4999000e-02   2.5217870e-02
  -4.3473913e-04   1.0002000e-02   2.6087348e-02
  -4.3473913e-04   1.4999000e-02   2.6087348e-02
  -4.3473913e-04   1.0002000e-02   2.6956826e-02
  -4.3473913e-04   1.4999000e-02   2.6956826e-02
  -4.3473913e-04   1.0002000e-02   2.7826304e-02
  -4.3473913e-04   1.4999000e-02   2.7826304e-02
  -4.3473913e-04   1.0002000e-02   2.8695783e-02
  -4.3473913e-04   1.4999000e-02   2.8695783e-02
  -4.3473913e-04   1.0002000e-02   2.9565261e-02
  -4.3473913e-04   1.4999000e-02   2.9565261e-02
  -4.3473913e-04   1.0002000e-02   3.0434739e-02
  -4.3473913e-04   1.4999000e-02   3.0434739e-02
  -4.3473913e-04   1.0002000e-02   3.1304217e-02
  -4.3473913e-04   1.4999000e-02   3.1304217e-02
  -4.3473913e-04   1.0002000e-02   3.2173696e-02
  -4.3473913e-04   1.4999000e-02   3.2173696e-02
  -4.3473913e-04   1.0002000e-02   3.3043174e-02
  -4.3473913e-04   1.4999000e-02   3.3043174e-02
  -4.3473913e-04   1.0002000e-02   3.3912652e-02
  -4.3473913e-04   1.4999000e-02   3.3912652e-02
  -4.3473913e-04   1.0002000e-02   3.4782130e-02
  -4.3473913e-04   1.4999000e-02   3.4782130e-02
  -4.3473913e-04   1.0002000e-02   3.5651609e-02
  -4.3473913e-04   1.4999000e-02   3.5651609e-02
  -4.3473913e-04   1.0002000e-02   3.6521087e-02
  -4.3473913e-04   1.4999000e-02   3.6521087e-02
  -4.3473913e-04   1.0002000e-02   3.7390565e-02
  -4.3473913e-04   1.4999000e-02   3.7390565e-02
  -4.3473913e-04   1.0002000e-02   3.8260043e-02
  -4.3473913e-04   1.4999000e-02   3.8260043e-02
  -4.3473913e-04   1.0002000e-02   3.9129522e-02
  -4.3473913e-04   1.4999000e-02   3.9129522e-02
  -4.3473913e-04   1.0002000e-02   3.9999000e-02
  -4.3473913e-04   1.0834833e-02   3.9999000e-02
  -4.3473913e-04   1.1667667e-02   3.9999000e-02
  -4.3473913e-04   1.2500500e-02   3.9999000e-02
  -4.3473913e-04   1.3333333e-02   3.9999000e-02
  -4.3473913e-04   1.4166167e-02   3.9999000e-02
  -4.3473913e-04   1.4999000e-02   3.9999000e-02
   4.3473913e-04   1.0002000e-02   2.0001000e-02
   4.3473913e-04   1.0834833e-02   2.0001000e-02
   4.3473913e-04   1.1667667e-02   2.0001000e-02
   4.3473913e-04   1.2500500e-02   2.0001000e-02
   4.3473913e-04   1.3333333e-02   2.0001000e-02
   4.3473913e-04   1.4166167e-02   2.0001000e-02
   4.3473913e-04   1.4999000e-02   2.0001000e-02
   4.3473913e-04   1.0002000e-02   2.0870478e-02
   4.3473913e-04   1.4999000e-02   2.0870478e-02
   4.3473913e-04   1.0002000e-02   2.1739957e-02
   4.3473913e-04   1.4999000e-02   2.1739957e-02
   4.3473913e-04   1.0002000e-02   2.2609435e-02
   4.3473913e-04   1.4999000e-02   2.2609435e-02
   4.3473913e-04   1.0002000e-02   2.3478913e-02
   4.3473913e-04   1.4999000e-02   2.3478913e-02
   4.3473913e-04   1.0002000e-02   2.4348391e-02
   4.3473913e-04   1.4999000e-02   2.4348391e-02
   4.3473913e-04   1.0002000e-02   2.5217870e-02
   4.3473913e-04   1.4999000e-02   2.5217870e-02
   4.3473913e-04   1.0002000e-02   2.6087348e-02
   4.3473913e-04   1.4999000e-02   2.6087348e-02
   4.3473913e-04   1.0002000e-02   2.6956826e-02
   4.3473913e-04   1.4999000e-02   2.6956826e-02
   4.3473913e-04   1.0002000e-02   2.7826304e-02
   4.3473913e-04   1.4999000e-02   2.7826304e-02
   4.3473913e-04   1.0002000e-02   2.8695783e-02
   4.3473913e-04   1.4999000e-02   2.8695783e-02
   4.3473913e-04   1.0002000e-02   2.9565261e-02
   4.3473913e-04   1.4999000e-02   2.9565261e-02
   4.3473913e-04   1.0002000e-02   3.0434739e-02
   4.3473913e-04   1.4999000e-02   3.0434739e-02
   4.3473913e-04   1.0002000e-02   3.1304217e-02
   4.3473913e-04   1.4999000e-02   3.1304217e-02
   4.3473913e-04   1.0002000e-02   3.2173696e-02
   4.3473913e-04   1.4999000e-02   3.2173696e-02
   4.3473913e-04   1.0002000e-02   3.3043174e-02
   4.3473913e-04   1.4999000e-02   3.3043174e-02
   4.3473913e-04   1.0002000e-02   3.3912652e-02
   4.3473913e-04   1.4999000e-02   3.3912652e-02
   4.3473913e-04   1.0002000e-02   3.4782130e-02
   4.3473913e-04   1.4999000e-02   3.4782130e-02
   4.3473913e-04   1.0002000e-02   3.5651609e-02
   4.3473913e-04   1.4999000e-02   3.5651609e-02
   4.3473913e-04   1.0002000e-02   3.6521087e-02
   4.3473913e-04   1.4999000e-02   3.6521087e-02
   4.3473913e-04   1.0002000e-02   3.7390565e-02
   4.3473913e-04   1.4999000e-02   3.7390565e-02
   4.3473913e-04   1.0002000e-02   3.8260043e-02
   4.3473913e-04   1.4999000e-02   3.8260043e-02
   4.3473913e-04   1.0002000e-02   3.9129522e-02
   4.3473913e-04   1.4999000e-02   3.9129522e-02
   4.3473913e-04   1.0002000e-02   3.9999000e-02
   4.3473913e-04   1.0834833e-02   3.9999000e-02
   4.3473913e-04   1.1667667e-02   3.9999000e-02
   4.3473913e-04   1.2500500e-02   3.9999000e-02
   4.3473913e-04   1.3333333e-02   3.9999000e-02
   4.3473913e-04   1.4166167e-02   3.9999000e-02
   4.3473913e-04   1.4999000e-02   3.9999000e-02
   1.3042174e-03   1.0002000e-02   2.0001000e-02
   1.3042174e-03   1.0834833e-02   2.0001000e-02
   1.3042174e-03   1.1667667e-02   2.0001000e-02
   1.3042174e-03   1.2500500e-02   2.0001000e-02
   1.3042174e-03   1.3333333e-02   2.0001000e-02
   1.3042174e-03   1.4166167e-02   2.0001000e-02
   1.3042174e-03   1.4999000e-02   2.0001000e-02
   1.3042174e-03   1.0002000e-02   2.0870478e-02
   1.3042174e-03   1.4999000e-02   2.0870478e-02
   1.3042174e-03   1.0002000e-02   2.1739957e-02
   1.3042174e-03   1.4999000e-02   2.1739957e-02
   1.3042174e-03   1.0002000e-02   2.2609435e-02
   1.3042174e-03   1.4999000e-02   2.2609435e-02
   1.3042174e-03   1.0002000e-02   2.3478913e-02
   1.3042174e-03   1.4999000e-02   2.3478913e-02
   1.3042174e-03   1.0002000e-02   2.4348391e-02
   1.3042174e-03   1.4999000e-02   2.4348391e-02
   1.3042174e-03   1.0002000e-02   2.5217870e-02
   1.3042174e-03   1.4999000e-02   2.5217870e-02
   1.3042174e-03   1.0002000e-02   2.6087348e-02
   1.3042174e-03   1.4999000e-02   2.6087348e-02
   1.3042174e-03   1.0002000e-02   2.6956826e-02
   1.3042174e-03   1.4999000e-02   2.6956826e-02
   1.3042174e-03   1.0002000e-02   2.7826304e-02
   1.3042174e-03   1.4999000e-02   2.7826304e-02
   1.3042174e-03   1.0002000e-02   2.8695783e-02
   1.3042174e-03   1.4999000e-02   2.8695783e-02
   1.3042174e-03   1.0002000e-02   2.9565261e-02
   1.3042174e-03   1.4999000e-02   2.9565261e-02
   1.3042174e-03   1.0002000e-02   3.0434739e-02
   1.3042174e-03   1.4999000e-02   3.0434739e-02
   1.3042174e-03   1.0002000e-02   3.1304217e-02
   1.3042174e-03   1.4999000e-02   3.1304217e-02
   1.3042174e-03   1.0002000e-02   3.2173696e-02
   1.3042174e-03   1.4999000e-02   3.2173696e-02
   1.3042174e-03   1.0002000e-02   3.3043174e-02
   1.3042174e-03   1.4999000e-02   3.3043174e-02
   1.3042174e-03   1.0002000e-02   3.3912652e-02
   1.3042174e-03   1.4999000e-02   3.3912652e-02
   1.3042174e-03   1.0002000e-02   3.4782130e-02
   1.3042174e-03   1.4999000e-02   3.4782130e-02
   1.3042174e-03   1.0002000e-02   3.5651609e-02
   1.3042174e-03   1.4999000e-02   3.5651609e-02
   1.3042174e-03   1.0002000e-02   3.6521087e-02
   1.3042174e-03   1.4999000e-02   3.6521087e-02
   1.3042174e-03   1.0002000e-02   3.7390565e-02
   1.3042174e-03   1.4999000e-02   3.7390565e-02
   1.3042174e-03   1.0002000e-02   3.8260043e-02
   1.3042174e-03   1.4999000e-02   3.8260043e-02
   1.3042174e-03   1.0002000e-02   3.9129522e-02
   1.3042174e-03   1.4999000e-02   3.9129522e-02
   1.3042174e-03   1.0002000e-02   3.9999000e-02
   1.3042174e-03   1.0834833e-02   3.9999000e-02
   1.3042174e-03   1.1667667e-02   3.9999000e-02
   1.3042174e-03   1.2500500e-02   3.9999000e-02
   1.3042174e-03   1.3333333e-02   3.9999000e-02
   1.3042174e-03   1.4166167e-02   3.9999000e-02
   1.3042174e-03   1.4999000e-02   3.9999000e-02
   2.1736957e-03   1.0002000e-02   2.0001000e-02
   2.1736957e-03   1.0834833e-02   2.0001000e-02
   2.1736957e-03   1.1667667e-02   2.0001000e-02
   2.1736957e-03   1.2500500e-02   2.0001000e-02
   2.1736957e-03   1.3333333e-02   2.0001000e-02
   2.1736957e-03   1.4166167e-02   2.0001000e-02
   2.1736957e-03   1.4999000e-02   2.0001000e-02
   2.1736957e-03   1.0002000e-02   2.0870478e-02
   2.1736957e-03   1.4999000e-02   2.0870478e-02
   2.1736957e-03   1.0002000e-02   2.1739957e-02
   2.1736957e-03   1.4999000e-02   2.1739957e-02
   2.1736957e-03   1.0002000e-02   2.2609435e-02
   2.1736957e-03   1.4999000e-02   2.2609435e-02
   2.1736957e-03   1.0002000e-02   2.3478913e-02
   2.1736957e-03   1.4999000e-02   2.3478913e-02
   2.1736957e-03   1.0002000e-02   2.4348391e-02
   2.1736957e-03   1.4999000e-02   2.4348391e-02
   2.1736957e-03   1.0002000e-02   2.5217870e-02
   2.1736957e-03   1.4999000e-02   2.5217870e-02
   2.1736957e-03   1.0002000e-02   2.6087348e-02
   2.1736957e-03   1.4999000e-02   2.6087348e-02
   2.1736957e-03   1.0002000e-02   2.6956826e-02
   2.1736957e-03   1.4999000e-02   2.6956826e-02
   2.1736957e-03   1.0002000e-02   2.7826304e-02
   2.1736957e-03   1.4999000e-02   2.7826304e-02
   2.1736957e-03   1.0002000e-02   2.8695783e-02
   2.1736957e-03   1.4999000e-02   2.8695783e-02
   2.1736957e-03   1.0002000e-02   2.9565261e-02
   2.1736957e-03   1.4999000e-02   2.9565261e-02
   2.1736957e-03   1.0002000e-02   3.0434739e-02
   2.1736957e-03   1.4999000e-02   3.0434739e-02
   2.1736957e-03   1.0002000e-02   3.1304217e-02
   2.1736957e-03   1.4999000e-02   3.1304217e-02
   2.1736957e-03   1.0002000e-02   3.2173696e-02
   2.1736957e-03   1.4999000e-02   3.2173696e-02
   2.1736957e-03   1.0002000e-02   3.3043174e-02
   2.1736957e-03   1.4999000e-02   3.3043174e-02
   2.1736957e-03   1.0002000e-02   3.3912652e-02
   2.1736957e-03   1.4999000e-02   3.3912652e-02
   2.1736957e-03   1.0002000e-02   3.4782130e-02
   2.1736957e-03   1.4999000e-02   3.4782130e-02
   2.1736957e-03   1.0002000e-02   3.5651609e-02
   2.1736957e-03   1.4999000e-02   3.5651609e-02
   2.1736957e-03   1.0002000e-02   3.6521087e-02
   2.1736957e-03   1.4999000e-02   3.6521087e-02
   2.1736957e-03   1.0002000e-02   3.7390565e-02
   2.1736957e-03   1.4999000e-02   3.7390565e-02
   2.1736957e-03   1.0002000e-02   3.8260043e-02
   2.1736957e-03   1.4999000e-02   3.8260043e-02
   2.1736957e-03   1.0002000e-02   3.9129522e-02
   2.1736957e-03   1.4999000e-02   3.9129522e-02
   2.1736957e-03   1.0002000e-02   3.9999000e-02
   2.1736957e-03   1.0834833e-02   3.9999000e-02
   2.1736957e-03   1.1667667e-02   3.9999000e-02
   2.1736957e-03   1.2500500e-02   3.9999000e-02
   2.1736957e-03   1.3333333e-02   3.9999000e-02
   2.1736957e-03   1.4166167e-02   3.9999000e-02
   2.1736957e-03   1.4999000e-02   3.9999000e-02
   3.0431739e-03   1.0002000e-02   2.0001000e-02
   3.0431739e-03   1.0834833e-02   2.0001000e-02
   3.0431739e-03   1.1667667e-02   2.0001000e-02
   3.0431739e-03   1.2500500e-02   2.0001000e-02
   3.0431739e-03   1.3333333e-02   2.0001000e-02
   3.0431739e-03   1.4166167e-02   2.0001000e-02
   3.0431739e-03   1.4999000e-02   2.0001000e-02
   3.0431739e-03   1.0002000e-02   2.0870478e-02
   3.0431739e-03   1.4999000e-02   2.0870478e-02
   3.0431739e-03   1.0002000e-02   2.1739957e-02
   3.0431739e-03   1.4999000e-02   2.1739957e-02
   3.0431739e-03   1.0002000e-02   2.2609435e-02
   3.0431739e-03   1.4999000e-02   2.2609435e-02
   3.0431739e-03   1.0002000e-02   2.3478913e-02
   3.0431739e-03   1.4999000e-02   2.3478913e-02
   3.0431739e-03   1.0002000e-02   2.4348391e-02
   3.0431739e-03   1.4999000e-02   2.4348391e-02
   3.0431739e-03   1.0002000e-02   2.5217870e-02
   3.0431739e-03   1.4999000e-02   2.5217870e-02
   3.0431739e-03   1.0002000e-02   2.6087348e-02
   3.0431739e-03   1.4999000e-02   2.6087348e-02
   3.0431739e-03   1.0002000e-02   2.6956826e-02
   3.0431739e-03   1.4999000e-02   2.6956826e-02
   3.0431739e-03   1.0002000e-02   2.7826304e-02
   3.0431739e-03   1.4999000e-02   2.7826304e-02
   3.0431739e-03   1.0002000e-02   2.8695783e-02
   3.0431739e-03   1.4999000e-02   2.8695783e-02
   3.0431739e-03   1.0002000e-02   2.9565261e-02
   3.0431739e-03   1.4999000e-02   2.9565261e-02
   3.0431739e-03   1.0002000e-02   3.0434739e-02
   3.0431739e-03   1.4999000e-02   3.0434739e-02
   3.0431739e-03   1.0002000e-02   3.1304217e-02
   3.0431739e-03   1.4999000e-02   3.1304217e-02
   3.0431739e-03   1.0002000e-02   3.2173696e-02
   3.0431739e-03   1.4999000e-02   3.2173696e-02
   3.0431739e-03   1.0002000e-02   3.3043174e-02
   3.0431739e-03   1.4999000e-02   3.3043174e-02
   3.0431739e-03   1.0002000e-02   3.3912652e-02
   3.0431739e-03   1.4999000e-02   3.3912652e-02
   3.0431739e-03   1.0002000e-02   3.4782130e-02
   3.0431739e-03   1.4999000e-02   3.4782130e-02
   3.0431739e-03   1.0002000e-02   3.5651609e-02
   3.0431739e-03   1.4999000e-02   3.5651609e-02
   3.0431739e-03   1.0002000e-02   3.6521087e-02
   3.0431739e-03   1.4999000e-02   3.6521087e-02
   3.0431739e-03   1.0002000e-02   3.7390565e-02
   3.0431739e-03   1.4999000e-02   3.7390565e-02
   3.0431739e-03   1.0002000e-02   3.8260043e-02
   3.0431739e-03   1.4999000e-02   3.8260043e-02
   3.0431739e-03   1.0002000e-02   3.9129522e-02
   3.0431739e-03   1.4999000e-02   3.9129522e-02
   3.0431739e-03   1.0002000e-02   3.9999000e-02
   3.0431739e-03   1.0834833e-02   3.9999000e-02
   3.0431739e-03   1.1667667e-02   3.9999000e-02
   3.0431739e-03   1.2500500e-02   3.9999000e-02
   3.0431739e-03   1.3333333e-02   3.9999000e-02
   3.0431739e-03   1.4166167e-02   3.9999000e-02
   3.0431739e-03   1.4999000e-02   3.9999000e-02
   3.9126522e-03   1.0002000e-02   2.0001000e-02
   3.9126522e-03   1.0834833e-02   2.0001000e-02
   3.9126522e-03   1.1667667e-02   2.0001000e-02
   3.9126522e-03   1.2500500e-02   2.0001000e-02
   3.9126522e-03   1.3333333e-02   2.0001000e-02
   3.9126522e-03   1.4166167e-02   2.0001000e-02
   3.9126522e-03   1.4999000e-02   2.0001000e-02
   3.9126522e-03   1.0002000e-02   2.0870478e-02
   3.9126522e-03   1.4999000e-02   2.0870478e-02
   3.9126522e-03   1.0002000e-02   2.1739957e-02
   3.9126522e-03   1.4999000e-02   2.1739957e-02
   3.9126522e-03   1.0002000e-02   2.2609435e-02
   3.9126522e-03   1.4999000e-02   2.2609435e-02
   3.9126522e-03   1.0002000e-02   2.3478913e-02
   3.9126522e-03   1.4999000e-02   2.3478913e-02
   3.9126522e-03   1.0002000e-02   2.4348391e-02
   3.9126522e-03   1.4999000e-02   2.4348391e-02
   3.9126522e-03   1.0002000e-02   2.5217870e-02
   3.9126522e-03   1.4999000e-02   2.5217870e-02
   3.9126522e-03   1.0002000e-02   2.6087348e-02
   3.9126522e-03   1.4999000e-02   2.6087348e-02
   3.9126522e-03   1.0002000e-02   2.6956826e-02
   3.9126522e-03   1.4999000e-02   2.6956826e-02
   3.9126522e-03   1.0002000e-02   2.7826304e-02
   3.9126522e-03   1.4999000e-02   2.7826304e-02
   3.9126522e-03   1.0002000e-02   2.8695783e-02
   3.9126522e-03   1.4999000e-02   2.8695783e-02
   3.9126522e-03   1.0002000e-02   2.9565261e-02
   3.9126522e-03   1.4999000e-02   2.9565261e-02
   3.9126522e-03   1.0002000e-02   3.0434739e-02
   3.9126522e-03   1.4999000e-02   3.0434739e-02
   3.9126522e-03   1.0002000e-02   3.1304217e-02
   3.9126522e-03   1.4999000e-02   3.1304217e-02
   3.9126522e-03   1.0002000e-02   3.2173696e-02
   3.9126522e-03   1.4999000e-02   3.2173696e-02
   3.9126522e-03   1.0002000e-02   3.3043174e-02
   3.9126522e-03   1.4999000e-02   3.3043174e-02
   3.9126522e-03   1.0002000e-02   3.3912652e-02
   3.9126522e-03   1.4999000e-02   3.3912652e-02
   3.9126522e-03   1.0002000e-02   3.4782130e-02
   3.9126522e-03   1.4999000e-02   3.4782130e-02
   3.9126522e-03   1.0002000e-02   3.5651609e-02
   3.9126522e-03   1.4999000e-02   3.5651609e-02
   3.9126522e-03   1.0002000e-02   3.6521087e-02
   3.9126522e-03   1.4999000e-02   3.6521087e-02
   3.9126522e-03   1.0002000e-02   3.7390565e-02
   3.9126522e-03   1.4999000e-02   3.7390565e-02
   3.9126522e-03   1.0002000e-02   3.8260043e-02
   3.9126522e-03   1.4999000e-02   3.8260043e-02
   3.9126522e-03   1.0002000e-02   3.9129522e-02
   3.9126522e-03   1.4999000e-02   3.9129522e-02
   3.9126522e-03   1.0002000e-02   3.9999000e-02
   3.9126522e-03   1.0834833e-02   3.9999000e-02
   3.9126522e-03   1.1667667e-02   3.9999000e-02
   3.9126522e-03   1.2500500e-02   3.9999000e-02
   3.9126522e-03   1.3333333e-02   3.9999000e-02
   3.9126522e-03   1.4166167e-02   3.9999000e-02
   3.9126522e-03   1.4999000e-02   3.9999000e-02
   4.7821304e-03   1.0002000e-02   2.0001000e-02
   4.7821304e-03   1.0834833e-02   2.0001000e-02
   4.7821304e-03   1.1667667e-02   2.0001000e-02
   4.7821304e-03   1.2500500e-02   2.0001000e-02
   4.7821304e-03   1.3333333e-02   2.0001000e-02
   4.7821304e-03   1.4166167e-02   2.0001000e-02
   4.7821304e-03   1.4999000e-02   2.0001000e-02
   4.7821304e-03   1.0002000e-02   2.0870478e-02
   4.7821304e-03   1.4999000e-02   2.0870478e-02
   4.7821304e-03   1.0002000e-02   2.1739957e-02
   4.7821304e-03   1.4999000e-02   2.1739957e-02
   4.7821304e-03   1.0002000e-02   2.2609435e-02
   4.7821304e-03   1.4999000e-02   2.2609435e-02
   4.7821304e-03   1.0002000e-02   2.3478913e-02
   4.7821304e-03   1.4999000e-02   2.3478913e-02
   4.7821304e-03   1.0002000e-02   2.4348391e-02
   4.7821304e-03   1.4999000e-02   2.4348391e-02
   4.7821304e-03   1.0002000e-02   2.5217870e-02
   4.7821304e-03   1.4999000e-02   2.5217870e-02
   4.7821304e-03   1.0002000e-02   2.6087348e-02
   4.7821304e-03   1.4999000e-02   2.6087348e-02
   4.7821304e-03   1.0002000e-02   2.6956826e-02
   4.7821304e-03   1.4999000e-02   2.6956826e-02
   4.7821304e-03   1.0002000e-02   2.7826304e-02
   4.7821304e-03   1.4999000e-02   2.7826304e-02
   4.7821304e-03   1.0002000e-02   2.8695783e-02
   4.7821304e-03   1.4999000e-02   2.8695783e-02
   4.7821304e-03   1.0002000e-02   2.9565261e-02
   4.7821304e-03   1.4999000e-02   2.9565261e-02
   4.7821304e-03   1.0002000e-02   3.0434739e-02
   4.7821304e-03   1.4999000e-02   3.0434739e-02
   4.7821304e-03   1.0002000e-02   3.1304217e-02
   4.7821304e-03   1.4999000e-02   3.1304217e-02
   4.7821304e-03   1.0002000e-02   3.2173696e-02
   4.7821304e-03   1.4999000e-02   3.2173696e-02
   4.7821304e-03   1.0002000e-02   3.3043174e-02
   4.7821304e-03   1.4999000e-02   3.3043174e-02
   4.7821304e-03   1.0002000e-02   3.3912652e-02
   4.7821304e-03   1.4999000e-02   3.3912652e-02
   4.7821304e-03   1.0002000e-02   3.4782130e-02
   4.7821304e-03   1.4999000e-02   3.4782130e-02
   4.7821304e-03   1.0002000e-02   3.5651609e-02
   4.7821304e-03   1.4999000e-02   3.5651609e-02
   4.7821304e-03   1.0002000e-02   3.6521087e-02
   4.7821304e-03   1.4999000e-02   3.6521087e-02
   4.7821304e-03   1.0002000e-02   3.7390565e-02
   4.7821304e-03   1.4999000e-02   3.7390565e-02
   4.7821304e-03   1.0002000e-02   3.8260043e-02
   4.7821304e-03   1.4999000e-02   3.8260043e-02
   4.7821304e-03   1.0002000e-02   3.9129522e-02
   4.7821304e-03   1.4999000e-02   3.9129522e-02
   4.7821304e-03   1.0002000e-02   3.9999000e-02
   4.7821304e-03   1.0834833e-02   3.9999000e-02
   4.7821304e-03   1.1667667e-02   3.9999000e-02
   4.7821304e-03   1.2500500e-02   3.9999000e-02
   4.7821304e-03   1.3333333e-02   3.9999000e-02
   4.7821304e-03   1.4166167e-02   3.9999000e-02
   4.7821304e-03   1.4999000e-02   3.9999000e-02
   5.6516087e-03   1.0002000e-02   2.0001000e-02
   5.6516087e-03   1.0834833e-02   2.0001000e-02
   5.6516087e-03   1.1667667e-02   2.0001000e-02
   5.6516087e-03   1.2500500e-02   2.0001000e-02
   5.6516087e-03   1.3333333e-02   2.0001000e-02
   5.6516087e-03   1.4166167e-02   2.0001000e-02
   5.6516087e-03   1.4999000e-02   2.0001000e-02
   5.6516087e-03   1.0002000e-02   2.0870478e-02
   5.6516087e-03   1.4999000e-02   2.0870478e-02
   5.6516087e-03   1.0002000e-02   2.1739957e-02
   5.6516087e-03   1.4999000e-02   2.1739957e-02
   5.6516087e-03   1.0002000e-02   2.2609435e-02
   5.6516087e-03   1.4999000e-02   2.2609435e-02
   5.6516087e-03   1.0002000e-02   2.3478913e-02
   5.6516087e-03   1.4999000e-02   2.3478913e-02
   5.6516087e-03   1.0002000e-02   2.4348391e-02
   5.6516087e-03   1.4999000e-02   2.4348391e-02
   5.6516087e-03   1.0002000e-02   2.5217870e-02
   5.6516087e-03   1.4999000e-02   2.5217870e-02
   5.6516087e-03   1.0002000e-02   2.6087348e-02
   5.6516087e-03   1.4999000e-02   2.6087348e-02
   5.6516087e-03   1.0002000e-02   2.6956826e-02
   5.6516087e-03   1.4999000e-02   2.6956826e-02
   5.6516087e-03   1.0002000e-02   2.7826304e-02
   5.6516087e-03   1.4999000e-02   2.7826304e-02
   5.6516087e-03   1.0002000e-02   2.8695783e-02
   5.6516087e-03   1.4999000e-02   2.8695783e-02
   5.6516087e-03   1.0002000e-02   2.9565261e-02
   5.6516087e-03   1.4999000e-02   2.9565261e-02
   5.6516087e-03   1.0002000e-02   3.0434739e-02
   5.6516087e-03   1.4999000e-02   3.0434739e-02
   5.6516087e-03   1.0002000e-02   3.1304217e-02
   5.6516087e-03   1.4999000e-02   3.1304217e-02
   5.6516087e-03   1.0002000e-02   3.2173696e-02
   5.6516087e-03   1.4999000e-02   3.2173696e-02
   5.6516087e-03   1.0002000e-02   3.3043174e-02
   5.6516087e-03   1.4999000e-02   3.3043174e-02
   5.6516087e-03   1.0002000e-02   3.3912652e-02
   5.6516087e-03   1.4999000e-02   3.3912652e-02
   5.6516087e-03   1.0002000e-02   3.4782130e-02
   5.6516087e-03   1.4999000e-02   3.4782130e-02
   5.6516087e-03   1.0002000e-02   3.5651609e-02
   5.6516087e-03   1.4999000e-02   3.5651609e-02
   5.6516087e-03   1.0002000e-02   3.6521087e-02
   5.6516087e-03   1.4999000e-02   3.6521087e-02
   5.6516087e-03   1.0002000e-02   3.7390565e-02
   5.6516087e-03   1.4999000e-02   3.7390565e-02
   5.6516087e-03   1.0002000e-02   3.8260043e-02
   5.6516087e-03   1.4999000e-02   3.8260043e-02
   5.6516087e-03   1.0002000e-02   3.9129522e-02
   5.6516087e-03   1.4999000e-02   3.9129522e-02
   5.6516087e-03   1.0002000e-02   3.9999000e-02
   5.6516087e-03   1.0834833e-02   3.9999000e-02
   5.6516087e-03   1.1667667e-02   3.9999000e-02
   5.6516087e-03   1.2500500e-02   3.9999000e-02
   5.6516087e-03   1.3333333e-02   3.9999000e-02
   5.6516087e-03   1.4166167e-02   3.9999000e-02
   5.6516087e-03   1.4999000e-02   3.9999000e-02
   6.5210870e-03   1.0002000e-02   2.0001000e-02
   6.5210870e-03   1.0834833e-02   2.0001000e-02
   6.5210870e-03   1.1667667e-02   2.0001000e-02
   6.5210870e-03   1.2500500e-02   2.0001000e-02
   6.5210870e-03   1.3333333e-02   2.0001000e-02
   6.5210870e-03   1.4166167e-02   2.0001000e-02
   6.5210870e-03   1.4999000e-02   2.0001000e-02
   6.5210870e-03   1.0002000e-02   2.0870478e-02
   6.5210870e-03   1.4999000e-02   2.0870478e-02
   6.5210870e-03   1.0002000e-02   2.1739957e-02
   6.5210870e-03   1.4999000e-02   2.1739957e-02
   6.5210870e-03   1.0002000e-02   2.2609435e-02
   6.5210870e-03   1.4999000e-02   2.2609435e-02
   6.5210870e-03   1.0002000e-02   2.3478913e-02
   6.5210870e-03   1.4999000e-02   2.3478913e-02
   6.5210870e-03   1.0002000e-02   2.4348391e-02
   6.5210870e-03   1.4999000e-02   2.4348391e-02
   6.5210870e-03   1.0002000e-02   2.5217870e-02
   6.5210870e-03   1.4999000e-02   2.5217870e-02
   6.5210870e-03   1.0002000e-02   2.6087348e-02
   6.5210870e-03   1.4999000e-02   2.6087348e-02
   6.5210870e-03   1.0002000e-02   2.6956826e-02
   6.5210870e-03   1.4999000e-02   2.6956826e-02
   6.5210870e-03   1.0002000e-02   2.7826304e-02
   6.5210870e-03   1.4999000e-02   2.7826304e-02
   6.5210870e-03   1.0002000e-02   2.8695783e-02
   6.5210870e-03   1.4999000e-02   2.8695783e-02
   6.5210870e-03   1.0002000e-02   2.9565261e-02
   6.5210870e-03   1.4999000e-02   2.9565261e-02
   6.5210870e-03   1.0002000e-02   3.0434739e-02
   6.5210870e-03   1.4999000e-02   3.0434739e-02
   6.5210870e-03   1.0002000e-02   3.1304217e-02
   6.5210870e-03   1.4999000e-02   3.1304217e-02
   6.5210870e-03   1.0002000e-02   3.2173696e-02
   6.5210870e-03   1.4999000e-02   3.2173696e-02
   6.5210870e-03   1.0002000e-02   3.3043174e-02
   6.5210870e-03   1.4999000e-02   3.3043174e-02
   6.5210870e-03   1.0002000e-02   3.3912652e-02
   6.5210870e-03   1.4999000e-02   3.3912652e-02
   6.5210870e-03   1.0002000e-02   3.4782130e-02
   6.5210870e-03   1.4999000e-02   3.4782130e-02
   6.5210870e-03   1.0002000e-02   3.5651609e-02
   6.5210870e-03   1.4999000e-02   3.5651609e-02
   6.5210870e-03   1.0002000e-02   3.6521087e-02
   6.5210870e-03   1.4999000e-02   3.6521087e-02
   6.5210870e-03   1.0002000e-02   3.7390565e-02
   6.5210870e-03   1.4999000e-02   3.7390565e-02
   6.5210870e-03   1.0002000e-02   3.8260043e-02
   6.5210870e-03   1.4999000e-02   3.8260043e-02
   6.5210870e-03   1.0002000e-02   3.9129522e-02
   6.5210870e-03   1.4999000e-02   3.9129522e-02
   6.5210870e-03   1.0002000e-02   3.9999000e-02
   6.5210870e-03   1.0834833e-02   3.9999000e-02
   6.5210870e-03   1.1667667e-02   3.9999000e-02
   6.5210870e-03   1.2500500e-02   3.9999000e-02
   6.5210870e-03   1.3333333e-02   3.9999000e-02
   6.5210870e-03   1.4166167e-02   3.9999000e-02
   6.5210870e-03   1.4999000e-02   3.9999000e-02
   7.3905652e-03   1.0002000e-02   2.0001000e-02
   7.3905652e-03   1.0834833e-02   2.0001000e-02
   7.3905652e-03   1.1667667e-02   2.0001000e-02
   7.3905652e-03   1.2500500e-02   2.0001000e-02
   7.3905652e-03   1.3333333e-02   2.0001000e-02
   7.3905652e-03   1.4166167e-02   2.0001000e-02
   7.3905652e-03   1.4999000e-02   2.0001000e-02
   7.3905652e-03   1.0002000e-02   2.0870478e-02
   7.3905652e-03   1.4999000e-02   2.0870478e-02
   7.3905652e-03   1.0002000e-02   2.1739957e-02
   7.3905652e-03   1.4999000e-02   2.1739957e-02
   7.3905652e-03   1.0002000e-02   2.2609435e-02
   7.3905652e-03   1.4999000e-02   2.2609435e-02
   7.3905652e-03   1.0002000e-02   2.3478913e-02
   7.3905652e-03   1.4999000e-02   2.3478913e-02
   7.3905652e-03   1.0002000e-02   2.4348391e-02
   7.3905652e-03   1.4999000e-02   2.4348391e-02
   7.3905652e-03   1.0002000e-02   2.5217870e-02
   7.3905652e-03   1.4999000e-02   2.5217870e-02
   7.3905652e-03   1.0002000e-02   2.6087348e-02
   7.3905652e-03   1.4999000e-02   2.6087348e-02
   7.3905652e-03   1.0002000e-02   2.6956826e-02
   7.3905652e-03   1.4999000e-02   2.6956826e-02
   7.3905652e-03   1.0002000e-02   2.7826304e-02
   7.3905652e-03   1.4999000e-02   2.7826304e-02
   7.3905652e-03   1.0002000e-02   2.8695783e-02
   7.3905652e-03   1.4999000e-02   2.8695783e-02
   7.3905652e-03   1.0002000e-02   2.9565261e-02
   7.3905652e-03   1.4999000e-02   2.9565261e-02
   7.3905652e-03   1.0002000e-02   3.0434739e-02
   7.3905652e-03   1.4999000e-02   3.0434739e-02
   7.3905652e-03   1.0002000e-02   3.1304217e-02
   7.3905652e-03   1.4999000e-02   3.1304217e-02
   7.3905652e-03   1.0002000e-02   3.2173696e-02
   7.3905652e-03   1.4999000e-02   3.2173696e-02
   7.3905652e-03   1.0002000e-02   3.3043174e-02
   7.3905652e-03   1.4999000e-02   3.3043174e-02
   7.3905652e-03   1.0002000e-02   3.3912652e-02
   7.3905652e-03   1.4999000e-02   3.3912652e-02
   7.3905652e-03   1.0002000e-02   3.4782130e-02
   7.3905652e-03   1.4999000e-02   3.4782130e-02
   7.3905652e-03   1.0002000e-02   3.5651609e-02
   7.3905652e-03   1.4999000e-02   3.5651609e-02
   7.3905652e-03   1.0002000e-02   3.6521087e-02
   7.3905652e-03   1.4999000e-02   3.6521087e-02
   7.3905652e-03   1.0002000e-02   3.7390565e-02
   7.3905652e-03   1.4999000e-02   3.7390565e-02
   7.3905652e-03   1.0002000e-02   3.8260043e-02
   7.3905652e-03   1.4999000e-02   3.8260043e-02
   7.3905652e-03   1.0002000e-02   3.9129522e-02
   7.3905652e-03   1.4999000e-02   3.9129522e-02
   7.3905652e-03   1.0002000e-02   3.9999000e-02
   7.3905652e-03   1.0834833e-02   3.9999000e-02
   7.3905652e-03   1.1667667e-02   3.9999000e-02
   7.3905652e-03   1.2500500e-02   3.9999000e-02
   7.3905652e-03   1.3333333e-02   3.9999000e-02
   7.3905652e-03   1.4166167e-02   3.9999000e-02
   7.3905652e-03   1.4999000e-02   3.9999000e-02
   8.2600435e-03   1.0002000e-02   2.0001000e-02
   8.2600435e-03   1.0834833e-02   2.0001000e-02
   8.2600435e-03   1.1667667e-02   2.0001000e-02
   8.2600435e-03   1.2500500e-02   2.0001000e-02
   8.2600435e-03   1.3333333e-02   2.0001000e-02
   8.2600435e-03   1.4166167e-02   2.0001000e-02
   8.2600435e-03   1.4999000e-02   2.0001000e-02
   8.2600435e-03   1.0002000e-02   2.0870478e-02
   8.2600435e-03   1.4999000e-02   2.0870478e-02
   8.2600435e-03   1.0002000e-02   2.1739957e-02
   8.2600435e-03   1.4999000e-02   2.1739957e-02
   8.2600435e-03   1.0002000e-02   2.2609435e-02
   8.2600435e-03   1.4999000e-02   2.2609435e-02
   8.2600435e-03   1.0002000e-02   2.3478913e-02
   8.2600435e-03   1.4999000e-02   2.3478913e-02
   8.2600435e-03   1.0002000e-02   2.4348391e-02
   8.2600435e-03   1.4999000e-02   2.4348391e-02
   8.2600435e-03   1.0002000e-02   2.5217870e-02
   8.2600435e-03   1.4999000e-02   2.5217870e-02
   8.2600435e-03   1.0002000e-02   2.6087348e-02
   8.2600435e-03   1.4999000e-02   2.6087348e-02
   8.2600435e-03   1.0002000e-02   2.6956826e-02
   8.2600435e-03   1.4999000e-02   2.6956826e-02
   8.2600435e-03   1.0002000e-02   2.7826304e-02
   8.2600435e-03   1.4999000e-02   2.7826304e-02
   8.2600435e-03   1.0002000e-02   2.8695783e-02
   8.2600435e-03   1.4999000e-02   2.8695783e-02
   8.2600435e-03   1.0002000e-02   2.9565261e-02
   8.2600435e-03   1.4999000e-02   2.9565261e-02
   8.2600435e-03   1.0002000e-02   3.0434739e-02
   8.2600435e-03   1.4999000e-02   3.0434739e-02
   8.2600435e-03   1.0002000e-02   3.1304217e-02
   8.2600435e-03   1.4999000e-02   3.1304217e-02
   8.2600435e-03   1.0002000e-02   3.2173696e-02
   8.2600435e-03   1.4999000e-02   3.2173696e-02
   8.2600435e-03   1.0002000e-02   3.3043174e-02
   8.2600435e-03   1.4999000e-02   3.3043174e-02
   8.2600435e-03   1.0002000e-02   3.3912652e-02
   8.2600435e-03   1.4999000e-02   3.3912652e-02
   8.2600435e-03   1.0002000e-02   3.4782130e-02
   8.2600435e-03   1.4999000e-02   3.4782130e-02
   8.2600435e-03   1.0002000e-02   3.5651609e-02
   8.2600435e-03   1.4999000e-02   3.5651609e-02
   8.2600435e-03   1.0002000e-02   3.6521087e-02
   8.2600435e-03   1.4999000e-02   3.6521087e-02
   8.2600435e-03   1.0002000e-02   3.7390565e-02
   8.2600435e-03   1.4999000e-02   3.7390565e-02
   8.2600435e-03   1.0002000e-02   3.8260043e-02
   8.2600435e-03   1.4999000e-02   3.8260043e-02
   8.2600435e-03   1.0002000e-02   3.9129522e-02
   8.2600435e-03   1.4999000e-02   3.9129522e-02
   8.2600435e-03   1.0002000e-02   3.9999000e-02
   8.2600435e-03   1.0834833e-02   3.9999000e-02
   8.2600435e-03   1.1667667e-02   3.9999000e-02
   8.2600435e-03   1.2500500e-02   3.9999000e-02
   8.2600435e-03   1.3333333e-02   3.9999000e-02
   8.2600435e-03   1.4166167e-02   3.9999000e-02
   8.2600435e-03   1.4999000e-02   3.9999000e-02
   9.1295217e-03   1.0002000e-02   2.0001000e-02
   9.1295217e-03   1.0834833e-02   2.0001000e-02
   9.1295217e-03   1.1667667e-02   2.0001000e-02
   9.1295217e-03   1.2500500e-02   2.0001000e-02
   9.1295217e-03   1.3333333e-02   2.0001000e-02
   9.1295217e-03   1.4166167e-02   2.0001000e-02
   9.1295217e-03   1.4999000e-02   2.0001000e-02
   9.1295217e-03   1.0002000e-02   2.0870478e-02
   9.1295217e-03   1.4999000e-02   2.0870478e-02
   9.1295217e-03   1.0002000e-02   2.1739957e-02
   9.1295217e-03   1.4999000e-02   2.1739957e-02
   9.1295217e-03   1.0002000e-02   2.2609435e-02
   9.1295217e-03   1.4999000e-02   2.2609435e-02
   9.1295217e-03   1.0002000e-02   2.3478913e-02
   9.1295217e-03   1.4999000e-02   2.3478913e-02
   9.1295217e-03   1.0002000e-02   2.4348391e-02
   9.1295217e-03   1.4999000e-02   2.4348391e-02
   9.1295217e-03   1.0002000e-02   2.5217870e-02
   9.1295217e-03   1.4999000e-02   2.5217870e-02
   9.1295217e-03   1.0002000e-02   2.6087348e-02
   9.1295217e-03   1.4999000e-02   2.6087348e-02
   9.1295217e-03   1.0002000e-02   2.6956826e-02
   9.1295217e-03   1.4999000e-02   2.6956826e-02
   9.1295217e-03   1.0002000e-02   2.7826304e-02
   9.1295217e-03   1.4999000e-02   2.7826304e-02
   9.1295217e-03   1.0002000e-02   2.8695783e-02
   9.1295217e-03   1.4999000e-02   2.8695783e-02
   9.1295217e-03   1.0002000e-02   2.9565261e-02
   9.1295217e-03   1.4999000e-02   2.9565261e-02
   9.1295217e-03   1.0002000e-02   3.0434739e-02
   9.1295217e-03   1.4999000e-02   3.0434739e-02
   9.1295217e-03   1.0002000e-02   3.1304217e-02
   9.1295217e-03   1.4999000e-02   3.1304217e-02
   9.1295217e-03   1.0002000e-02   3.2173696e-02
   9.1295217e-03   1.4999000e-02   3.2173696e-02
   9.1295217e-03   1.0002000e-02   3.3043174e-02
   9.1295217e-03   1.4999000e-02   3.3043174e-02
   9.1295217e-03   1.0002000e-02   3.3912652e-02
   9.1295217e-03   1.4999000e-02   3.3912652e-02
   9.1295217e-03   1.0002000e-02   3.4782130e-02
   9.1295217e-03   1.4999000e-02   3.4782130e-02
   9.1295217e-03   1.0002000e-02   3.5651609e-02
   9.1295217e-03   1.4999000e-02   3.5651609e-02
   9.1295217e-03   1.0002000e-02   3.6521087e-02
   9.1295217e-03   1.4999000e-02   3.6521087e-02
   9.1295217e-03   1.0002000e-02   3.7390565e-02
   9.1295217e-03   1.4999000e-02   3.7390565e-02
   9.1295217e-03   1.0002000e-02   3.8260043e-02
   9.1295217e-03   1.4999000e-02   3.8260043e-02
   9.1295217e-03   1.0002000e-02   3.9129522e-02
   9.1295217e-03   1.4999000e-02   3.9129522e-02
   9.1295217e-03   1.0002000e-02   3.9999000e-02
   9.1295217e-03   1.0834833e-02   3.9999000e-02
   9.1295217e-03   1.1667667e-02   3.9999000e-02
   9.1295217e-03   1.2500500e-02   3.9999000e-02
   9.1295217e-03   1.3333333e-02   3.9999000e-02
   9.1295217e-03   1.4166167e-02   3.9999000e-02
   9.1295217e-03   1.4999000e-02   3.9999000e-02
   9.9990000e-03   1.0002000e-02   2.0001000e-02
   9.9990000e-03   1.0834833e-02   2.0001000e-02
   9.9990000e-03   1.1667667e-02   2.0001000e-02
   9.9990000e-03   1.2500500e-02   2.0001000e-02
   9.9990000e-03   1.3333333e-02   2.0001000e-02
   9.9990000e-03   1.4166167e-02   2.0001000e-02
   9.9990000e-03   1.4999000e-02   2.0001000e-02
   9.9990000e-03   1.0002000e-02   2.0870478e-02
   9.9990000e-03   1.0834833e-02   2.0870478e-02
   9.9990000e-03   1.1667667e-02   2.0870478e-02
   9.9990000e-03   1.2500500e-02   2.0870478e-02
   9.9990000e-03   1.3333333e-02   2.0870478e-02
   9.9990000e-03   1.4166167e-02   2.0870478e-02
   9.9990000e-03   1.4999000e-02   2.0870478e-02
   9.9990000e-03   1.0002000e-02   2.1739957e-02
   9.9990000e-03   1.0834833e-02   2.1739957e-02
   9.9990000e-03   1.1667667e-02   2.1739957e-02
   9.9990000e-03   1.2500500e-02   2.1739957e-02
   9.9990000e-03   1.3333333e-02   2.1739957e-02
   9.9990000e-03   1.4166167e-02   2.1739957e-02
   9.9990000e-03   1.4999000e-02   2.1739957e-02
   9.9990000e-03   1.0002000e-02   2.2609435e-02
   9.9990000e-03   1.0834833e-02   2.2609435e-02
   9.9990000e-03   1.1667667e-02   2.2609435e-02
   9.9990000e-03   1.2500500e-02   2.2609435e-02
   9.9990000e-03   1.3333333e-02   2.2609435e-02
   9.9990000e-03   1.4166167e-02   2.2609435e-02
   9.9990000e-03   1.4999000e-02   2.2609435e-02
   9.9990000e-03   1.0002000e-02   2.3478913e-02
   9.9990000e-03   1.0834833e-02   2.3478913e-02
   9.9990000e-03   1.1667667e-02   2.3478913e-02
   9.9990000e-03   1.2500500e-02   2.3478913e-02
   9.9990000e-03   1.3333333e-02   2.3478913e-02
   9.9990000e-03   1.4166167e-02   2.3478913e-02
   9.9990000e-03   1.4999000e-02   2.3478913e-02
   9.9990000e-03   1.0002000e-02   2.4348391e-02
   9.9990000e-03   1.0834833e-02   2.4348391e-02
   9.9990000e-03   1.1667667e-02   2.4348391e-02
   9.9990000e-03   1.2500500e-02   2.4348391e-02
   9.9990000e-03   1.3333333e-02   2.4348391e-02
   9.9990000e-03   1.4166167e-02   2.4348391e-02
   9.9990000e-03   1.4999000e-02   2.4348391e-02
   9.9990000e-03   1.0002000e-02   2.5217870e-02
   9.9990000e-03   1.0834833e-02   2.5217870e-02
   9.9990000e-03   1.1667667e-02   2.5217870e-02
   9.9990000e-03   1.2500500e-02   2.5217870e-02
   9.9990000e-03   1.3333333e-02   2.5217870e-02
   9.9990000e-03   1.4166167e-02   2.5217870e-02
   9.9990000e-03   1.4999000e-02   2.5217870e-02
   9.9990000e-03   1.0002000e-02   2.6087348e-02
   9.9990000e-03   1.0834833e-02   2.6087348e-02
   9.9990000e-03   1.1667667e-02   2.6087348e-02
   9.9990000e-03   1.2500500e-02   2.6087348e-02
   9.9990000e-03   1.3333333e-02   2.6087348e-02
   9.9990000e-03   1.4166167e-02   2.6087348e-02
   9.9990000e-03   1.4999000e-02   2.6087348e-02
   9.9990000e-03   1.0002000e-02   2.6956826e-02
   9.9990000e-03   1.0834833e-02   2.6956826e-02
   9.9990000e-03   1.1667667e-02   2.6956826e-02
   9.9990000e-03   1.2500500e-02   2.6956826e-02
   9.9990000e-03   1.3333333e-02   2.6956826e-02
   9.9990000e-03   1.4166167e-02   2.6956826e-02
   9.9990000e-03   1.4999000e-02   2.6956826e-02
   9.9990000e-03   1.0002000e-02   2.7826304e-02
   9.9990000e-03   1.0834833e-02   2.7826304e-02
   9.9990000e-03   1.1667667e-02   2.7826304e-02
   9.9990000e-03   1.2500500e-02   2.7826304e-02
   9.9990000e-03   1.3333333e-02   2.7826304e-02
   9.9990000e-03   1.4166167e-02   2.7826304e-02
   9.9990000e-03   1.4999000e-02   2.7826304e-02
   9.9990000e-03   1.0002000e-02   2.8695783e-02
   9.9990000e-03   1.0834833e-02   2.8695783e-02
   9.9990000e-03   1.1667667e-02   2.8695783e-02
   9.9990000e-03   1.2500500e-02   2.8695783e-02
   9.9990000e-03   1.3333333e-02   2.8695783e-02
   9.9990000e-03   1.4166167e-02   2.8695783e-02
   9.9990000e-03   1.4999000e-02   2.8695783e-02
   9.9990000e-03   1.0002000e-02   2.9565261e-02
   9.9990000e-03   1.0834833e-02   2.9565261e-02
   9.9990000e-03   1.1667667e-02   2.9565261e-02
   9.9990000e-03   1.2500500e-02   2.9565261e-02
   9.9990000e-03   1.3333333e-02   2.9565261e-02
   9.9990000e-03   1.4166167e-02   2.9565261e-02
   9.9990000e-03   1.4999000e-02   2.9565261e-02
   9.9990000e-03   1.0002000e-02   3.0434739e-02
   9.9990000e-03   1.0834833e-02   3.0434739e-02
   9.9990000e-03   1.1667667e-02   3.0434739e-02
   9.9990000e-03   1.2500500e-02   3.0434739e-02
   9.9990000e-03   1.3333333e-02   3.0434739e-02
   9.9990000e-03   1.4166167e-02   3.0434739e-02
   9.9990000e-03   1.4999000e-02   3.0434739e-02
   9.9990000e-03   1.0002000e-02   3.1304217e-02
   9.9990000e-03   1.0834833e-02   3.1304217e-02
   9.9990000e-03   1.1667667e-02   3.1304217e-02
   9.9990000e-03   1.2500500e-02   3.1304217e-02
   9.9990000e-03   1.3333333e-02   3.1304217e-02
   9.9990000e-03   1.4166167e-02   3.1304217e-02
   9.9990000e-03   1.4999000e-02   3.1304217e-02
   9.9990000e-03   1.0002000e-02   3.2173696e-02
   9.9990000e-03   1.0834833e-02   3.2173696e-02
   9.9990000e-03   1.1667667e-02   3.2173696e-02
   9.9990000e-03   1.2500500e-02   3.2173696e-02
   9.9990000e-03   1.3333333e-02   3.2173696e-02
   9.9990000e-03   1.4166167e-02   3.2173696e-02
   9.9990000e-03   1.4999000e-02   3.2173696e-02
   9.9990000e-03   1.0002000e-02   3.3043174e-02
   9.9990000e-03   1.0834833e-02   3.3043174e-02
   9.9990000e-03   1.1667667e-02   3.3043174e-02
   9.9990000e-03   1.2500500e-02   3.3043174e-02
   9.9990000e-03   1.3333333e-02   3.3043174e-02
   9.9990000e-03   1.4166167e-02   3.3043174e-02
   9.9990000e-03   1.4999000e-02   3.3043174e-02
   9.9990000e-03   1.0002000e-02   3.3912652e-02
   9.9990000e-03   1.0834833e-02   3.3912652e-02
   9.9990000e-03   1.1667667e-02   3.3912652e-02
   9.9990000e-03   1.2500500e-02   3.3912652e-02
   9.9990000e-03   1.3333333e-02   3.3912652e-02
   9.9990000e-03   1.4166167e-02   3.3912652e-02
   9.9990000e-03   1.4999000e-02   3.3912652e-02
   9.9990000e-03   1.0002000e-02   3.4782130e-02
   9.9990000e-03   1.0834833e-02   3.4782130e-02
   9.9990000e-03   1.1667667e-02   3.4782130e-02
   9.9990000e-03   1.2500500e-02   3.4782130e-02
   9.9990000e-03   1.3333333e-02   3.4782130e-02
   9.9990000e-03   1.4166167e-02   3.4782130e-02
   9.9990000e-03   1.4999000e-02   3.4782130e-02
   9.9990000e-03   1.0002000e-02   3.5651609e-02
   9.9990000e-03   1.0834833e-02   3.5651609e-02
   9.9990000e-03   1.1667667e-02   3.5651609e-02
   9.9990000e-03   1.2500500e-02   3.5651609e-02
   9.9990000e-03   1.3333333e-02   3.5651609e-02
   9.9990000e-03   1.4166167e-02   3.5651609e-02
   9.9990000e-03   1.4999000e-02   3.5651609e-02
