-0.00800000000000000017 0.0100000000000000002 0.0250005000000000019
-0.00800000000000000017 0.0100000000000000002 0.0260003999999999999
-0.00800000000000000017 0.0100000000000000002 0.0270003000000000014
-0.00800000000000000017 0.0100000000000000002 0.0280002000000000029
-0.00800000000000000017 0.0100000000000000002 0.0290001000000000009
-0.00800000000000000017 0.0100000000000000002 0.0299999999999999989
-0.00800000000000000017 0.0100000000000000002 0.0309999000000000004
-0.00800000000000000017 0.0100000000000000002 0.0319998000000000019
-0.00800000000000000017 0.0100000000000000002 0.0329996999999999999
-0.00800000000000000017 0.0100000000000000002 0.0339995999999999979
-0.00800000000000000017 0.0100000000000000002 0.0349995000000000028
-0.00800000000000000017 0.0100000000000000002 0.0359994000000000008
-0.00800000000000000017 0.0100000000000000002 0.0369992999999999989
-0.00800000000000000017 0.0100000000000000002 0.0379991999999999969
-0.00800000000000000017 0.0100000000000000002 0.0389991000000000018
-0.00800000000000000017 0.0100000000000000002 0.0399989999999999998
-0.00800000000000000017 0.0109999999999999994 0.0200010000000000014
-0.00800000000000000017 0.0109999999999999994 0.0399989999999999998
-0.00800000000000000017 0.0120000000000000002 0.0200010000000000014
-0.00800000000000000017 0.0120000000000000002 0.0399989999999999998
-0.00800000000000000017 0.0129999999999999994 0.0200010000000000014
-0.00800000000000000017 0.0129999999999999994 0.0399989999999999998
-0.00800000000000000017 0.0140000000000000003 0.0200010000000000014
-0.00800000000000000017 0.0140000000000000003 0.0399989999999999998
-0.00800000000000000017 0.0149999999999999994 0.0200010000000000014
-0.00800000000000000017 0.0149999999999999994 0.0210009000000000029
-0.00800000000000000017 0.0149999999999999994 0.0220008000000000009
-0.00800000000000000017 0.0149999999999999994 0.0230007000000000024
-0.00800000000000000017 0.0149999999999999994 0.0240006000000000004
-0.00800000000000000017 0.0149999999999999994 0.0250005000000000019
-0.00800000000000000017 0.0149999999999999994 0.0260003999999999999
-0.00800000000000000017 0.0149999999999999994 0.0270003000000000014
-0.00800000000000000017 0.0149999999999999994 0.0280002000000000029
-0.00800000000000000017 0.0149999999999999994 0.0290001000000000009
-0.00800000000000000017 0.0149999999999999994 0.0299999999999999989
-0.00800000000000000017 0.0149999999999999994 0.0309999000000000004
-0.00800000000000000017 0.0149999999999999994 0.0319998000000000019
-0.00800000000000000017 0.0149999999999999994 0.0329996999999999999
-0.00800000000000000017 0.0149999999999999994 0.0339995999999999979
-0.00800000000000000017 0.0149999999999999994 0.0349995000000000028
-0.00800000000000000017 0.0149999999999999994 0.0359994000000000008
-0.00800000000000000017 0.0149999999999999994 0.0369992999999999989
-0.00800000000000000017 0.0149999999999999994 0.0379991999999999969
-0.00800000000000000017 0.0149999999999999994 0.0389991000000000018
-0.00800000000000000017 0.0149999999999999994 0.0399989999999999998
-0.00700000000000000015 0.0100000000000000002 0.0200010000000000014
-0.00700000000000000015 0.0100000000000000002 0.0210009000000000029
-0.00700000000000000015 0.0100000000000000002 0.0220008000000000009
-0.00700000000000000015 0.0100000000000000002 0.0230007000000000024
-0.00700000000000000015 0.0100000000000000002 0.0240006000000000004
-0.00700000000000000015 0.0100000000000000002 0.0250005000000000019
-0.00700000000000000015 0.0100000000000000002 0.0260003999999999999
-0.00700000000000000015 0.0100000000000000002 0.0270003000000000014
-0.00700000000000000015 0.0100000000000000002 0.0280002000000000029
-0.00700000000000000015 0.0100000000000000002 0.0290001000000000009
-0.00700000000000000015 0.0100000000000000002 0.0299999999999999989
-0.00700000000000000015 0.0100000000000000002 0.0309999000000000004
-0.00700000000000000015 0.0100000000000000002 0.0319998000000000019
-0.00700000000000000015 0.0100000000000000002 0.0329996999999999999
-0.00700000000000000015 0.0100000000000000002 0.0339995999999999979
-0.00700000000000000015 0.0100000000000000002 0.0349995000000000028
-0.00700000000000000015 0.0100000000000000002 0.0359994000000000008
-0.00700000000000000015 0.0100000000000000002 0.0369992999999999989
-0.00700000000000000015 0.0100000000000000002 0.0379991999999999969
-0.00700000000000000015 0.0100000000000000002 0.0389991000000000018
-0.00700000000000000015 0.0100000000000000002 0.0399989999999999998
-0.00700000000000000015 0.0109999999999999994 0.0200010000000000014
-0.00700000000000000015 0.0109999999999999994 0.0399989999999999998
-0.00700000000000000015 0.0120000000000000002 0.0200010000000000014
-0.00700000000000000015 0.0120000000000000002 0.0399989999999999998
-0.00700000000000000015 0.0129999999999999994 0.0200010000000000014
-0.00700000000000000015 0.0129999999999999994 0.0399989999999999998
-0.00700000000000000015 0.0140000000000000003 0.0200010000000000014
-0.00700000000000000015 0.0140000000000000003 0.0399989999999999998
-0.00700000000000000015 0.0149999999999999994 0.0200010000000000014
-0.00700000000000000015 0.0149999999999999994 0.0210009000000000029
-0.00700000000000000015 0.0149999999999999994 0.0220008000000000009
-0.00700000000000000015 0.0149999999999999994 0.0230007000000000024
-0.00700000000000000015 0.0149999999999999994 0.0240006000000000004
-0.00700000000000000015 0.0149999999999999994 0.0250005000000000019
-0.00700000000000000015 0.0149999999999999994 0.0260003999999999999
-0.00700000000000000015 0.0149999999999999994 0.0270003000000000014
-0.00700000000000000015 0.0149999999999999994 0.0280002000000000029
-0.00700000000000000015 0.0149999999999999994 0.0290001000000000009
-0.00700000000000000015 0.0149999999999999994 0.0299999999999999989
-0.00700000000000000015 0.0149999999999999994 0.0309999000000000004
-0.00700000000000000015 0.0149999999999999994 0.0319998000000000019
-0.00700000000000000015 0.0149999999999999994 0.0329996999999999999
-0.00700000000000000015 0.0149999999999999994 0.0339995999999999979
-0.00700000000000000015 0.0149999999999999994 0.0349995000000000028
-0.00700000000000000015 0.0149999999999999994 0.0359994000000000008
-0.00700000000000000015 0.0149999999999999994 0.0369992999999999989
-0.00700000000000000015 0.0149999999999999994 0.0379991999999999969
-0.00700000000000000015 0.0149999999999999994 0.0389991000000000018
-0.00700000000000000015 0.0149999999999999994 0.0399989999999999998
-0.00600000000000000012 0.0100000000000000002 0.0200010000000000014
-0.00600000000000000012 0.0100000000000000002 0.0210009000000000029
-0.00600000000000000012 0.0100000000000000002 0.0220008000000000009
-0.00600000000000000012 0.0100000000000000002 0.0230007000000000024
-0.00600000000000000012 0.0100000000000000002 0.0240006000000000004
-0.00600000000000000012 0.0100000000000000002 0.0250005000000000019
-0.00600000000000000012 0.0100000000000000002 0.0260003999999999999
-0.00600000000000000012 0.0100000000000000002 0.0270003000000000014
-0.00600000000000000012 0.0100000000000000002 0.0280002000000000029
-0.00600000000000000012 0.0100000000000000002 0.0290001000000000009
-0.00600000000000000012 0.0100000000000000002 0.0299999999999999989
-0.00600000000000000012 0.0100000000000000002 0.0309999000000000004
-0.00600000000000000012 0.0100000000000000002 0.0319998000000000019
-0.00600000000000000012 0.0100000000000000002 0.0329996999999999999
-0.00600000000000000012 0.0100000000000000002 0.0339995999999999979
-0.00600000000000000012 0.0100000000000000002 0.0349995000000000028
-0.00600000000000000012 0.0100000000000000002 0.0359994000000000008
-0.00600000000000000012 0.0100000000000000002 0.0369992999999999989
-0.00600000000000000012 0.0100000000000000002 0.0379991999999999969
-0.00600000000000000012 0.0100000000000000002 0.0389991000000000018
-0.00600000000000000012 0.0100000000000000002 0.0399989999999999998
-0.00600000000000000012 0.0109999999999999994 0.0200010000000000014
-0.00600000000000000012 0.0109999999999999994 0.0399989999999999998
-0.00600000000000000012 0.0120000000000000002 0.0200010000000000014
-0.00600000000000000012 0.0120000000000000002 0.0399989999999999998
-0.00600000000000000012 0.0129999999999999994 0.0200010000000000014
-0.00600000000000000012 0.0129999999999999994 0.0399989999999999998
-0.00600000000000000012 0.0140000000000000003 0.0200010000000000014
-0.00600000000000000012 0.0140000000000000003 0.0399989999999999998
-0.00600000000000000012 0.0149999999999999994 0.0200010000000000014
-0.00600000000000000012 0.0149999999999999994 0.0210009000000000029
-0.00600000000000000012 0.0149999999999999994 0.0220008000000000009
-0.00600000000000000012 0.0149999999999999994 0.0230007000000000024
-0.00600000000000000012 0.0149999999999999994 0.0240006000000000004
-0.00600000000000000012 0.0149999999999999994 0.0250005000000000019
-0.00600000000000000012 0.0149999999999999994 0.0260003999999999999
-0.00600000000000000012 0.0149999999999999994 0.0270003000000000014
-0.00600000000000000012 0.0149999999999999994 0.0280002000000000029
-0.00600000000000000012 0.0149999999999999994 0.0290001000000000009
-0.00600000000000000012 0.0149999999999999994 0.0299999999999999989
-0.00600000000000000012 0.0149999999999999994 0.0309999000000000004
-0.00600000000000000012 0.0149999999999999994 0.0319998000000000019
-0.00600000000000000012 0.0149999999999999994 0.0329996999999999999
-0.00600000000000000012 0.0149999999999999994 0.0339995999999999979
-0.00600000000000000012 0.0149999999999999994 0.0349995000000000028
-0.00600000000000000012 0.0149999999999999994 0.0359994000000000008
-0.00600000000000000012 0.0149999999999999994 0.0369992999999999989
-0.00600000000000000012 0.0149999999999999994 0.0379991999999999969
-0.00600000000000000012 0.0149999999999999994 0.0389991000000000018
-0.00600000000000000012 0.0149999999999999994 0.0399989999999999998
-0.0050000000000000001 0.0100000000000000002 0.0200010000000000014
-0.0050000000000000001 0.0100000000000000002 0.0210009000000000029
-0.0050000000000000001 0.0100000000000000002 0.0220008000000000009
-0.0050000000000000001 0.0100000000000000002 0.0230007000000000024
-0.0050000000000000001 0.0100000000000000002 0.0240006000000000004
-0.0050000000000000001 0.0100000000000000002 0.0250005000000000019
-0.0050000000000000001 0.0100000000000000002 0.0260003999999999999
-0.0050000000000000001 0.0100000000000000002 0.0270003000000000014
-0.0050000000000000001 0.0100000000000000002 0.0280002000000000029
-0.0050000000000000001 0.0100000000000000002 0.0290001000000000009
-0.0050000000000000001 0.0100000000000000002 0.0299999999999999989
-0.0050000000000000001 0.0100000000000000002 0.0309999000000000004
-0.0050000000000000001 0.0100000000000000002 0.0319998000000000019
-0.0050000000000000001 0.0100000000000000002 0.0329996999999999999
-0.0050000000000000001 0.0100000000000000002 0.0339995999999999979
-0.0050000000000000001 0.0100000000000000002 0.0349995000000000028
-0.0050000000000000001 0.0100000000000000002 0.0359994000000000008
-0.0050000000000000001 0.0100000000000000002 0.0369992999999999989
-0.0050000000000000001 0.0100000000000000002 0.0379991999999999969
-0.0050000000000000001 0.0100000000000000002 0.0389991000000000018
-0.0050000000000000001 0.0100000000000000002 0.0399989999999999998
-0.0050000000000000001 0.0109999999999999994 0.0200010000000000014
-0.0050000000000000001 0.0109999999999999994 0.0399989999999999998
-0.0050000000000000001 0.0120000000000000002 0.0200010000000000014
-0.0050000000000000001 0.0120000000000000002 0.0399989999999999998
-0.0050000000000000001 0.0129999999999999994 0.0200010000000000014
-0.0050000000000000001 0.0129999999999999994 0.0399989999999999998
-0.0050000000000000001 0.0140000000000000003 0.0200010000000000014
-0.0050000000000000001 0.0140000000000000003 0.0399989999999999998
-0.0050000000000000001 0.0149999999999999994 0.0200010000000000014
-0.0050000000000000001 0.0149999999999999994 0.0210009000000000029
-0.0050000000000000001 0.0149999999999999994 0.0220008000000000009
-0.0050000000000000001 0.0149999999999999994 0.0230007000000000024
-0.0050000000000000001 0.0149999999999999994 0.0240006000000000004
-0.0050000000000000001 0.0149999999999999994 0.0250005000000000019
-0.0050000000000000001 0.0149999999999999994 0.0260003999999999999
-0.0050000000000000001 0.0149999999999999994 0.0270003000000000014
-0.0050000000000000001 0.0149999999999999994 0.0280002000000000029
-0.0050000000000000001 0.0149999999999999994 0.0290001000000000009
-0.0050000000000000001 0.0149999999999999994 0.0299999999999999989
-0.0050000000000000001 0.0149999999999999994 0.0309999000000000004
-0.0050000000000000001 0.0149999999999999994 0.0319998000000000019
-0.0050000000000000001 0.0149999999999999994 0.0329996999999999999
-0.0050000000000000001 0.0149999999999999994 0.0339995999999999979
-0.0050000000000000001 0.0149999999999999994 0.0349995000000000028
-0.0050000000000000001 0.0149999999999999994 0.0359994000000000008
-0.0050000000000000001 0.0149999999999999994 0.0369992999999999989
-0.0050000000000000001 0.0149999999999999994 0.0379991999999999969
-0.0050000000000000001 0.0149999999999999994 0.0389991000000000018
-0.0050000000000000001 0.0149999999999999994 0.0399989999999999998
-0.00400000000000000008 0.0100000000000000002 0.0200010000000000014
-0.00400000000000000008 0.0100000000000000002 0.0210009000000000029
-0.00400000000000000008 0.0100000000000000002 0.0220008000000000009
-0.00400000000000000008 0.0100000000000000002 0.0230007000000000024
-0.00400000000000000008 0.0100000000000000002 0.0240006000000000004
-0.00400000000000000008 0.0100000000000000002 0.0250005000000000019
-0.00400000000000000008 0.0100000000000000002 0.0260003999999999999
-0.00400000000000000008 0.0100000000000000002 0.0270003000000000014
-0.00400000000000000008 0.0100000000000000002 0.0280002000000000029
-0.00400000000000000008 0.0100000000000000002 0.0290001000000000009
-0.00400000000000000008 0.0100000000000000002 0.0299999999999999989
-0.00400000000000000008 0.0100000000000000002 0.0309999000000000004
-0.00400000000000000008 0.0100000000000000002 0.0319998000000000019
-0.00400000000000000008 0.0100000000000000002 0.0329996999999999999
-0.00400000000000000008 0.0100000000000000002 0.0339995999999999979
-0.00400000000000000008 0.0100000000000000002 0.0349995000000000028
-0.00400000000000000008 0.0100000000000000002 0.0359994000000000008
-0.00400000000000000008 0.0100000000000000002 0.0369992999999999989
-0.00400000000000000008 0.0100000000000000002 0.0379991999999999969
-0.00400000000000000008 0.0100000000000000002 0.0389991000000000018
-0.00400000000000000008 0.0100000000000000002 0.0399989999999999998
-0.00400000000000000008 0.0109999999999999994 0.0200010000000000014
-0.00400000000000000008 0.0109999999999999994 0.0399989999999999998
-0.00400000000000000008 0.0120000000000000002 0.0200010000000000014
-0.00400000000000000008 0.0120000000000000002 0.0399989999999999998
-0.00400000000000000008 0.0129999999999999994 0.0200010000000000014
-0.00400000000000000008 0.0129999999999999994 0.0399989999999999998
-0.00400000000000000008 0.0140000000000000003 0.0200010000000000014
-0.00400000000000000008 0.0140000000000000003 0.0399989999999999998
-0.00400000000000000008 0.0149999999999999994 0.0200010000000000014
-0.00400000000000000008 0.0149999999999999994 0.0210009000000000029
-0.00400000000000000008 0.0149999999999999994 0.0220008000000000009
-0.00400000000000000008 0.0149999999999999994 0.0230007000000000024
-0.00400000000000000008 0.0149999999999999994 0.0240006000000000004
-0.00400000000000000008 0.0149999999999999994 0.0250005000000000019
-0.00400000000000000008 0.0149999999999999994 0.0260003999999999999
-0.00400000000000000008 0.0149999999999999994 0.0270003000000000014
-0.00400000000000000008 0.0149999999999999994 0.0280002000000000029
-0.00400000000000000008 0.0149999999999999994 0.0290001000000000009
-0.00400000000000000008 0.0149999999999999994 0.0299999999999999989
-0.00400000000000000008 0.0149999999999999994 0.0309999000000000004
-0.00400000000000000008 0.0149999999999999994 0.0319998000000000019
-0.00400000000000000008 0.0149999999999999994 0.0329996999999999999
-0.00400000000000000008 0.0149999999999999994 0.0339995999999999979
-0.00400000000000000008 0.0149999999999999994 0.0349995000000000028
-0.00400000000000000008 0.0149999999999999994 0.0359994000000000008
-0.00400000000000000008 0.0149999999999999994 0.0369992999999999989
-0.00400000000000000008 0.0149999999999999994 0.0379991999999999969
-0.00400000000000000008 0.0149999999999999994 0.0389991000000000018
-0.00400000000000000008 0.0149999999999999994 0.0399989999999999998
-0.00300000000000000006 0.0100000000000000002 0.0200010000000000014
-0.00300000000000000006 0.0100000000000000002 0.0210009000000000029
-0.00300000000000000006 0.0100000000000000002 0.0220008000000000009
-0.00300000000000000006 0.0100000000000000002 0.0230007000000000024
-0.00300000000000000006 0.0100000000000000002 0.0240006000000000004
-0.00300000000000000006 0.0100000000000000002 0.0250005000000000019
-0.00300000000000000006 0.0100000000000000002 0.0260003999999999999
-0.00300000000000000006 0.0100000000000000002 0.0270003000000000014
-0.00300000000000000006 0.0100000000000000002 0.0280002000000000029
-0.00300000000000000006 0.0100000000000000002 0.0290001000000000009
-0.00300000000000000006 0.0100000000000000002 0.0299999999999999989
-0.00300000000000000006 0.0100000000000000002 0.0309999000000000004
-0.00300000000000000006 0.0100000000000000002 0.0319998000000000019
-0.00300000000000000006 0.0100000000000000002 0.0329996999999999999
-0.00300000000000000006 0.0100000000000000002 0.0339995999999999979
-0.00300000000000000006 0.0100000000000000002 0.0349995000000000028
-0.00300000000000000006 0.0100000000000000002 0.0359994000000000008
-0.00300000000000000006 0.0100000000000000002 0.0369992999999999989
-0.00300000000000000006 0.0100000000000000002 0.0379991999999999969
-0.00300000000000000006 0.0100000000000000002 0.0389991000000000018
-0.00300000000000000006 0.0100000000000000002 0.0399989999999999998
-0.00300000000000000006 0.0109999999999999994 0.0200010000000000014
-0.00300000000000000006 0.0109999999999999994 0.0399989999999999998
-0.00300000000000000006 0.0120000000000000002 0.0200010000000000014
-0.00300000000000000006 0.0120000000000000002 0.0399989999999999998
-0.00300000000000000006 0.0129999999999999994 0.0200010000000000014
-0.00300000000000000006 0.0129999999999999994 0.0399989999999999998
-0.00300000000000000006 0.0140000000000000003 0.0200010000000000014
-0.00300000000000000006 0.0140000000000000003 0.0399989999999999998
-0.00300000000000000006 0.0149999999999999994 0.0200010000000000014
-0.00300000000000000006 0.0149999999999999994 0.0210009000000000029
-0.00300000000000000006 0.0149999999999999994 0.0220008000000000009
-0.00300000000000000006 0.0149999999999999994 0.0230007000000000024
-0.00300000000000000006 0.0149999999999999994 0.0240006000000000004
-0.00300000000000000006 0.0149999999999999994 0.0250005000000000019
-0.00300000000000000006 0.0149999999999999994 0.0260003999999999999
-0.00300000000000000006 0.0149999999999999994 0.0270003000000000014
-0.00300000000000000006 0.0149999999999999994 0.0280002000000000029
-0.00300000000000000006 0.0149999999999999994 0.0290001000000000009
-0.00300000000000000006 0.0149999999999999994 0.0299999999999999989
-0.00300000000000000006 0.0149999999999999994 0.0309999000000000004
-0.00300000000000000006 0.0149999999999999994 0.0319998000000000019
-0.00300000000000000006 0.0149999999999999994 0.0329996999999999999
-0.00300000000000000006 0.0149999999999999994 0.0339995999999999979
-0.00300000000000000006 0.0149999999999999994 0.0349995000000000028
-0.00300000000000000006 0.0149999999999999994 0.0359994000000000008
-0.00300000000000000006 0.0149999999999999994 0.0369992999999999989
-0.00300000000000000006 0.0149999999999999994 0.0379991999999999969
-0.00300000000000000006 0.0149999999999999994 0.0389991000000000018
-0.00300000000000000006 0.0149999999999999994 0.0399989999999999998
-0.00200000000000000004 0.0100000000000000002 0.0200010000000000014
-0.00200000000000000004 0.0100000000000000002 0.0210009000000000029
-0.00200000000000000004 0.0100000000000000002 0.0220008000000000009
-0.00200000000000000004 0.0100000000000000002 0.0230007000000000024
-0.00200000000000000004 0.0100000000000000002 0.0240006000000000004
-0.00200000000000000004 0.0100000000000000002 0.0250005000000000019
-0.00200000000000000004 0.0100000000000000002 0.0260003999999999999
-0.00200000000000000004 0.0100000000000000002 0.0270003000000000014
-0.00200000000000000004 0.0100000000000000002 0.0280002000000000029
-0.00200000000000000004 0.0100000000000000002 0.0290001000000000009
-0.00200000000000000004 0.0100000000000000002 0.0299999999999999989
-0.00200000000000000004 0.0100000000000000002 0.0309999000000000004
-0.00200000000000000004 0.0100000000000000002 0.0319998000000000019
-0.00200000000000000004 0.0100000000000000002 0.0329996999999999999
-0.00200000000000000004 0.0100000000000000002 0.0339995999999999979
-0.00200000000000000004 0.0100000000000000002 0.0349995000000000028
-0.00200000000000000004 0.0100000000000000002 0.0359994000000000008
-0.00200000000000000004 0.0100000000000000002 0.0369992999999999989
-0.00200000000000000004 0.0100000000000000002 0.0379991999999999969
-0.00200000000000000004 0.0100000000000000002 0.0389991000000000018
-0.00200000000000000004 0.0100000000000000002 0.0399989999999999998
-0.00200000000000000004 0.0109999999999999994 0.0200010000000000014
-0.00200000000000000004 0.0109999999999999994 0.0399989999999999998
-0.00200000000000000004 0.0120000000000000002 0.0200010000000000014
-0.00200000000000000004 0.0120000000000000002 0.0399989999999999998
-0.00200000000000000004 0.0129999999999999994 0.0200010000000000014
-0.00200000000000000004 0.0129999999999999994 0.0399989999999999998
-0.00200000000000000004 0.0140000000000000003 0.0200010000000000014
-0.00200000000000000004 0.0140000000000000003 0.0399989999999999998
-0.00200000000000000004 0.0149999999999999994 0.0200010000000000014
-0.00200000000000000004 0.0149999999999999994 0.0210009000000000029
-0.00200000000000000004 0.0149999999999999994 0.0220008000000000009
-0.00200000000000000004 0.0149999999999999994 0.0230007000000000024
-0.00200000000000000004 0.0149999999999999994 0.0240006000000000004
-0.00200000000000000004 0.0149999999999999994 0.0250005000000000019
-0.00200000000000000004 0.0149999999999999994 0.0260003999999999999
-0.00200000000000000004 0.0149999999999999994 0.0270003000000000014
-0.00200000000000000004 0.0149999999999999994 0.0280002000000000029
-0.00200000000000000004 0.0149999999999999994 0.0290001000000000009
-0.00200000000000000004 0.0149999999999999994 0.0299999999999999989
-0.00200000000000000004 0.0149999999999999994 0.0309999000000000004
-0.00200000000000000004 0.0149999999999999994 0.0319998000000000019
-0.00200000000000000004 0.0149999999999999994 0.0329996999999999999
-0.00200000000000000004 0.0149999999999999994 0.0339995999999999979
-0.00200000000000000004 0.0149999999999999994 0.0349995000000000028
-0.00200000000000000004 0.0149999999999999994 0.0359994000000000008
-0.00200000000000000004 0.0149999999999999994 0.0369992999999999989
-0.00200000000000000004 0.0149999999999999994 0.0379991999999999969
-0.00200000000000000004 0.0149999999999999994 0.0389991000000000018
-0.00200000000000000004 0.0149999999999999994 0.0399989999999999998
-0.000999999999999999153 0.0100000000000000002 0.0200010000000000014
-0.000999999999999999153 0.0100000000000000002 0.0210009000000000029
-0.000999999999999999153 0.0100000000000000002 0.0220008000000000009
-0.000999999999999999153 0.0100000000000000002 0.0230007000000000024
-0.000999999999999999153 0.0100000000000000002 0.0240006000000000004
-0.000999999999999999153 0.0100000000000000002 0.0250005000000000019
-0.000999999999999999153 0.0100000000000000002 0.0260003999999999999
-0.000999999999999999153 0.0100000000000000002 0.0270003000000000014
-0.000999999999999999153 0.0100000000000000002 0.0280002000000000029
-0.000999999999999999153 0.0100000000000000002 0.0290001000000000009
-0.000999999999999999153 0.0100000000000000002 0.0299999999999999989
-0.000999999999999999153 0.0100000000000000002 0.0309999000000000004
-0.000999999999999999153 0.0100000000000000002 0.0319998000000000019
-0.000999999999999999153 0.0100000000000000002 0.0329996999999999999
-0.000999999999999999153 0.0100000000000000002 0.0339995999999999979
-0.000999999999999999153 0.0100000000000000002 0.0349995000000000028
-0.000999999999999999153 0.0100000000000000002 0.0359994000000000008
-0.000999999999999999153 0.0100000000000000002 0.0369992999999999989
-0.000999999999999999153 0.0100000000000000002 0.0379991999999999969
-0.000999999999999999153 0.0100000000000000002 0.0389991000000000018
-0.000999999999999999153 0.0100000000000000002 0.0399989999999999998
-0.000999999999999999153 0.0109999999999999994 0.0200010000000000014
-0.000999999999999999153 0.0109999999999999994 0.0399989999999999998
-0.000999999999999999153 0.0120000000000000002 0.0200010000000000014
-0.000999999999999999153 0.0120000000000000002 0.0399989999999999998
-0.000999999999999999153 0.0129999999999999994 0.0200010000000000014
-0.000999999999999999153 0.0129999999999999994 0.0399989999999999998
-0.000999999999999999153 0.0140000000000000003 0.0200010000000000014
-0.000999999999999999153 0.0140000000000000003 0.0399989999999999998
-0.000999999999999999153 0.0149999999999999994 0.0200010000000000014
-0.000999999999999999153 0.0149999999999999994 0.0210009000000000029
-0.000999999999999999153 0.0149999999999999994 0.0220008000000000009
-0.000999999999999999153 0.0149999999999999994 0.0230007000000000024
-0.000999999999999999153 0.0149999999999999994 0.0240006000000000004
-0.000999999999999999153 0.0149999999999999994 0.0250005000000000019
-0.000999999999999999153 0.0149999999999999994 0.0260003999999999999
-0.000999999999999999153 0.0149999999999999994 0.0270003000000000014
-0.000999999999999999153 0.0149999999999999994 0.0280002000000000029
-0.000999999999999999153 0.0149999999999999994 0.0290001000000000009
-0.000999999999999999153 0.0149999999999999994 0.0299999999999999989
-0.000999999999999999153 0.0149999999999999994 0.0309999000000000004
-0.000999999999999999153 0.0149999999999999994 0.0319998000000000019
-0.000999999999999999153 0.0149999999999999994 0.0329996999999999999
-0.000999999999999999153 0.0149999999999999994 0.0339995999999999979
-0.000999999999999999153 0.0149999999999999994 0.0349995000000000028
-0.000999999999999999153 0.0149999999999999994 0.0359994000000000008
-0.000999999999999999153 0.0149999999999999994 0.0369992999999999989
-0.000999999999999999153 0.0149999999999999994 0.0379991999999999969
-0.000999999999999999153 0.0149999999999999994 0.0389991000000000018
-0.000999999999999999153 0.0149999999999999994 0.0399989999999999998
0 0.0100000000000000002 0.0200010000000000014
0 0.0100000000000000002 0.0210009000000000029
0 0.0100000000000000002 0.0220008000000000009
0 0.0100000000000000002 0.0230007000000000024
0 0.0100000000000000002 0.0240006000000000004
0 0.0100000000000000002 0.0250005000000000019
0 0.0100000000000000002 0.0260003999999999999
0 0.0100000000000000002 0.0270003000000000014
0 0.0100000000000000002 0.0280002000000000029
0 0.0100000000000000002 0.0290001000000000009
0 0.0100000000000000002 0.0299999999999999989
0 0.0100000000000000002 0.0309999000000000004
0 0.0100000000000000002 0.0319998000000000019
0 0.0100000000000000002 0.0329996999999999999
0 0.0100000000000000002 0.0339995999999999979
0 0.0100000000000000002 0.0349995000000000028
0 0.0100000000000000002 0.0359994000000000008
0 0.0100000000000000002 0.0369992999999999989
0 0.0100000000000000002 0.0379991999999999969
0 0.0100000000000000002 0.0389991000000000018
0 0.0100000000000000002 0.0399989999999999998
0 0.0109999999999999994 0.0200010000000000014
0 0.0109999999999999994 0.0399989999999999998
0 0.0120000000000000002 0.0200010000000000014
0 0.0120000000000000002 0.0399989999999999998
0 0.0129999999999999994 0.0200010000000000014
0 0.0129999999999999994 0.0399989999999999998
0 0.0140000000000000003 0.0200010000000000014
0 0.0140000000000000003 0.0399989999999999998
0 0.0149999999999999994 0.0200010000000000014
0 0.0149999999999999994 0.0210009000000000029
0 0.0149999999999999994 0.0220008000000000009
0 0.0149999999999999994 0.0230007000000000024
0 0.0149999999999999994 0.0240006000000000004
0 0.0149999999999999994 0.0250005000000000019
0 0.0149999999999999994 0.0260003999999999999
0 0.0149999999999999994 0.0270003000000000014
0 0.0149999999999999994 0.0280002000000000029
0 0.0149999999999999994 0.0290001000000000009
0 0.0149999999999999994 0.0299999999999999989
0 0.0149999999999999994 0.0309999000000000004
0 0.0149999999999999994 0.0319998000000000019
0 0.0149999999999999994 0.0329996999999999999
0 0.0149999999999999994 0.0339995999999999979
0 0.0149999999999999994 0.0349995000000000028
0 0.0149999999999999994 0.0359994000000000008
0 0.0149999999999999994 0.0369992999999999989
0 0.0149999999999999994 0.0379991999999999969
0 0.0149999999999999994 0.0389991000000000018
0 0.0149999999999999994 0.0399989999999999998
0.000999999999999999153 0.0100000000000000002 0.0200010000000000014
0.000999999999999999153 0.0100000000000000002 0.0210009000000000029
0.000999999999999999153 0.0100000000000000002 0.0220008000000000009
0.000999999999999999153 0.0100000000000000002 0.0230007000000000024
0.000999999999999999153 0.0100000000000000002 0.0240006000000000004
0.000999999999999999153 0.0100000000000000002 0.0250005000000000019
0.000999999999999999153 0.0100000000000000002 0.0260003999999999999
0.000999999999999999153 0.0100000000000000002 0.0270003000000000014
0.000999999999999999153 0.0100000000000000002 0.0280002000000000029
0.000999999999999999153 0.0100000000000000002 0.0290001000000000009
0.000999999999999999153 0.0100000000000000002 0.0299999999999999989
0.000999999999999999153 0.0100000000000000002 0.0309999000000000004
0.000999999999999999153 0.0100000000000000002 0.0319998000000000019
0.000999999999999999153 0.0100000000000000002 0.0329996999999999999
0.000999999999999999153 0.0100000000000000002 0.0339995999999999979
0.000999999999999999153 0.0100000000000000002 0.0349995000000000028
0.000999999999999999153 0.0100000000000000002 0.0359994000000000008
0.000999999999999999153 0.0100000000000000002 0.0369992999999999989
0.000999999999999999153 0.0100000000000000002 0.0379991999999999969
0.000999999999999999153 0.0100000000000000002 0.0389991000000000018
0.000999999999999999153 0.0100000000000000002 0.0399989999999999998
0.000999999999999999153 0.0109999999999999994 0.0200010000000000014
0.000999999999999999153 0.0109999999999999994 0.0399989999999999998
0.000999999999999999153 0.0120000000000000002 0.0200010000000000014
0.000999999999999999153 0.0120000000000000002 0.0399989999999999998
0.000999999999999999153 0.0129999999999999994 0.0200010000000000014
0.000999999999999999153 0.0129999999999999994 0.0399989999999999998
0.000999999999999999153 0.0140000000000000003 0.0200010000000000014
0.000999999999999999153 0.0140000000000000003 0.0399989999999999998
0.000999999999999999153 0.0149999999999999994 0.0200010000000000014
0.000999999999999999153 0.0149999999999999994 0.0210009000000000029
0.000999999999999999153 0.0149999999999999994 0.0220008000000000009
0.000999999999999999153 0.0149999999999999994 0.0230007000000000024
0.000999999999999999153 0.0149999999999999994 0.0240006000000000004
0.000999999999999999153 0.0149999999999999994 0.0250005000000000019
0.000999999999999999153 0.0149999999999999994 0.0260003999999999999
0.000999999999999999153 0.0149999999999999994 0.0270003000000000014
0.000999999999999999153 0.0149999999999999994 0.0280002000000000029
0.000999999999999999153 0.0149999999999999994 0.0290001000000000009
0.000999999999999999153 0.0149999999999999994 0.0299999999999999989
0.000999999999999999153 0.0149999999999999994 0.0309999000000000004
0.000999999999999999153 0.0149999999999999994 0.0319998000000000019
0.000999999999999999153 0.0149999999999999994 0.0329996999999999999
0.000999999999999999153 0.0149999999999999994 0.0339995999999999979
0.000999999999999999153 0.0149999999999999994 0.0349995000000000028
0.000999999999999999153 0.0149999999999999994 0.0359994000000000008
0.000999999999999999153 0.0149999999999999994 0.0369992999999999989
0.000999999999999999153 0.0149999999999999994 0.0379991999999999969
0.000999999999999999153 0.0149999999999999994 0.0389991000000000018
0.000999999999999999153 0.0149999999999999994 0.0399989999999999998
0.00200000000000000004 0.0100000000000000002 0.0200010000000000014
0.00200000000000000004 0.0100000000000000002 0.0210009000000000029
0.00200000000000000004 0.0100000000000000002 0.0220008000000000009
0.00200000000000000004 0.0100000000000000002 0.0230007000000000024
0.00200000000000000004 0.0100000000000000002 0.0240006000000000004
0.00200000000000000004 0.0100000000000000002 0.0250005000000000019
0.00200000000000000004 0.0100000000000000002 0.0260003999999999999
0.00200000000000000004 0.0100000000000000002 0.0270003000000000014
0.00200000000000000004 0.0100000000000000002 0.0280002000000000029
0.00200000000000000004 0.0100000000000000002 0.0290001000000000009
0.00200000000000000004 0.0100000000000000002 0.0299999999999999989
0.00200000000000000004 0.0100000000000000002 0.0309999000000000004
0.00200000000000000004 0.0100000000000000002 0.0319998000000000019
0.00200000000000000004 0.0100000000000000002 0.0329996999999999999
0.00200000000000000004 0.0100000000000000002 0.0339995999999999979
0.00200000000000000004 0.0100000000000000002 0.0349995000000000028
0.00200000000000000004 0.0100000000000000002 0.0359994000000000008
0.00200000000000000004 0.0100000000000000002 0.0369992999999999989
0.00200000000000000004 0.0100000000000000002 0.0379991999999999969
0.00200000000000000004 0.0100000000000000002 0.0389991000000000018
0.00200000000000000004 0.0100000000000000002 0.0399989999999999998
0.00200000000000000004 0.0109999999999999994 0.0200010000000000014
0.00200000000000000004 0.0109999999999999994 0.0399989999999999998
0.00200000000000000004 0.0120000000000000002 0.0200010000000000014
0.00200000000000000004 0.0120000000000000002 0.0399989999999999998
0.00200000000000000004 0.0129999999999999994 0.0200010000000000014
0.00200000000000000004 0.0129999999999999994 0.0399989999999999998
0.00200000000000000004 0.0140000000000000003 0.0200010000000000014
0.00200000000000000004 0.0140000000000000003 0.0399989999999999998
0.00200000000000000004 0.0149999999999999994 0.0200010000000000014
0.00200000000000000004 0.0149999999999999994 0.0210009000000000029
0.00200000000000000004 0.0149999999999999994 0.0220008000000000009
0.00200000000000000004 0.0149999999999999994 0.0230007000000000024
0.00200000000000000004 0.0149999999999999994 0.0240006000000000004
0.00200000000000000004 0.0149999999999999994 0.0250005000000000019
0.00200000000000000004 0.0149999999999999994 0.0260003999999999999
0.00200000000000000004 0.0149999999999999994 0.0270003000000000014
0.00200000000000000004 0.0149999999999999994 0.0280002000000000029
0.00200000000000000004 0.0149999999999999994 0.0290001000000000009
0.00200000000000000004 0.0149999999999999994 0.0299999999999999989
0.00200000000000000004 0.0149999999999999994 0.0309999000000000004
0.00200000000000000004 0.0149999999999999994 0.0319998000000000019
0.00200000000000000004 0.0149999999999999994 0.0329996999999999999
0.00200000000000000004 0.0149999999999999994 0.0339995999999999979
0.00200000000000000004 0.0149999999999999994 0.0349995000000000028
0.00200000000000000004 0.0149999999999999994 0.0359994000000000008
0.00200000000000000004 0.0149999999999999994 0.0369992999999999989
0.00200000000000000004 0.0149999999999999994 0.0379991999999999969
0.00200000000000000004 0.0149999999999999994 0.0389991000000000018
0.00200000000000000004 0.0149999999999999994 0.0399989999999999998
0.00300000000000000006 0.0100000000000000002 0.0200010000000000014
0.00300000000000000006 0.0100000000000000002 0.0210009000000000029
0.00300000000000000006 0.0100000000000000002 0.0220008000000000009
0.00300000000000000006 0.0100000000000000002 0.0230007000000000024
0.00300000000000000006 0.0100000000000000002 0.0240006000000000004
0.00300000000000000006 0.0100000000000000002 0.0250005000000000019
0.00300000000000000006 0.0100000000000000002 0.0260003999999999999
0.00300000000000000006 0.0100000000000000002 0.0270003000000000014
0.00300000000000000006 0.0100000000000000002 0.0280002000000000029
0.00300000000000000006 0.0100000000000000002 0.0290001000000000009
0.00300000000000000006 0.0100000000000000002 0.0299999999999999989
0.00300000000000000006 0.0100000000000000002 0.0309999000000000004
0.00300000000000000006 0.0100000000000000002 0.0319998000000000019
0.00300000000000000006 0.0100000000000000002 0.0329996999999999999
0.00300000000000000006 0.0100000000000000002 0.0339995999999999979
0.00300000000000000006 0.0100000000000000002 0.0349995000000000028
0.00300000000000000006 0.0100000000000000002 0.0359994000000000008
0.00300000000000000006 0.0100000000000000002 0.0369992999999999989
0.00300000000000000006 0.0100000000000000002 0.0379991999999999969
0.00300000000000000006 0.0100000000000000002 0.0389991000000000018
0.00300000000000000006 0.0100000000000000002 0.0399989999999999998
0.00300000000000000006 0.0109999999999999994 0.0200010000000000014
0.00300000000000000006 0.0109999999999999994 0.0399989999999999998
0.00300000000000000006 0.0120000000000000002 0.0200010000000000014
0.00300000000000000006 0.0120000000000000002 0.0399989999999999998
0.00300000000000000006 0.0129999999999999994 0.0200010000000000014
0.00300000000000000006 0.0129999999999999994 0.0399989999999999998
0.00300000000000000006 0.0140000000000000003 0.0200010000000000014
0.00300000000000000006 0.0140000000000000003 0.0399989999999999998
0.00300000000000000006 0.0149999999999999994 0.0200010000000000014
0.00300000000000000006 0.0149999999999999994 0.0210009000000000029
0.00300000000000000006 0.0149999999999999994 0.0220008000000000009
0.00300000000000000006 0.0149999999999999994 0.0230007000000000024
0.00300000000000000006 0.0149999999999999994 0.0240006000000000004
0.00300000000000000006 0.0149999999999999994 0.0250005000000000019
0.00300000000000000006 0.0149999999999999994 0.0260003999999999999
0.00300000000000000006 0.0149999999999999994 0.0270003000000000014
0.00300000000000000006 0.0149999999999999994 0.0280002000000000029
0.00300000000000000006 0.0149999999999999994 0.0290001000000000009
0.00300000000000000006 0.0149999999999999994 0.0299999999999999989
0.00300000000000000006 0.0149999999999999994 0.0309999000000000004
0.00300000000000000006 0.0149999999999999994 0.0319998000000000019
0.00300000000000000006 0.0149999999999999994 0.0329996999999999999
0.00300000000000000006 0.0149999999999999994 0.0339995999999999979
0.00300000000000000006 0.0149999999999999994 0.0349995000000000028
0.00300000000000000006 0.0149999999999999994 0.0359994000000000008
0.00300000000000000006 0.0149999999999999994 0.0369992999999999989
0.00300000000000000006 0.0149999999999999994 0.0379991999999999969
0.00300000000000000006 0.0149999999999999994 0.0389991000000000018
0.00300000000000000006 0.0149999999999999994 0.0399989999999999998
0.00400000000000000008 0.0100000000000000002 0.0200010000000000014
0.00400000000000000008 0.0100000000000000002 0.0210009000000000029
0.00400000000000000008 0.0100000000000000002 0.0220008000000000009
0.00400000000000000008 0.0100000000000000002 0.0230007000000000024
0.00400000000000000008 0.0100000000000000002 0.0240006000000000004
0.00400000000000000008 0.0100000000000000002 0.0250005000000000019
0.00400000000000000008 0.0100000000000000002 0.0260003999999999999
0.00400000000000000008 0.0100000000000000002 0.0270003000000000014
0.00400000000000000008 0.0100000000000000002 0.0280002000000000029
0.00400000000000000008 0.0100000000000000002 0.0290001000000000009
0.00400000000000000008 0.0100000000000000002 0.0299999999999999989
0.00400000000000000008 0.0100000000000000002 0.0309999000000000004
0.00400000000000000008 0.0100000000000000002 0.0319998000000000019
0.00400000000000000008 0.0100000000000000002 0.0329996999999999999
0.00400000000000000008 0.0100000000000000002 0.0339995999999999979
0.00400000000000000008 0.0100000000000000002 0.0349995000000000028
0.00400000000000000008 0.0100000000000000002 0.0359994000000000008
0.00400000000000000008 0.0100000000000000002 0.0369992999999999989
0.00400000000000000008 0.0100000000000000002 0.0379991999999999969
0.00400000000000000008 0.0100000000000000002 0.0389991000000000018
0.00400000000000000008 0.0100000000000000002 0.0399989999999999998
0.00400000000000000008 0.0109999999999999994 0.0200010000000000014
0.00400000000000000008 0.0109999999999999994 0.0399989999999999998
0.00400000000000000008 0.0120000000000000002 0.0200010000000000014
0.00400000000000000008 0.0120000000000000002 0.0399989999999999998
0.00400000000000000008 0.0129999999999999994 0.0200010000000000014
0.00400000000000000008 0.0129999999999999994 0.0399989999999999998
0.00400000000000000008 0.0140000000000000003 0.0200010000000000014
0.00400000000000000008 0.0140000000000000003 0.0399989999999999998
0.00400000000000000008 0.0149999999999999994 0.0200010000000000014
0.00400000000000000008 0.0149999999999999994 0.0210009000000000029
0.00400000000000000008 0.0149999999999999994 0.0220008000000000009
0.00400000000000000008 0.0149999999999999994 0.0230007000000000024
0.00400000000000000008 0.0149999999999999994 0.0240006000000000004
0.00400000000000000008 0.0149999999999999994 0.0250005000000000019
0.00400000000000000008 0.0149999999999999994 0.0260003999999999999
0.00400000000000000008 0.0149999999999999994 0.0270003000000000014
0.00400000000000000008 0.0149999999999999994 0.0280002000000000029
0.00400000000000000008 0.0149999999999999994 0.0290001000000000009
0.00400000000000000008 0.0149999999999999994 0.0299999999999999989
0.00400000000000000008 0.0149999999999999994 0.0309999000000000004
0.00400000000000000008 0.0149999999999999994 0.0319998000000000019
0.00400000000000000008 0.0149999999999999994 0.0329996999999999999
0.00400000000000000008 0.0149999999999999994 0.0339995999999999979
0.00400000000000000008 0.0149999999999999994 0.0349995000000000028
0.00400000000000000008 0.0149999999999999994 0.0359994000000000008
0.00400000000000000008 0.0149999999999999994 0.0369992999999999989
0.00400000000000000008 0.0149999999999999994 0.0379991999999999969
0.00400000000000000008 0.0149999999999999994 0.0389991000000000018
0.00400000000000000008 0.0149999999999999994 0.0399989999999999998
0.0050000000000000001 0.0100000000000000002 0.0200010000000000014
0.0050000000000000001 0.0100000000000000002 0.0210009000000000029
0.0050000000000000001 0.0100000000000000002 0.0220008000000000009
0.0050000000000000001 0.0100000000000000002 0.0230007000000000024
0.0050000000000000001 0.0100000000000000002 0.0240006000000000004
0.0050000000000000001 0.0100000000000000002 0.0250005000000000019
0.0050000000000000001 0.0100000000000000002 0.0260003999999999999
0.0050000000000000001 0.0100000000000000002 0.0270003000000000014
0.0050000000000000001 0.0100000000000000002 0.0280002000000000029
0.0050000000000000001 0.0100000000000000002 0.0290001000000000009
0.0050000000000000001 0.0100000000000000002 0.0299999999999999989
0.0050000000000000001 0.0100000000000000002 0.0309999000000000004
0.0050000000000000001 0.0100000000000000002 0.0319998000000000019
0.0050000000000000001 0.0100000000000000002 0.0329996999999999999
0.0050000000000000001 0.0100000000000000002 0.0339995999999999979
0.0050000000000000001 0.0100000000000000002 0.0349995000000000028
0.0050000000000000001 0.0100000000000000002 0.0359994000000000008
0.0050000000000000001 0.0100000000000000002 0.0369992999999999989
0.0050000000000000001 0.0100000000000000002 0.0379991999999999969
0.0050000000000000001 0.0100000000000000002 0.0389991000000000018
0.0050000000000000001 0.0100000000000000002 0.0399989999999999998
0.0050000000000000001 0.0109999999999999994 0.0200010000000000014
0.0050000000000000001 0.0109999999999999994 0.0399989999999999998
0.0050000000000000001 0.0120000000000000002 0.0200010000000000014
0.0050000000000000001 0.0120000000000000002 0.0399989999999999998
0.0050000000000000001 0.0129999999999999994 0.0200010000000000014
0.0050000000000000001 0.0129999999999999994 0.0399989999999999998
0.0050000000000000001 0.0140000000000000003 0.0200010000000000014
0.0050000000000000001 0.0140000000000000003 0.0399989999999999998
0.0050000000000000001 0.0149999999999999994 0.0200010000000000014
0.0050000000000000001 0.0149999999999999994 0.0210009000000000029
0.0050000000000000001 0.0149999999999999994 0.0220008000000000009
0.0050000000000000001 0.0149999999999999994 0.0230007000000000024
0.0050000000000000001 0.0149999999999999994 0.0240006000000000004
0.0050000000000000001 0.0149999999999999994 0.0250005000000000019
0.0050000000000000001 0.0149999999999999994 0.0260003999999999999
0.0050000000000000001 0.0149999999999999994 0.0270003000000000014
0.0050000000000000001 0.0149999999999999994 0.0280002000000000029
0.0050000000000000001 0.0149999999999999994 0.0290001000000000009
0.0050000000000000001 0.0149999999999999994 0.0299999999999999989
0.0050000000000000001 0.0149999999999999994 0.0309999000000000004
0.0050000000000000001 0.0149999999999999994 0.0319998000000000019
0.0050000000000000001 0.0149999999999999994 0.0329996999999999999
0.0050000000000000001 0.0149999999999999994 0.0339995999999999979
0.0050000000000000001 0.0149999999999999994 0.0349995000000000028
0.0050000000000000001 0.0149999999999999994 0.0359994000000000008
0.0050000000000000001 0.0149999999999999994 0.0369992999999999989
0.0050000000000000001 0.0149999999999999994 0.0379991999999999969
0.0050000000000000001 0.0149999999999999994 0.0389991000000000018
0.0050000000000000001 0.0149999999999999994 0.0399989999999999998
0.00600000000000000012 0.0100000000000000002 0.0200010000000000014
0.00600000000000000012 0.0100000000000000002 0.0210009000000000029
0.00600000000000000012 0.0100000000000000002 0.0220008000000000009
0.00600000000000000012 0.0100000000000000002 0.0230007000000000024
0.00600000000000000012 0.0100000000000000002 0.0240006000000000004
0.00600000000000000012 0.0100000000000000002 0.0250005000000000019
0.00600000000000000012 0.0100000000000000002 0.0260003999999999999
0.00600000000000000012 0.0100000000000000002 0.0270003000000000014
0.00600000000000000012 0.0100000000000000002 0.0280002000000000029
0.00600000000000000012 0.0100000000000000002 0.0290001000000000009
0.00600000000000000012 0.0100000000000000002 0.0299999999999999989
0.00600000000000000012 0.0100000000000000002 0.0309999000000000004
0.00600000000000000012 0.0100000000000000002 0.0319998000000000019
0.00600000000000000012 0.0100000000000000002 0.0329996999999999999
0.00600000000000000012 0.0100000000000000002 0.0339995999999999979
0.00600000000000000012 0.0100000000000000002 0.0349995000000000028
0.00600000000000000012 0.0100000000000000002 0.0359994000000000008
0.00600000000000000012 0.0100000000000000002 0.0369992999999999989
0.00600000000000000012 0.0100000000000000002 0.0379991999999999969
0.00600000000000000012 0.0100000000000000002 0.0389991000000000018
0.00600000000000000012 0.0100000000000000002 0.0399989999999999998
0.00600000000000000012 0.0109999999999999994 0.0200010000000000014
0.00600000000000000012 0.0109999999999999994 0.0399989999999999998
0.00600000000000000012 0.0120000000000000002 0.0200010000000000014
0.00600000000000000012 0.0120000000000000002 0.0399989999999999998
0.00600000000000000012 0.0129999999999999994 0.0200010000000000014
0.00600000000000000012 0.0129999999999999994 0.0399989999999999998
0.00600000000000000012 0.0140000000000000003 0.0200010000000000014
0.00600000000000000012 0.0140000000000000003 0.0399989999999999998
0.00600000000000000012 0.0149999999999999994 0.0200010000000000014
0.00600000000000000012 0.0149999999999999994 0.0210009000000000029
