3.736947 0.345761 0.064861
3.741475 0.346981 0.039508
3.742666 0.363797 0.038742
3.813935 0.359190 0.048644
3.812744 0.342374 0.049410
3.815555 0.343634 0.022657
3.816721 0.360237 0.022414
3.742326 0.364020 0.041290
3.741135 0.347204 0.042056
3.743945 0.348464 0.015303
3.745112 0.365067 0.015060
3.807871 0.342581 0.077639
3.807083 0.325488 0.078458
3.812192 0.328767 0.052106
3.812400 0.343801 0.052287
3.736941 0.344522 0.064585
3.736152 0.327428 0.065404
3.741262 0.330707 0.039052
3.741470 0.345741 0.039233
3.812797 0.344552 0.049670
3.812589 0.329518 0.049490
3.815701 0.331681 0.022497
3.815607 0.345812 0.022917
3.741081 0.344995 0.041796
3.740873 0.329960 0.041616
3.743985 0.332124 0.014623
3.743892 0.346254 0.015043
3.807012 0.325247 0.078794
3.806247 0.308163 0.079194
3.811659 0.312944 0.052680
3.812122 0.328526 0.052442
3.736222 0.327637 0.065069
3.735457 0.310554 0.065469
3.740869 0.315335 0.038955
3.741332 0.330916 0.038717
3.812553 0.328924 0.049733
3.812091 0.313342 0.049971
3.815409 0.316437 0.022867
3.815665 0.331087 0.022740
3.740909 0.330525 0.041373
3.740447 0.314943 0.041611
3.743765 0.318038 0.014506
3.744021 0.332688 0.014380
3.620216 0.251018 -0.011165
3.645162 0.247848 -0.011729
3.647057 0.247472 0.031130
3.620577 0.250685 0.030675
3.629103 0.322616 -0.010801
3.654050 0.319446 -0.011365
3.655945 0.319069 0.031493
3.629464 0.322282 0.031038
3.648934 0.247579 -0.011794
3.675478 0.247012 -0.010765
3.677442 0.246725 0.032214
3.650829 0.247202 0.031065
3.650330 0.319711 -0.011299
3.676874 0.319145 -0.010270
3.678838 0.318858 0.032709
3.652225 0.319335 0.031560
3.674993 0.247025 -0.010678
3.699688 0.246178 -0.012890
3.703520 0.245866 0.034465
3.676957 0.246738 0.032301
3.677411 0.319131 -0.010355
3.702106 0.318284 -0.012567
3.705937 0.317973 0.034788
3.679375 0.318844 0.032623
3.701969 0.246173 -0.013000
3.728131 0.246872 -0.013950
3.733394 0.246709 0.036932
3.705800 0.245862 0.034356
3.699878 0.318289 -0.012457
3.726041 0.318988 -0.013407
3.731304 0.318824 0.037475
3.703710 0.317977 0.034899
3.584637 0.313424 -0.011181
3.585241 0.303373 -0.011182
3.585645 0.303495 0.030736
3.583900 0.314036 0.030725
3.656320 0.321601 -0.010967
3.656924 0.311550 -0.010968
3.657328 0.311672 0.030950
3.655582 0.322214 0.030939
3.585519 0.301423 -0.010743
3.587300 0.291113 -0.010692
3.587676 0.291009 0.031178
3.585923 0.301545 0.031175
3.656649 0.313480 -0.011408
3.658430 0.303170 -0.011356
3.658806 0.303066 0.030513
3.657053 0.313602 0.030511
3.587304 0.291087 -0.010742
3.589083 0.280780 -0.010701
3.589444 0.280446 0.031138
3.587680 0.290983 0.031127
3.658430 0.303175 -0.011306
3.660208 0.292868 -0.011265
3.660570 0.292534 0.030575
3.658805 0.303071 0.030564
3.799735 0.287353 0.017035
3.796417 0.284258 0.044140
3.774221 0.268865 0.039973
3.773467 0.270565 0.011578
3.759414 0.347091 0.020333
3.756096 0.343996 0.047437
3.733900 0.328603 0.043271
3.733145 0.330302 0.014876
3.774907 0.271637 0.010899
3.775662 0.269937 0.039294
3.754000 0.253995 0.034894
3.748736 0.254159 -0.015988
3.731656 0.329197 0.015535
3.732411 0.327498 0.043930
3.710749 0.311555 0.039530
3.705486 0.311719 -0.011352
3.798218 0.285588 0.043672
3.792806 0.280807 0.070186
3.777235 0.267610 0.067989
3.776023 0.270195 0.039505
3.754291 0.342660 0.047961
3.748879 0.337880 0.074475
3.733308 0.324683 0.072278
3.732095 0.327267 0.043794
3.776512 0.270828 0.037341
3.777725 0.268243 0.065825
3.760139 0.254943 0.054781
3.754850 0.254885 0.032941
3.731567 0.326605 0.045948
3.732780 0.324021 0.074432
3.715193 0.310721 0.063388
3.709905 0.310663 0.041548
3.781095 0.441273 -0.233247
3.779648 0.426229 -0.244548
3.780035 0.441377 -0.264224
3.780816 0.459836 -0.254193
3.709062 0.444488 -0.230772
3.707614 0.429443 -0.242072
3.708002 0.444592 -0.261748
3.708783 0.463051 -0.251718
3.780829 0.459765 -0.252379
3.780048 0.441306 -0.262410
3.781222 0.458140 -0.280745
3.781993 0.479105 -0.272375
3.708771 0.463157 -0.253571
3.707990 0.444698 -0.263601
3.709164 0.461532 -0.281936
3.709934 0.482497 -0.273567
3.781984 0.478860 -0.273313
3.781213 0.457895 -0.281682
3.781475 0.473820 -0.299577
3.783297 0.498127 -0.293321
3.709945 0.482777 -0.272668
3.709174 0.461812 -0.281037
3.709436 0.477738 -0.298932
3.711258 0.502045 -0.292676
3.782856 0.497165 -0.287816
3.781034 0.472858 -0.294072
3.784999 0.488414 -0.307425
3.786603 0.515095 -0.308305
3.711704 0.503042 -0.298217
3.709882 0.478735 -0.304473
3.713847 0.494291 -0.317826
3.715451 0.520972 -0.318706
3.779582 0.425008 -0.244258
3.777827 0.409969 -0.255553
3.778586 0.422150 -0.273875
3.779969 0.440157 -0.263934
3.707678 0.430630 -0.242383
3.705923 0.415591 -0.253677
3.706682 0.427772 -0.272000
3.708065 0.445779 -0.262059
3.780001 0.440469 -0.262488
3.778617 0.422462 -0.272429
3.780134 0.436793 -0.289136
3.781174 0.457303 -0.280823
3.708036 0.445496 -0.263542
3.706653 0.427489 -0.273483
3.708170 0.441820 -0.290191
3.709209 0.462330 -0.281877
3.781226 0.458928 -0.279910
3.780186 0.438418 -0.288224
3.782086 0.452257 -0.305309
3.781488 0.474853 -0.297805
3.709160 0.460735 -0.282825
3.708120 0.440226 -0.291138
3.710020 0.454065 -0.308224
3.709421 0.476661 -0.300719
3.780739 0.473767 -0.292032
3.781337 0.451172 -0.299536
3.783106 0.462642 -0.306639
3.784704 0.489324 -0.305384
3.710174 0.477775 -0.306520
3.710772 0.455179 -0.314025
3.712542 0.466649 -0.321128
3.714140 0.493331 -0.319873
3.776195 0.354017 -0.296464
3.778672 0.374647 -0.307242
3.778537 0.398106 -0.287861
3.774742 0.382492 -0.273726
3.704926 0.359693 -0.306149
3.707403 0.380322 -0.316927
3.707268 0.403782 -0.297546
3.703473 0.388167 -0.283411
3.779037 0.376202 -0.310151
3.780490 0.395960 -0.322608
3.780197 0.416745 -0.304513
3.778903 0.399662 -0.290770
3.707042 0.378803 -0.314043
3.708495 0.398561 -0.326501
3.708201 0.419346 -0.308406
3.706907 0.402262 -0.294663
3.780458 0.395387 -0.322482
3.781899 0.414548 -0.335781
3.782049 0.431059 -0.317577
3.780165 0.416173 -0.304388
3.708530 0.399169 -0.326653
3.709972 0.418329 -0.339951
3.710121 0.434840 -0.321747
3.708237 0.419954 -0.308558
3.781741 0.412268 -0.336511
3.783243 0.430685 -0.347872
3.784848 0.440934 -0.330061
3.781891 0.428778 -0.318307
3.710134 0.420642 -0.339246
3.711635 0.439060 -0.350606
3.713240 0.449309 -0.332796
3.710283 0.437153 -0.321042
3.774955 0.381874 -0.276499
3.778750 0.397488 -0.290634
3.778480 0.421458 -0.270906
3.777721 0.409278 -0.252583
3.703260 0.388837 -0.280595
3.707056 0.404451 -0.294730
3.706785 0.428422 -0.275002
3.706027 0.416241 -0.256679
3.778901 0.399659 -0.290742
3.780195 0.416742 -0.304486
3.780148 0.437960 -0.287722
3.778631 0.423629 -0.271014
3.706908 0.402310 -0.294653
3.708203 0.419394 -0.308397
3.708155 0.440611 -0.291633
3.706638 0.426281 -0.274925
3.780124 0.416210 -0.303744
3.782008 0.431096 -0.316933
3.781976 0.451267 -0.304065
3.780076 0.437428 -0.286980
3.708278 0.419956 -0.309169
3.710162 0.434842 -0.322358
3.710130 0.455013 -0.309491
3.708230 0.441173 -0.292405
3.781655 0.430070 -0.314392
3.784612 0.442226 -0.326146
3.783393 0.461711 -0.308627
3.781623 0.450241 -0.301524
3.710519 0.435894 -0.324924
3.713475 0.448050 -0.336678
3.712256 0.467535 -0.319159
3.710486 0.456065 -0.312056
3.762171 0.340512 -0.325142
3.755976 0.303364 -0.303766
3.750132 0.302745 -0.310237
3.752284 0.333822 -0.327939
3.718934 0.373111 -0.277465
3.712739 0.335964 -0.256089
3.706895 0.335345 -0.262560
3.709047 0.366421 -0.280262
3.753616 0.335708 -0.327910
3.751463 0.304631 -0.310207
3.745463 0.304114 -0.316647
3.744483 0.328574 -0.331433
3.707701 0.364528 -0.280302
3.705548 0.333451 -0.262599
3.699548 0.332934 -0.269039
3.698568 0.357394 -0.283825
3.758030 0.340963 -0.328594
3.748143 0.334273 -0.331391
3.745206 0.353387 -0.344042
3.760506 0.361592 -0.339371
3.723080 0.372714 -0.274044
3.713193 0.366024 -0.276842
3.710256 0.385138 -0.289492
3.725556 0.393343 -0.284822
3.749161 0.336163 -0.331752
3.740028 0.329030 -0.335276
3.731896 0.342720 -0.346630
3.746223 0.355277 -0.344403
3.712151 0.364116 -0.276487
3.703018 0.356983 -0.280011
3.694886 0.370673 -0.291365
3.709214 0.383230 -0.289138
3.758721 0.360394 -0.339730
3.743420 0.352188 -0.344400
3.736717 0.368404 -0.357187
3.760174 0.380151 -0.352188
3.727339 0.394580 -0.284487
3.712038 0.386374 -0.289158
3.705335 0.402590 -0.301944
3.728792 0.414337 -0.296945
3.741198 0.354649 -0.346877
3.726870 0.342092 -0.349104
3.710224 0.347423 -0.357248
3.734494 0.370865 -0.359664
3.714222 0.383885 -0.286686
3.699895 0.371328 -0.288914
3.683249 0.376659 -0.297057
3.707519 0.400101 -0.299473
3.612250 0.251904 -0.163281
3.623322 0.249351 -0.181077
3.647079 0.246148 -0.181331
3.637856 0.247824 -0.169507
3.622349 0.323266 -0.166549
3.633421 0.320713 -0.184345
3.657178 0.317511 -0.184599
3.647955 0.319186 -0.172775
3.641204 0.247535 -0.168973
3.650427 0.245860 -0.180797
3.675549 0.245212 -0.180151
3.667599 0.245631 -0.170932
3.644658 0.319470 -0.173313
3.653881 0.317794 -0.185137
3.679003 0.317146 -0.184491
3.671052 0.317565 -0.175272
3.669296 0.245531 -0.173863
3.677246 0.245113 -0.183081
3.695768 0.245779 -0.187514
3.695928 0.244919 -0.175216
3.669404 0.317663 -0.172345
3.677354 0.317244 -0.181564
3.695876 0.317911 -0.185996
3.696037 0.317051 -0.173698
3.696607 0.245062 -0.177695
3.696447 0.245922 -0.189993
3.717972 0.247271 -0.198257
3.724367 0.245013 -0.174721
3.695405 0.316909 -0.171224
3.695245 0.317769 -0.183522
3.716770 0.319118 -0.191787
3.723164 0.316860 -0.168251
3.624120 0.249247 -0.181062
3.635222 0.246736 -0.198855
3.654459 0.245166 -0.191135
3.647877 0.246045 -0.181315
3.632642 0.320813 -0.184390
3.643744 0.318302 -0.202183
3.662981 0.316732 -0.194462
3.656399 0.317610 -0.184643
3.652005 0.245769 -0.181906
3.658587 0.244890 -0.191725
3.679271 0.245368 -0.191440
3.677127 0.245121 -0.181260
3.652316 0.317884 -0.184048
3.658898 0.317005 -0.193867
3.679583 0.317483 -0.193582
3.677438 0.317236 -0.183402
3.679129 0.245244 -0.184918
3.681273 0.245491 -0.195098
3.697770 0.247777 -0.206978
3.697651 0.245910 -0.189350
3.675477 0.317114 -0.179752
3.677621 0.317361 -0.189932
3.694118 0.319647 -0.201813
3.693999 0.317780 -0.184184
3.696816 0.246032 -0.190980
3.696935 0.247899 -0.208608
3.712212 0.250185 -0.222802
3.718341 0.247382 -0.199244
3.694869 0.317662 -0.182574
3.694988 0.319529 -0.200202
3.710265 0.321815 -0.214396
3.716394 0.319012 -0.190838
3.589359 0.280799 -0.039011
3.587584 0.291332 -0.038929
3.588086 0.291672 -0.064119
3.589887 0.280836 -0.064542
3.660507 0.292667 -0.037477
3.658732 0.303201 -0.037395
3.659235 0.303541 -0.062585
3.661035 0.292705 -0.063008
3.589837 0.281138 -0.064510
3.588037 0.291974 -0.064087
3.588564 0.292308 -0.089271
3.590164 0.281785 -0.090014
3.661086 0.292403 -0.063091
3.659285 0.303239 -0.062667
3.659813 0.303572 -0.087851
3.661413 0.293049 -0.088595
3.590086 0.282259 -0.089508
3.588486 0.292783 -0.088765
3.588393 0.294810 -0.113707
3.590046 0.282894 -0.115028
3.661491 0.292576 -0.089152
3.659891 0.303100 -0.088408
3.659799 0.305127 -0.113350
3.661451 0.293211 -0.114672
3.590062 0.283525 -0.112161
3.588410 0.295441 -0.110839
3.586391 0.298693 -0.135115
3.587876 0.283716 -0.137424
3.661433 0.292584 -0.117589
3.659780 0.304500 -0.116268
3.657762 0.307751 -0.140543
3.659247 0.292774 -0.142852
3.588577 0.284877 -0.132019
3.587092 0.299853 -0.129710
3.581855 0.303961 -0.152993
3.582303 0.284227 -0.156748
3.658538 0.291617 -0.148306
3.657053 0.306594 -0.145997
3.651817 0.310702 -0.169280
3.652265 0.290967 -0.173034
3.587581 0.291355 -0.038985
3.585803 0.301886 -0.038890
3.586293 0.302538 -0.063761
3.588084 0.291695 -0.064174
3.658731 0.303199 -0.037339
3.656953 0.313729 -0.037244
3.657443 0.314381 -0.062115
3.659234 0.303538 -0.062529
3.588042 0.291971 -0.064285
3.586250 0.302814 -0.063872
3.586946 0.302815 -0.088708
3.588569 0.292305 -0.089469
3.659277 0.303263 -0.062468
3.657486 0.314106 -0.062055
3.658181 0.314107 -0.086890
3.659805 0.303597 -0.087652
3.588483 0.292816 -0.089017
3.586860 0.303326 -0.088255
3.586750 0.306844 -0.112613
3.588391 0.294843 -0.113959
3.659891 0.303089 -0.088154
3.658268 0.313599 -0.087393
3.658158 0.317117 -0.111751
3.659798 0.305116 -0.113096
3.588345 0.295593 -0.111525
3.586705 0.307594 -0.110180
3.584844 0.313984 -0.133446
3.586327 0.298845 -0.135801
3.659842 0.304374 -0.115578
3.658201 0.316374 -0.114233
3.656340 0.322765 -0.137499
3.657823 0.307626 -0.139854
3.586723 0.300158 -0.131348
3.585240 0.315297 -0.128994
3.581051 0.324005 -0.150875
3.581486 0.304266 -0.154631
3.657421 0.306324 -0.144352
3.655938 0.321463 -0.141998
3.651749 0.330171 -0.163879
3.652184 0.310432 -0.167635
3.585307 0.308156 -0.038478
3.585600 0.318256 -0.038328
3.585694 0.319642 -0.062979
3.585797 0.308808 -0.063349
3.657447 0.307480 -0.037656
3.657740 0.317580 -0.037506
3.657834 0.318965 -0.062157
3.657937 0.308132 -0.062527
3.585815 0.307411 -0.063650
3.585712 0.318245 -0.063279
3.585963 0.318079 -0.087833
3.586511 0.307413 -0.088485
3.657919 0.309530 -0.062276
3.657816 0.320363 -0.061905
3.658066 0.320198 -0.086460
3.658614 0.309531 -0.087112
3.586663 0.304948 -0.087444
3.586115 0.315615 -0.086792
3.584890 0.320542 -0.110405
3.586553 0.308466 -0.111802
3.658462 0.311999 -0.088201
3.657914 0.322666 -0.087549
3.656688 0.327592 -0.111162
3.658352 0.315517 -0.112560
3.586646 0.307789 -0.110948
3.584982 0.319864 -0.109550
3.583362 0.329489 -0.131830
3.584785 0.314179 -0.134214
3.658257 0.316206 -0.113461
3.656593 0.328282 -0.112063
3.654973 0.337906 -0.134343
3.656396 0.322597 -0.136727
3.584948 0.315597 -0.130668
3.583525 0.330907 -0.128285
3.580262 0.344038 -0.148775
3.580759 0.324305 -0.152549
3.656228 0.321198 -0.140317
3.654805 0.336507 -0.137933
3.651542 0.349638 -0.158424
3.652039 0.329906 -0.162198
3.612280 0.251938 -0.162581
3.637887 0.247858 -0.168807
3.640372 0.249413 -0.140586
3.618554 0.252588 -0.137852
3.622312 0.323235 -0.167209
3.647919 0.319155 -0.173434
3.650405 0.320710 -0.145214
3.628586 0.323885 -0.142480
3.640590 0.247577 -0.168857
3.666985 0.245673 -0.170816
3.669351 0.247344 -0.142889
3.643076 0.249132 -0.140637
3.645266 0.319430 -0.173390
3.671660 0.317526 -0.175349
3.674026 0.319197 -0.147422
3.647751 0.320985 -0.145170
3.668161 0.245590 -0.171262
3.694793 0.244977 -0.172615
3.699543 0.245843 -0.145781
3.670527 0.247261 -0.143335
3.670539 0.317606 -0.174907
3.697171 0.316994 -0.176260
3.701921 0.317859 -0.149427
3.672905 0.319277 -0.146980
3.695646 0.244928 -0.173409
3.723406 0.244879 -0.170435
3.730645 0.245305 -0.147787
3.700395 0.245793 -0.146575
3.696375 0.317042 -0.175468
3.724135 0.316994 -0.172494
3.731375 0.317420 -0.149847
3.701125 0.317908 -0.148634
3.618541 0.252517 -0.139861
3.640360 0.249342 -0.142595
3.641745 0.249434 -0.116080
3.620728 0.252326 -0.114598
3.628604 0.323957 -0.140419
3.650423 0.320782 -0.143153
3.651807 0.320874 -0.116638
3.630790 0.323766 -0.115156
3.643228 0.249055 -0.142416
3.669503 0.247267 -0.144668
3.671499 0.247657 -0.117392
3.644612 0.249147 -0.115901
3.647603 0.321064 -0.143336
3.673878 0.319276 -0.145588
3.675874 0.319666 -0.118313
3.648988 0.321156 -0.116821
3.670139 0.247238 -0.144374
3.699155 0.245821 -0.146820
3.701661 0.246380 -0.119450
3.672135 0.247629 -0.117098
3.673298 0.319301 -0.145887
3.702314 0.317883 -0.148333
3.704820 0.318443 -0.120963
3.675294 0.319692 -0.118611
3.700152 0.245790 -0.146852
3.730402 0.245302 -0.148064
3.733558 0.245748 -0.120763
3.702658 0.246349 -0.119481
3.701377 0.317913 -0.148305
3.731627 0.317424 -0.149518
3.734784 0.317871 -0.122216
3.703883 0.318472 -0.120935
3.620969 0.252299 -0.115586
3.641986 0.249407 -0.117068
3.643377 0.248790 -0.091006
3.621009 0.251664 -0.090065
3.630552 0.323792 -0.114117
3.651569 0.320900 -0.115599
3.652960 0.320284 -0.089537
3.630592 0.323157 -0.088596
3.645166 0.249117 -0.116706
3.672052 0.247627 -0.118198
3.673928 0.247543 -0.090683
3.646557 0.248500 -0.090644
3.648437 0.321187 -0.115962
3.675324 0.319697 -0.117454
3.677199 0.319612 -0.089940
3.649829 0.320570 -0.089901
3.672416 0.247611 -0.117625
3.701943 0.246362 -0.119976
3.703119 0.246651 -0.091236
3.674292 0.247527 -0.090111
3.675017 0.319711 -0.118029
3.704543 0.318462 -0.120380
3.705719 0.318751 -0.091640
3.676892 0.319626 -0.090515
3.702844 0.246346 -0.119535
3.733744 0.245744 -0.120816
3.735203 0.246432 -0.093175
3.704020 0.246635 -0.090794
3.703702 0.318477 -0.120825
3.734602 0.317875 -0.122107
3.736061 0.318563 -0.094466
3.704878 0.318766 -0.092085
3.621543 0.251594 -0.089942
3.643911 0.248720 -0.090883
3.645936 0.248232 -0.063994
3.621216 0.250948 -0.064439
3.630059 0.323226 -0.088667
3.652427 0.320352 -0.089608
3.654453 0.319864 -0.062719
3.629732 0.322580 -0.063163
3.647183 0.248476 -0.090569
3.674554 0.247519 -0.090608
3.676475 0.247408 -0.063137
3.649208 0.247988 -0.063680
3.649206 0.320593 -0.089922
3.676577 0.319635 -0.089961
3.678498 0.319525 -0.062489
3.651231 0.320105 -0.063033
3.674560 0.247517 -0.090293
3.703387 0.246642 -0.091418
3.703652 0.246677 -0.062404
3.676481 0.247407 -0.062821
3.676626 0.319636 -0.090276
3.705453 0.318760 -0.091401
3.705718 0.318795 -0.062387
3.678547 0.319525 -0.062804
3.704714 0.246632 -0.090879
3.735897 0.246429 -0.093259
3.737782 0.247239 -0.066181
3.704979 0.246667 -0.061865
3.704186 0.318770 -0.091945
3.735369 0.318567 -0.094325
3.737254 0.319377 -0.067247
3.704451 0.318805 -0.062931
3.621356 0.250927 -0.064094
3.646077 0.248211 -0.063649
3.647314 0.247722 -0.039105
3.620829 0.250890 -0.038563
3.629593 0.322600 -0.063457
3.654313 0.319884 -0.063013
3.655550 0.319395 -0.038468
3.629065 0.322563 -0.037926
3.649519 0.247984 -0.063956
3.676786 0.247404 -0.063413
3.677367 0.247038 -0.040610
3.650756 0.247495 -0.039412
3.650923 0.320108 -0.062706
3.678190 0.319528 -0.062162
3.678771 0.319161 -0.039360
3.652160 0.319618 -0.038161
3.676418 0.247415 -0.063507
3.703589 0.246686 -0.063089
3.703558 0.246180 -0.042932
3.676999 0.247049 -0.040704
3.678611 0.319516 -0.062070
3.705782 0.318786 -0.061652
3.705751 0.318280 -0.041495
3.679192 0.319149 -0.039267
3.705503 0.246675 -0.062903
3.738307 0.247247 -0.067219
3.733062 0.247020 -0.045365
3.705472 0.246169 -0.042746
3.703925 0.318797 -0.061844
3.736728 0.319369 -0.066160
3.731483 0.319143 -0.044306
3.703893 0.318291 -0.041687
3.584960 0.285186 -0.149064
3.584513 0.304920 -0.145309
3.571098 0.315058 -0.172769
3.571042 0.290322 -0.174992
3.649588 0.290018 -0.180769
3.649140 0.309752 -0.177014
3.635725 0.319889 -0.204475
3.635669 0.295154 -0.206698
3.569234 0.290460 -0.179355
3.569290 0.315195 -0.177132
3.557810 0.327683 -0.205796
3.560551 0.299515 -0.206129
3.637453 0.295035 -0.202390
3.637509 0.319771 -0.200166
3.626028 0.332258 -0.228830
3.628769 0.304091 -0.229164
3.583909 0.304676 -0.146646
3.583474 0.324416 -0.142890
3.570326 0.338723 -0.171164
3.570494 0.314814 -0.174107
3.649743 0.310040 -0.175671
3.649308 0.329779 -0.171914
3.636161 0.344087 -0.200188
3.636328 0.320177 -0.203131
3.570101 0.313622 -0.175324
3.569933 0.337531 -0.172381
3.555639 0.353807 -0.199743
3.558620 0.326110 -0.203988
3.636695 0.321396 -0.201969
3.636528 0.345305 -0.199027
3.622234 0.361581 -0.226389
3.625215 0.333884 -0.230633
3.583204 0.323600 -0.143702
3.582707 0.343332 -0.139928
3.569513 0.364360 -0.166402
3.570056 0.337908 -0.171976
3.649578 0.330640 -0.171094
3.649080 0.350372 -0.167320
3.635886 0.371400 -0.193794
3.636430 0.344947 -0.199368
3.570934 0.336061 -0.170553
3.570391 0.362514 -0.164979
3.553557 0.379851 -0.192039
3.556640 0.352337 -0.197915
3.635523 0.346828 -0.200845
3.634980 0.373281 -0.195272
3.618146 0.390618 -0.222332
3.621229 0.363104 -0.228208
3.732328 0.380238 -0.365030
3.706964 0.371959 -0.370998
3.709141 0.401331 -0.391679
3.734508 0.407830 -0.385497
3.707483 0.421139 -0.311038
3.682119 0.412861 -0.317006
3.684297 0.442233 -0.337687
3.709664 0.448731 -0.331505
3.697190 0.374824 -0.375391
3.671129 0.367860 -0.378128
3.674587 0.398949 -0.390828
3.699368 0.404197 -0.396072
3.691842 0.409982 -0.312617
3.665780 0.403018 -0.315353
3.669239 0.434106 -0.328054
3.694020 0.439354 -0.333298
3.663160 0.376822 -0.381370
3.636476 0.371005 -0.380308
3.641923 0.403164 -0.384689
3.666619 0.407911 -0.394070
3.673697 0.394044 -0.312104
3.647013 0.388227 -0.311043
3.652460 0.420387 -0.315424
3.677156 0.425133 -0.324805
3.640063 0.375460 -0.381468
3.613418 0.369477 -0.379942
3.619304 0.402016 -0.383588
3.645510 0.407619 -0.385849
3.643373 0.383761 -0.309876
3.616728 0.377779 -0.308350
3.622613 0.410317 -0.311996
3.648820 0.415921 -0.314257
3.630415 0.401972 -0.382346
3.624530 0.369434 -0.378701
3.600675 0.379438 -0.387771
3.612410 0.403169 -0.386121
3.611454 0.410361 -0.313242
3.605569 0.377822 -0.309596
3.581714 0.387826 -0.318667
3.593449 0.411557 -0.317016
3.731851 0.383279 -0.367281
3.714162 0.363697 -0.363397
3.695357 0.359289 -0.367936
3.706487 0.375001 -0.373249
3.707943 0.418051 -0.308761
3.690253 0.398469 -0.304877
3.671449 0.394061 -0.309416
3.682579 0.409773 -0.314729
3.701675 0.375851 -0.375246
3.690545 0.360139 -0.369933
3.673564 0.356857 -0.371644
3.675614 0.368887 -0.377982
3.687347 0.408911 -0.312740
3.676217 0.393199 -0.307426
3.659236 0.389917 -0.309137
3.661286 0.401947 -0.315476
3.670991 0.368568 -0.378526
3.668942 0.356538 -0.372188
3.651398 0.353020 -0.371870
3.644307 0.362750 -0.377465
3.665864 0.402256 -0.314933
3.663815 0.390226 -0.308595
3.646271 0.386708 -0.308276
3.639180 0.396439 -0.313872
3.643517 0.361763 -0.376977
3.650608 0.352033 -0.371382
3.631045 0.347232 -0.369420
3.616871 0.355780 -0.375451
3.639925 0.397416 -0.314357
3.647016 0.387686 -0.308762
3.627452 0.382886 -0.306800
3.613279 0.391434 -0.312831
3.730913 0.371071 -0.361120
3.706643 0.347628 -0.358705
3.695964 0.347849 -0.361497
3.712128 0.366651 -0.365674
3.711074 0.399905 -0.298031
3.686804 0.376463 -0.295615
3.676125 0.376683 -0.298408
3.692290 0.395485 -0.302584
3.711996 0.364418 -0.364597
3.695831 0.345616 -0.360421
3.685136 0.345887 -0.363112
3.693191 0.360009 -0.369136
3.692393 0.397714 -0.303668
3.676228 0.378912 -0.299491
3.665533 0.379184 -0.302183
3.673588 0.393306 -0.308206
3.689590 0.359550 -0.369820
3.681535 0.345428 -0.363796
3.670661 0.344298 -0.365220
3.672609 0.356268 -0.371531
3.677161 0.393761 -0.307527
3.669106 0.379639 -0.301504
3.658233 0.378509 -0.302927
3.660180 0.390479 -0.309238
3.669674 0.356838 -0.372278
3.667727 0.344867 -0.365967
3.656994 0.343133 -0.366482
3.652131 0.353320 -0.371959
3.663086 0.389905 -0.308493
3.661139 0.377935 -0.302182
3.650407 0.376200 -0.302698
3.645543 0.386387 -0.308175
3.649126 0.351112 -0.370890
3.653989 0.340926 -0.365413
3.643726 0.337796 -0.362849
3.629562 0.346312 -0.368928
3.648519 0.388587 -0.309242
3.653382 0.378401 -0.303765
3.643119 0.375271 -0.301200
3.628955 0.383787 -0.307280
3.598484 0.336759 -0.332253
3.592796 0.338609 -0.300739
3.566136 0.345258 -0.309578
3.568532 0.345993 -0.340489
3.617625 0.406310 -0.331016
3.611938 0.408160 -0.299503
3.585277 0.414809 -0.308341
3.587674 0.415544 -0.339252
3.592787 0.338670 -0.302221
3.585098 0.337641 -0.271242
3.566226 0.344682 -0.280809
3.566127 0.345319 -0.311060
3.611939 0.408098 -0.297959
3.604251 0.407070 -0.266979
3.585378 0.414111 -0.276547
3.585279 0.414748 -0.306798
3.578514 0.340382 -0.264858
3.573566 0.345731 -0.233958
3.562071 0.351197 -0.245877
3.559642 0.347423 -0.274425
3.610829 0.404333 -0.273303
3.605881 0.409682 -0.242403
3.594386 0.415148 -0.254322
3.591957 0.411374 -0.282870
3.564677 0.352378 -0.232473
3.560795 0.359921 -0.201540
3.555197 0.366400 -0.211725
3.553182 0.357845 -0.244391
3.614768 0.403047 -0.243827
3.610885 0.410590 -0.212894
3.605287 0.417068 -0.223079
3.603273 0.408513 -0.255745
3.573937 0.344945 -0.340566
3.571541 0.344210 -0.309656
3.546677 0.347637 -0.316843
3.541834 0.348347 -0.346436
3.582212 0.416604 -0.339190
3.579816 0.415868 -0.308279
3.554952 0.419296 -0.315466
3.550110 0.420005 -0.345059
3.569855 0.344438 -0.308918
3.569954 0.343801 -0.278667
3.551437 0.347464 -0.286803
3.544992 0.347866 -0.316105
3.581506 0.415639 -0.308957
3.581605 0.415002 -0.278706
3.563088 0.418665 -0.286842
3.556642 0.419066 -0.316144
3.561932 0.347073 -0.270648
3.564361 0.350847 -0.242100
3.556366 0.354709 -0.249449
3.543415 0.350735 -0.278784
3.589638 0.411734 -0.286665
3.592067 0.415509 -0.258117
3.584072 0.419371 -0.265465
3.571121 0.415397 -0.294801
3.549280 0.363860 -0.240572
3.551295 0.372415 -0.207906
3.545879 0.380664 -0.216764
3.541285 0.367722 -0.247920
3.607159 0.402510 -0.259584
3.609174 0.411065 -0.226918
3.603758 0.419314 -0.235776
3.599164 0.406372 -0.266932
3.537936 0.349072 -0.343620
3.542778 0.348362 -0.314026
3.521167 0.354381 -0.319204
3.505926 0.354688 -0.348263
3.553953 0.419290 -0.347887
3.558796 0.418580 -0.318294
3.537185 0.424599 -0.323471
3.521944 0.424906 -0.352531
3.537531 0.350243 -0.311523
3.543977 0.349841 -0.282221
3.531210 0.356076 -0.287657
3.515920 0.356261 -0.316700
3.564064 0.416699 -0.320739
3.570510 0.416297 -0.291436
3.557743 0.422532 -0.296873
3.542453 0.422717 -0.325916
3.536417 0.357015 -0.273082
3.549368 0.360989 -0.243746
3.540258 0.365762 -0.250635
3.523650 0.363250 -0.278518
3.578095 0.409126 -0.300518
3.591046 0.413100 -0.271182
3.581936 0.417872 -0.278071
3.565328 0.415361 -0.305954
3.541160 0.370852 -0.243489
3.545754 0.383794 -0.212333
3.540262 0.390689 -0.222314
3.532050 0.375625 -0.250378
3.599276 0.403254 -0.271380
3.603870 0.416196 -0.240224
3.598378 0.423091 -0.250205
3.590166 0.408027 -0.278269
3.603815 0.377810 -0.386507
3.577361 0.382526 -0.396038
3.584415 0.395914 -0.397047
3.615550 0.401540 -0.384856
3.578525 0.389460 -0.319949
3.552071 0.394177 -0.329480
3.559125 0.407565 -0.330489
3.590260 0.413191 -0.318298
3.583963 0.369482 -0.386728
3.561922 0.370337 -0.401274
3.565992 0.380405 -0.409792
3.591017 0.382870 -0.387737
3.545416 0.407220 -0.338820
3.523375 0.408075 -0.353366
3.527445 0.418143 -0.361884
3.552470 0.420608 -0.339829
3.615840 0.379588 -0.370604
3.584705 0.373962 -0.382795
3.586218 0.380028 -0.391381
3.615560 0.384697 -0.377503
3.589979 0.435167 -0.332558
3.558844 0.429541 -0.344749
3.560357 0.435606 -0.353335
3.589699 0.440275 -0.339457
3.587821 0.372152 -0.376715
3.562796 0.369687 -0.398770
3.565614 0.373181 -0.406687
3.589334 0.378217 -0.385301
3.555674 0.431343 -0.350863
3.530648 0.428877 -0.372919
3.533466 0.432372 -0.380835
3.557187 0.437408 -0.359449
3.506251 0.363134 -0.327359
3.512042 0.381310 -0.302610
3.498176 0.384065 -0.305812
3.496538 0.365135 -0.326488
3.521571 0.416487 -0.373446
3.527362 0.434663 -0.348697
3.513495 0.437418 -0.351899
3.511858 0.418488 -0.372576
3.530441 0.385317 -0.246479
3.523721 0.398764 -0.251598
3.514766 0.400466 -0.267837
3.513833 0.382806 -0.274363
3.591739 0.398338 -0.282232
3.585020 0.411785 -0.287351
3.576064 0.413487 -0.303590
3.575131 0.395827 -0.310116
3.513720 0.382257 -0.274770
3.514652 0.399917 -0.268244
3.502064 0.400631 -0.287844
3.498430 0.382442 -0.303813
3.575218 0.396376 -0.309755
3.576150 0.414036 -0.303229
3.563562 0.414750 -0.322829
3.559928 0.396561 -0.338798
3.499387 0.378232 -0.304372
3.503020 0.396421 -0.288403
3.489937 0.396715 -0.308683
3.484146 0.378539 -0.333432
3.558943 0.400772 -0.338287
3.562577 0.418961 -0.322319
3.549493 0.419255 -0.342598
3.543702 0.401079 -0.367347
3.522656 0.402067 -0.252584
3.524039 0.410704 -0.248086
3.513531 0.421860 -0.265943
3.513700 0.403770 -0.268823
3.586083 0.408510 -0.286360
3.587466 0.417147 -0.281862
3.576958 0.428304 -0.299719
3.577127 0.410213 -0.302600
3.514707 0.404616 -0.266930
3.514538 0.422707 -0.264050
3.504237 0.430225 -0.280783
3.502118 0.405330 -0.286530
3.576099 0.409377 -0.304528
3.575930 0.427468 -0.301648
3.565630 0.434986 -0.318381
3.563511 0.410091 -0.324128
3.502278 0.406294 -0.286175
3.504397 0.431189 -0.280429
3.493027 0.437547 -0.298591
3.489194 0.406589 -0.306455
3.563327 0.409134 -0.324519
3.565446 0.434029 -0.318772
3.554076 0.440386 -0.336934
3.550244 0.409428 -0.344799
3.523516 0.409849 -0.249305
3.525834 0.423442 -0.240128
3.513571 0.441412 -0.261529
3.513008 0.421005 -0.267162
3.587991 0.418032 -0.280632
3.590309 0.431626 -0.271455
3.578045 0.449595 -0.292855
3.577483 0.429189 -0.298489
3.514167 0.420496 -0.265099
3.514730 0.440902 -0.259465
3.499499 0.453940 -0.282080
3.503867 0.428014 -0.281832
3.576299 0.429723 -0.300592
3.576862 0.450130 -0.294958
3.561631 0.463168 -0.317573
3.565999 0.437242 -0.317325
3.503008 0.429024 -0.283172
3.498640 0.454950 -0.283421
3.493445 0.463427 -0.294186
3.491637 0.435381 -0.301335
3.566837 0.436249 -0.316018
3.562470 0.462176 -0.316267
3.557275 0.470653 -0.327032
3.555467 0.442607 -0.334181
3.600248 0.338560 -0.344022
3.570297 0.347794 -0.352258
3.583372 0.350642 -0.365578
3.607226 0.340637 -0.356507
3.615875 0.404510 -0.319291
3.585924 0.413745 -0.327527
3.598999 0.416592 -0.340846
3.622853 0.406588 -0.331776
3.575976 0.346239 -0.350100
3.543874 0.349641 -0.355970
3.562597 0.353803 -0.372951
3.589052 0.349086 -0.363420
3.580188 0.415314 -0.329701
3.548085 0.418716 -0.335571
3.566809 0.422878 -0.352552
3.593263 0.418162 -0.343021
3.543614 0.348594 -0.351196
3.511605 0.354210 -0.355840
3.540297 0.353611 -0.382724
3.562338 0.352756 -0.368178
3.548288 0.419770 -0.340362
3.516279 0.425386 -0.345006
3.544971 0.424787 -0.371889
3.567012 0.423932 -0.357343
3.512107 0.353788 -0.351515
3.507567 0.355001 -0.382921
3.529602 0.354219 -0.395505
3.540799 0.353189 -0.378399
3.515742 0.425812 -0.349364
3.511201 0.427025 -0.380770
3.533236 0.426243 -0.393354
3.544434 0.425213 -0.376248
3.507462 0.355006 -0.382885
3.502882 0.356169 -0.414296
3.518327 0.355265 -0.412573
3.529498 0.354224 -0.395470
3.511290 0.427023 -0.380854
3.506709 0.428187 -0.412265
3.522155 0.427283 -0.410541
3.533325 0.426241 -0.393438
3.499379 0.356051 -0.349458
3.495158 0.355837 -0.382095
3.504551 0.355263 -0.381734
3.509092 0.354050 -0.350328
3.509009 0.427553 -0.349661
3.504788 0.427339 -0.382298
3.514182 0.426765 -0.381937
3.518722 0.425552 -0.350531
3.500860 0.355529 -0.382776
3.496682 0.355121 -0.415416
3.505673 0.356119 -0.413825
3.510254 0.354956 -0.382414
3.499077 0.427647 -0.381682
3.494898 0.427238 -0.414323
3.503890 0.428237 -0.412732
3.508470 0.427073 -0.381320
3.627706 0.310750 -0.350137
3.618970 0.310694 -0.347701
3.621951 0.329855 -0.358911
3.633403 0.325615 -0.357101
3.636325 0.342776 -0.286063
3.627589 0.342719 -0.283628
3.630570 0.361880 -0.294838
3.642023 0.357640 -0.293027
3.618415 0.308018 -0.346134
3.609679 0.307968 -0.343694
3.609946 0.331423 -0.359142
3.621396 0.327180 -0.357345
3.628123 0.345399 -0.285194
3.619387 0.345349 -0.282753
3.619655 0.368804 -0.298202
3.631104 0.364560 -0.296404
3.638906 0.324435 -0.356755
3.627453 0.328676 -0.358566
3.630437 0.347831 -0.369781
3.644602 0.339314 -0.363701
3.636529 0.358853 -0.293391
3.625076 0.363094 -0.295202
3.628060 0.382248 -0.306416
3.642225 0.373732 -0.300336
3.626051 0.326768 -0.357475
3.614601 0.331012 -0.359273
3.614862 0.354471 -0.374721
3.629035 0.345923 -0.368690
3.626453 0.365014 -0.296300
3.615003 0.369258 -0.298098
3.615264 0.392717 -0.313546
3.629437 0.384169 -0.307515
3.582364 0.274294 -0.280792
3.588097 0.282312 -0.307688
3.595575 0.277939 -0.310058
3.586987 0.268333 -0.280551
3.628517 0.322802 -0.253918
3.634250 0.330820 -0.280814
3.641728 0.326446 -0.283183
3.633140 0.316840 -0.253676
3.597851 0.286256 -0.320931
3.601202 0.306312 -0.339864
3.609938 0.306361 -0.342305
3.605329 0.281883 -0.323301
3.624507 0.326907 -0.267618
3.627858 0.346962 -0.286551
3.636594 0.347012 -0.288992
3.631985 0.322534 -0.269988
3.587499 0.268999 -0.282469
3.596086 0.278605 -0.311976
3.603706 0.274303 -0.314440
3.592119 0.263036 -0.282231
3.632641 0.316163 -0.251760
3.641229 0.325770 -0.281268
3.648849 0.321467 -0.283732
3.637261 0.310201 -0.251523
3.605514 0.284445 -0.325159
3.610123 0.308924 -0.344162
3.618859 0.308981 -0.346598
3.613134 0.280143 -0.327623
3.631817 0.319967 -0.268135
3.636426 0.344445 -0.287139
3.645162 0.344502 -0.289574
3.639437 0.315664 -0.270599
3.586101 0.361988 -0.362250
3.585840 0.338529 -0.346801
3.582347 0.337493 -0.340559
3.579123 0.359911 -0.349765
3.644007 0.385204 -0.326012
3.643746 0.361745 -0.310563
3.640254 0.360708 -0.304321
3.637029 0.383127 -0.313527
3.585845 0.338510 -0.346798
3.585577 0.315056 -0.331349
3.582353 0.337474 -0.340555
3.643744 0.361726 -0.310547
3.643476 0.338271 -0.295098
3.640251 0.360689 -0.304305
3.570599 0.274916 -0.217986
3.574482 0.272447 -0.243137
3.582075 0.264960 -0.245676
3.582023 0.265453 -0.222363
3.618727 0.328662 -0.217364
3.622610 0.326192 -0.242516
3.630203 0.318706 -0.245055
3.630151 0.319199 -0.221742
3.582218 0.265323 -0.220491
3.582270 0.264830 -0.243804
3.588909 0.257997 -0.244778
3.593649 0.255862 -0.224866
3.629975 0.319312 -0.223620
3.630027 0.318819 -0.246933
3.636667 0.311985 -0.247906
3.641407 0.309850 -0.227995
3.571727 0.276023 -0.249111
3.578612 0.275248 -0.273590
3.583236 0.269286 -0.273348
3.579321 0.268536 -0.251650
3.625371 0.322615 -0.236589
3.632256 0.321840 -0.261069
3.636880 0.315878 -0.260827
3.632965 0.315128 -0.239129
3.579188 0.268392 -0.250420
3.583103 0.269142 -0.272118
3.587723 0.263179 -0.271881
3.585828 0.261558 -0.251394
3.633109 0.315259 -0.240360
3.637024 0.316009 -0.262058
3.641644 0.310046 -0.261821
3.639749 0.308425 -0.241333
3.606386 0.253213 -0.163950
3.592467 0.258349 -0.189879
3.603941 0.252955 -0.200377
3.617458 0.250660 -0.181746
3.628174 0.321965 -0.165900
3.614255 0.327101 -0.191829
3.625729 0.321706 -0.202327
3.639246 0.319411 -0.183696
3.621361 0.249890 -0.178568
3.607845 0.252185 -0.197199
3.619304 0.246833 -0.207803
3.632464 0.247379 -0.196361
3.635365 0.320173 -0.186902
3.621848 0.322468 -0.205533
3.633308 0.317117 -0.216138
3.646467 0.317662 -0.204695
3.583097 0.262911 -0.192269
3.574413 0.271967 -0.219043
3.585838 0.262503 -0.223420
3.594571 0.257516 -0.202767
3.623603 0.322550 -0.189485
3.614919 0.331606 -0.216259
3.626343 0.322143 -0.220636
3.635077 0.317156 -0.199983
3.597055 0.256155 -0.197726
3.588321 0.261142 -0.218379
3.599753 0.251680 -0.222754
3.608514 0.250803 -0.208330
3.632616 0.318502 -0.205039
3.623883 0.323489 -0.225693
3.635314 0.314027 -0.230068
3.644076 0.313150 -0.215644
3.756659 0.517572 -0.277885
3.755056 0.490891 -0.277005
3.768237 0.497450 -0.279980
3.769016 0.525528 -0.278749
3.745411 0.518518 -0.349144
3.743807 0.491838 -0.348264
3.756988 0.498396 -0.351239
3.757767 0.526475 -0.350008
3.762160 0.487412 -0.279112
3.760562 0.460730 -0.280367
3.774558 0.465921 -0.286336
3.775341 0.493971 -0.282087
3.736700 0.495262 -0.346160
3.735102 0.468580 -0.347415
3.749098 0.473771 -0.353384
3.749881 0.501821 -0.349135
3.764922 0.444343 -0.289454
3.766142 0.424858 -0.306973
3.778369 0.432177 -0.308953
3.778917 0.449534 -0.295423
3.730742 0.484922 -0.338346
3.731962 0.465437 -0.355864
3.744189 0.472756 -0.357844
3.744737 0.490113 -0.344315
3.770909 0.418437 -0.320907
3.769304 0.408188 -0.338718
3.778583 0.416693 -0.341263
3.783136 0.425756 -0.322887
3.727192 0.471830 -0.341963
3.725587 0.461581 -0.359774
3.734866 0.470086 -0.362319
3.739419 0.479149 -0.343943
3.741416 0.260092 -0.218432
3.734805 0.257175 -0.219306
3.737784 0.259334 -0.242561
3.743698 0.262950 -0.240019
3.707415 0.323650 -0.215312
3.700805 0.320733 -0.216185
3.703784 0.322892 -0.239440
3.709698 0.326507 -0.236899
3.747444 0.265238 -0.239580
3.741530 0.261623 -0.242121
3.744342 0.264016 -0.265341
3.749726 0.268096 -0.261167
3.705958 0.324224 -0.237383
3.700044 0.320609 -0.239925
3.702856 0.323002 -0.263145
3.708240 0.327082 -0.258970
3.734663 0.257062 -0.217842
3.728114 0.254116 -0.218723
3.731697 0.255570 -0.243627
3.737642 0.259221 -0.241097
3.700934 0.320840 -0.217653
3.694386 0.317894 -0.218534
3.697968 0.319348 -0.243437
3.703914 0.322999 -0.240908
3.741547 0.261614 -0.240854
3.735601 0.257963 -0.243384
3.739165 0.259777 -0.268291
3.744359 0.264008 -0.264074
3.700016 0.320609 -0.241199
3.694070 0.316958 -0.243729
3.697634 0.318772 -0.268636
3.702828 0.323002 -0.264419
3.753545 0.277336 -0.277045
3.748161 0.273256 -0.281220
3.753067 0.298749 -0.303333
3.758911 0.299368 -0.296863
3.704428 0.317869 -0.243135
3.699045 0.313789 -0.247310
3.703951 0.339283 -0.269423
3.709794 0.339902 -0.262952
3.748549 0.274392 -0.281959
3.743355 0.270161 -0.286175
3.747454 0.299368 -0.310512
3.753454 0.299886 -0.304072
3.698646 0.312648 -0.246582
3.693452 0.308417 -0.250799
3.697552 0.337624 -0.275135
3.703552 0.338142 -0.268695
3.781015 0.440719 -0.234288
3.781635 0.426545 -0.214097
3.780089 0.411159 -0.221186
3.779568 0.425674 -0.245588
3.709142 0.445011 -0.229689
3.709762 0.430837 -0.209497
3.708216 0.415451 -0.216587
3.707695 0.429966 -0.240989
3.779417 0.423846 -0.245521
3.779937 0.409331 -0.221119
3.777179 0.393962 -0.228320
3.777662 0.408807 -0.256815
3.707843 0.431764 -0.241075
3.708363 0.417249 -0.216673
3.705605 0.401880 -0.223875
3.706088 0.416725 -0.252369
3.781422 0.428347 -0.216793
3.783699 0.414286 -0.196754
3.783516 0.398546 -0.199929
3.779876 0.412961 -0.223882
3.709979 0.429007 -0.206757
3.712255 0.414946 -0.186718
3.712072 0.399206 -0.189893
3.708432 0.413621 -0.213846
3.779349 0.409842 -0.225993
3.782989 0.395428 -0.202040
3.780685 0.379789 -0.204904
3.776590 0.394473 -0.233195
3.708956 0.416708 -0.211746
3.712596 0.402294 -0.187793
3.710292 0.386655 -0.190657
3.706197 0.401339 -0.218948
3.793202 0.281752 -0.080574
3.777640 0.268536 -0.078445
3.772224 0.265558 -0.101986
3.786935 0.276638 -0.103811
3.748172 0.338102 -0.079076
3.732610 0.324886 -0.076946
3.727194 0.321908 -0.100487
3.741904 0.332988 -0.102312
3.786191 0.276050 -0.103072
3.771481 0.264970 -0.101247
3.766155 0.260869 -0.124260
3.776451 0.268724 -0.124529
3.742635 0.333566 -0.103096
3.727924 0.322486 -0.101271
3.722599 0.318385 -0.124284
3.732895 0.326241 -0.124552
3.776570 0.268912 -0.126914
3.766274 0.261056 -0.126645
3.759873 0.257970 -0.149526
3.766692 0.263186 -0.148624
3.732761 0.326043 -0.122212
3.722465 0.318187 -0.121943
3.716064 0.315101 -0.144824
3.722883 0.320317 -0.143923
3.767718 0.265181 -0.154619
3.760899 0.259965 -0.155521
3.752012 0.259068 -0.178394
3.757504 0.263776 -0.177041
3.721840 0.318316 -0.137973
3.715020 0.313100 -0.138874
3.706133 0.312203 -0.161748
3.711626 0.316911 -0.160394
3.757240 0.263088 -0.175371
3.751747 0.258380 -0.176724
3.745791 0.259648 -0.200398
3.751340 0.263496 -0.199152
3.711874 0.317598 -0.162110
3.706382 0.312891 -0.163464
3.700426 0.314158 -0.187137
3.705974 0.318007 -0.185892
3.746718 0.260033 -0.198132
3.741170 0.256184 -0.199377
3.735872 0.258232 -0.223308
3.742483 0.261149 -0.222435
3.710585 0.321473 -0.186960
3.705037 0.317624 -0.188206
3.699739 0.319672 -0.212136
3.706350 0.322589 -0.211263
3.776898 0.267965 -0.078683
3.759330 0.254581 -0.067713
3.757445 0.253771 -0.094791
3.771482 0.264987 -0.102223
3.733321 0.325432 -0.076698
3.715754 0.312048 -0.065728
3.713869 0.311238 -0.092806
3.727906 0.322454 -0.100238
3.771901 0.265295 -0.101543
3.757864 0.254078 -0.094111
3.756406 0.253390 -0.121752
3.766576 0.261194 -0.124556
3.727479 0.322143 -0.100969
3.713442 0.310926 -0.093537
3.711984 0.310238 -0.121178
3.722154 0.318041 -0.123981
3.766029 0.260851 -0.126396
3.755859 0.253048 -0.123592
3.752703 0.252602 -0.150894
3.759629 0.257765 -0.149277
3.722692 0.318380 -0.122192
3.712522 0.310576 -0.119388
3.709365 0.310130 -0.146690
3.716292 0.315293 -0.145073
3.761221 0.259992 -0.154670
3.754295 0.254829 -0.156288
3.747055 0.254403 -0.178935
3.752333 0.259095 -0.177544
3.714687 0.313063 -0.139727
3.707760 0.307900 -0.141344
3.700521 0.307474 -0.163991
3.705799 0.312166 -0.162601
3.751597 0.258599 -0.178011
3.746319 0.253908 -0.179401
3.739924 0.256166 -0.202937
3.745641 0.259867 -0.201684
3.706521 0.312663 -0.162181
3.701242 0.307971 -0.163571
3.694848 0.310229 -0.187107
3.700565 0.313930 -0.185854
3.740908 0.256416 -0.201192
3.735191 0.252714 -0.202446
3.729062 0.255517 -0.226004
3.735611 0.258464 -0.225123
3.705286 0.317386 -0.186393
3.699569 0.313684 -0.187646
3.693440 0.316488 -0.211204
3.699989 0.319434 -0.210323
3.809990 0.376281 -0.083869
3.808716 0.359205 -0.084991
3.803647 0.353272 -0.106545
3.805297 0.375075 -0.104607
3.739654 0.380347 -0.068322
3.738380 0.363270 -0.069445
3.733312 0.357338 -0.090999
3.734962 0.379140 -0.089060
3.808739 0.359180 -0.084877
3.807469 0.342102 -0.086005
3.802309 0.335053 -0.108004
3.803671 0.353247 -0.106431
3.738354 0.363258 -0.069563
3.737083 0.346181 -0.070691
3.731924 0.339132 -0.092691
3.733285 0.357325 -0.091117
3.807439 0.342750 -0.086283
3.806637 0.325662 -0.087225
3.801669 0.323907 -0.108593
3.802279 0.335701 -0.108282
3.737112 0.345501 -0.070416
3.736310 0.328413 -0.071358
3.731341 0.326658 -0.092725
3.731952 0.338452 -0.092415
3.806472 0.325025 -0.087802
3.805694 0.307946 -0.088335
3.799427 0.302832 -0.111571
3.801503 0.323269 -0.109169
3.736474 0.329017 -0.070783
3.735696 0.311939 -0.071316
3.729429 0.306825 -0.094552
3.731505 0.327262 -0.092151
3.805281 0.374838 -0.104615
3.803631 0.353035 -0.106554
3.798785 0.352621 -0.127552
3.801005 0.376594 -0.125337
3.734969 0.379374 -0.089094
3.733319 0.357571 -0.091033
3.728472 0.357156 -0.112031
3.730692 0.381130 -0.109816
3.803520 0.353121 -0.107062
3.802159 0.334927 -0.108636
3.797204 0.336673 -0.129536
3.798674 0.352706 -0.128060
3.733426 0.357446 -0.090528
3.732064 0.339252 -0.092102
3.727110 0.340998 -0.113002
3.728580 0.357031 -0.111526
3.802015 0.334840 -0.109204
3.801404 0.323046 -0.109514
3.795678 0.322551 -0.131132
3.797060 0.336586 -0.130104
3.732206 0.339309 -0.091537
3.731595 0.327515 -0.091847
3.725870 0.327020 -0.113465
3.727251 0.341055 -0.112437
3.800422 0.320557 -0.112008
3.798346 0.300119 -0.114409
3.788607 0.292794 -0.135866
3.794696 0.320062 -0.133626
3.732572 0.329967 -0.089356
3.730496 0.309530 -0.091758
3.720756 0.302205 -0.113214
3.726846 0.329472 -0.110974
3.800683 0.377290 -0.126819
3.798463 0.353316 -0.129033
3.793687 0.356302 -0.149668
3.795108 0.381901 -0.146592
3.731004 0.380440 -0.108376
3.728784 0.356466 -0.110590
3.724007 0.359451 -0.131225
3.725429 0.385051 -0.128148
3.798422 0.351846 -0.128822
3.796952 0.335813 -0.130298
3.791595 0.339409 -0.151020
3.793645 0.354832 -0.149457
3.728822 0.357895 -0.110806
3.727352 0.341861 -0.112282
3.721995 0.345457 -0.133003
3.724045 0.360880 -0.131441
3.796525 0.335086 -0.131575
3.795143 0.321051 -0.132603
3.788162 0.320152 -0.154104
3.791168 0.338682 -0.152296
3.727775 0.342557 -0.111008
3.726393 0.328522 -0.112037
3.719412 0.327623 -0.133538
3.722418 0.346153 -0.131730
3.794008 0.317253 -0.134141
3.787919 0.289986 -0.136380
3.778041 0.284260 -0.158091
3.787028 0.316355 -0.155642
3.727518 0.332273 -0.110503
3.721428 0.305006 -0.112743
3.711551 0.299279 -0.134453
3.720537 0.331374 -0.132004
3.795192 0.383331 -0.146404
3.793771 0.357731 -0.149481
3.789163 0.364201 -0.169447
3.789762 0.391283 -0.165577
3.725334 0.383632 -0.128376
3.723912 0.358032 -0.131453
3.719305 0.364502 -0.151419
3.719903 0.391584 -0.147549
3.792878 0.352756 -0.151271
3.790828 0.337333 -0.152834
3.784187 0.341394 -0.173287
3.788270 0.359225 -0.171237
3.724802 0.362965 -0.129668
3.722751 0.347542 -0.131230
3.716111 0.351603 -0.151683
3.720194 0.369434 -0.149634
3.789577 0.336344 -0.155786
3.786572 0.317814 -0.157594
3.776304 0.316906 -0.178851
3.782937 0.340405 -0.176239
3.723994 0.348493 -0.128282
3.720988 0.329963 -0.130090
3.710720 0.329055 -0.151347
3.717354 0.352554 -0.148735
3.785869 0.316345 -0.158497
3.776882 0.284250 -0.160946
3.766668 0.282844 -0.183368
3.775600 0.315436 -0.179754
3.721678 0.331380 -0.129192
3.712691 0.299285 -0.131642
3.702477 0.297879 -0.154063
3.711409 0.330471 -0.150449
3.790064 0.391480 -0.164311
3.789466 0.364398 -0.168181
3.785104 0.373174 -0.187014
3.786382 0.402462 -0.182052
3.719592 0.391404 -0.148853
3.718994 0.364322 -0.152723
3.714632 0.373098 -0.171556
3.715910 0.402386 -0.166594
3.786368 0.355841 -0.174457
3.782285 0.338009 -0.176506
3.773510 0.341819 -0.195467
3.782006 0.364617 -0.193290
3.722084 0.372831 -0.146454
3.718001 0.354999 -0.148503
3.709226 0.358809 -0.167464
3.717722 0.381607 -0.165287
3.781169 0.338887 -0.179259
3.774535 0.315387 -0.181871
3.763313 0.315280 -0.201633
3.772393 0.342696 -0.198220
3.719104 0.354076 -0.145755
3.712470 0.330577 -0.148367
3.701248 0.330470 -0.168130
3.710328 0.357886 -0.164716
3.776831 0.318772 -0.178260
3.767899 0.286180 -0.181874
3.761998 0.286589 -0.205656
3.765609 0.318665 -0.198023
3.710160 0.327134 -0.151986
3.701228 0.294543 -0.155600
3.695327 0.294951 -0.179381
3.698938 0.327027 -0.171749
3.779730 0.361258 -0.195686
3.771233 0.338460 -0.197864
3.760674 0.341491 -0.216127
3.775359 0.371328 -0.214140
3.719985 0.384979 -0.162927
3.711488 0.362181 -0.165105
3.700929 0.365212 -0.183368
3.715614 0.395049 -0.181381
3.772296 0.343402 -0.198699
3.763216 0.315986 -0.202112
3.753058 0.316143 -0.222373
3.761736 0.346433 -0.216962
3.710406 0.357184 -0.164276
3.701326 0.329767 -0.167689
3.691168 0.329924 -0.187950
3.699846 0.360214 -0.182539
3.766523 0.325499 -0.195896
3.762912 0.293424 -0.203529
3.758677 0.294540 -0.227832
3.756365 0.325656 -0.216157
3.698009 0.320193 -0.173920
3.694398 0.288117 -0.181552
3.690163 0.289234 -0.205855
3.687851 0.320350 -0.194180
3.713352 0.365016 -0.364452
3.731041 0.384599 -0.368336
3.732136 0.369436 -0.359899
3.691092 0.397152 -0.303813
3.708781 0.416735 -0.307697
3.709876 0.401572 -0.299260
3.734032 0.367420 -0.357945
3.732938 0.382582 -0.366382
3.758931 0.398327 -0.366243
3.757489 0.379166 -0.352945
3.708017 0.403610 -0.301211
3.706922 0.418773 -0.309648
3.732916 0.434518 -0.309509
3.731474 0.415357 -0.296211
3.733457 0.380947 -0.365015
3.735637 0.408539 -0.385483
3.760952 0.415110 -0.376237
3.759450 0.396692 -0.364877
3.706405 0.420448 -0.311042
3.708585 0.448041 -0.331509
3.733900 0.454611 -0.322263
3.732398 0.436193 -0.310903
3.565355 0.366778 -0.394128
3.554157 0.367807 -0.411235
3.558451 0.375718 -0.415413
3.569424 0.376846 -0.402646
3.519908 0.411633 -0.360545
3.508711 0.412663 -0.377651
3.513004 0.420574 -0.381829
3.523977 0.421701 -0.369063
3.555294 0.369772 -0.412143
3.544124 0.370814 -0.429246
3.548581 0.376578 -0.429079
3.559587 0.377683 -0.416321
3.507552 0.410698 -0.376773
3.496382 0.411740 -0.393876
3.500839 0.417504 -0.393708
3.511845 0.418609 -0.380951
3.560276 0.366724 -0.393431
3.549303 0.365597 -0.406197
3.553187 0.368626 -0.414321
3.563094 0.370218 -0.401347
3.533133 0.431835 -0.378293
3.522160 0.430707 -0.391059
3.526044 0.433737 -0.399183
3.535951 0.435329 -0.386209
3.546805 0.364244 -0.404008
3.535798 0.363139 -0.416766
3.540801 0.365620 -0.425101
3.550689 0.367273 -0.412132
3.524637 0.432057 -0.393273
3.513630 0.430952 -0.406031
3.518633 0.433434 -0.414366
3.528521 0.435087 -0.401397
3.523062 0.407810 -0.251003
3.528399 0.385727 -0.250383
3.536611 0.400791 -0.222318
3.525380 0.421404 -0.241826
3.588464 0.420035 -0.278904
3.593801 0.397952 -0.278284
3.602013 0.413016 -0.250219
3.590782 0.433629 -0.269727
3.532439 0.385497 -0.243368
3.527103 0.407580 -0.243988
3.525720 0.398944 -0.248486
3.589752 0.398169 -0.285320
3.584416 0.420252 -0.285940
3.583033 0.411615 -0.290438
3.783371 0.399650 -0.200822
3.783554 0.415390 -0.197647
3.786717 0.403229 -0.180271
3.712222 0.398085 -0.188965
3.712405 0.413825 -0.185790
3.715568 0.401664 -0.168414
3.785169 0.371590 -0.186548
3.780798 0.381660 -0.205001
3.783101 0.397299 -0.202137
3.786447 0.400877 -0.181586
3.714559 0.374696 -0.172060
3.710188 0.384766 -0.190514
3.712491 0.400405 -0.187650
3.715837 0.403983 -0.167098
3.810249 0.375957 -0.082477
3.814975 0.377230 -0.057175
3.813500 0.359635 -0.058486
3.808975 0.358880 -0.083600
3.739404 0.380676 -0.069667
3.744131 0.381949 -0.044365
3.742655 0.364354 -0.045676
3.738130 0.363599 -0.070790
3.815309 0.376732 -0.054605
3.818216 0.377613 -0.029015
3.816661 0.359981 -0.029683
3.813834 0.359136 -0.055916
3.743804 0.382449 -0.046884
3.746710 0.383331 -0.021294
3.745156 0.365699 -0.021962
3.742328 0.364854 -0.048195
3.808998 0.359004 -0.083516
3.813523 0.359758 -0.058401
3.812312 0.342949 -0.059291
3.807728 0.341926 -0.084644
3.738105 0.363441 -0.070877
3.742629 0.364196 -0.045763
3.741418 0.347387 -0.046652
3.736835 0.346364 -0.072005
3.813876 0.359546 -0.055803
3.816703 0.360391 -0.029570
