1.939626 1.192906 0.875168
1.954234 1.186485 0.883298
1.954271 1.207419 0.874598
1.939804 1.213136 0.870764
1.945966 1.185611 0.852356
1.960574 1.179190 0.860486
1.960611 1.200124 0.851786
1.946145 1.205841 0.847952
1.940913 1.212157 0.871277
1.955379 1.206440 0.875111
1.955418 1.227352 0.870411
1.941092 1.232390 0.866878
1.945037 1.206862 0.847428
1.959503 1.201144 0.851262
1.959542 1.222057 0.846563
1.945216 1.227095 0.843029
1.912178 1.138276 0.868161
1.916633 1.139387 0.864663
1.909575 1.191338 0.869266
1.896931 1.137935 0.848636
1.901387 1.139046 0.845137
1.894328 1.190996 0.849741
1.913298 1.122540 0.866974
1.929704 1.091960 0.859015
1.915157 1.139348 0.865654
1.910702 1.138238 0.869152
1.901015 1.122209 0.845460
1.917421 1.091629 0.837501
1.902875 1.139018 0.844140
1.898419 1.137907 0.847638
1.910129 1.087463 0.864362
1.926814 1.090425 0.860134
1.910408 1.121005 0.868092
1.903630 1.090158 0.840607
1.920314 1.093120 0.836379
1.903908 1.123701 0.844337
2.929748 1.136308 0.853821
2.907719 1.092086 0.848050
2.942370 1.047285 0.840047
2.957181 1.059436 0.839503
2.927842 1.139820 0.829370
2.905813 1.095599 0.823599
2.940464 1.050798 0.815597
2.955274 1.062949 0.815053
2.907233 1.092378 0.848117
2.885207 1.048147 0.842418
2.927074 1.035425 0.840680
2.941884 1.047577 0.840114
2.906262 1.095251 0.823528
2.884236 1.051019 0.817829
2.926103 1.038297 0.816091
2.940913 1.050449 0.815525
2.887588 1.057739 0.838979
2.884967 1.050528 0.846612
2.924205 1.037974 0.845327
2.929455 1.045017 0.837240
2.881833 1.041391 0.821274
2.879212 1.034181 0.828908
2.918450 1.021626 0.827623
2.923700 1.028669 0.819536
2.891008 0.999668 0.850153
2.921996 1.029921 0.848848
2.882758 1.042475 0.850133
2.864238 1.021505 0.852129
2.889643 0.999393 0.825417
2.920631 1.029646 0.824112
2.881393 1.042201 0.825397
2.862872 1.021231 0.827393
2.934350 1.042077 0.836505
2.929101 1.035034 0.844591
2.959024 0.996531 0.842501
2.965300 0.999249 0.833278
2.918875 1.031556 0.820268
2.913626 1.024513 0.828354
2.943549 0.986010 0.826264
2.949825 0.988728 0.817041
2.964781 1.062613 0.836138
2.972241 1.136155 0.817386
2.937349 1.139485 0.850455
2.947707 1.059823 0.818403
2.955167 1.133365 0.799651
2.920275 1.136695 0.832721
3.076725 1.052707 0.922877
3.072254 1.102664 0.907796
3.064573 1.100766 0.900320
3.070563 1.037392 0.920485
3.093913 1.048874 0.905450
3.089442 1.098831 0.890370
3.081761 1.096933 0.882893
3.087751 1.033559 0.903059
3.054848 1.056006 0.917492
3.078809 1.039175 0.923585
3.072819 1.102549 0.903420
3.055072 1.092916 0.906081
3.055516 1.048603 0.893858
3.079477 1.031772 0.899952
3.073487 1.095146 0.879786
3.055739 1.085513 0.882447
3.078014 1.051931 0.924106
3.071852 1.036616 0.921715
3.074148 0.987268 0.929045
3.081507 0.996612 0.933638
3.092632 1.049541 0.904247
3.086470 1.034226 0.901855
3.088767 0.984877 0.909186
3.096126 0.994221 0.913778
3.081055 0.996473 0.933305
3.073696 0.987129 0.928712
3.076001 0.937779 0.936004
3.084548 0.941149 0.942819
3.096584 0.994255 0.914128
3.089225 0.984911 0.909535
3.091530 0.935560 0.916827
3.100076 0.938930 0.923643
3.076153 0.937176 0.936176
3.076238 0.890379 0.939252
3.085139 0.892097 0.945763
3.084700 0.940546 0.942992
3.091381 0.936062 0.916665
3.091466 0.889265 0.919741
3.100367 0.890983 0.926252
3.099928 0.939433 0.923481
3.076700 0.890359 0.939596
3.076791 0.843560 0.942672
3.086032 0.843625 0.948910
3.085600 0.892077 0.946107
3.091005 0.889191 0.919402
3.091096 0.842392 0.922478
3.100337 0.842457 0.928716
3.099906 0.890909 0.925913
3.042283 0.843177 0.946046
3.084268 0.843761 0.944931
3.084177 0.890559 0.941854
3.042883 0.892935 0.942979
3.041584 0.841608 0.921330
3.083569 0.842192 0.920215
3.083478 0.888990 0.917139
3.042184 0.891366 0.918264
3.042949 0.892983 0.942974
3.084242 0.890607 0.941849
3.084157 0.937404 0.938774
3.043548 0.942741 0.939908
3.042119 0.891415 0.918263
3.083413 0.889039 0.917138
3.083328 0.935836 0.914062
3.042719 0.941174 0.915196
3.084135 0.938668 0.938631
3.081830 0.988019 0.931340
3.046813 0.999749 0.929845
3.043526 0.944005 0.939765
3.083350 0.934673 0.914193
3.081045 0.984023 0.906902
3.046029 0.995754 0.905406
3.042742 0.940010 0.915327
3.080981 0.988359 0.931278
3.078684 1.037708 0.923947
3.054723 1.054539 0.917854
3.045965 1.000089 0.929783
3.081898 0.983787 0.906946
3.079601 1.033136 0.899615
3.055640 1.049968 0.893522
3.046881 0.995517 0.905450
3.086388 0.843554 0.949157
3.077148 0.843490 0.942920
3.072848 0.794867 0.942909
3.082323 0.794084 0.949005
3.099977 0.842430 0.928471
3.090736 0.842366 0.922234
3.086436 0.793742 0.922223
3.095911 0.792960 0.928319
3.082588 0.794008 0.949178
3.073114 0.794791 0.943083
3.068811 0.746166 0.943066
3.078535 0.744539 0.949003
3.095637 0.792937 0.928145
3.086162 0.793720 0.922049
3.081859 0.745096 0.922032
3.091584 0.743469 0.927970
3.080136 0.748886 0.948741
3.070412 0.750514 0.942803
3.046899 0.729353 0.942200
3.054087 0.724997 0.947227
3.089954 0.739050 0.928231
3.080229 0.740677 0.922293
3.056716 0.719516 0.921689
3.063904 0.715160 0.926717
3.051992 0.718430 0.947066
3.044804 0.722786 0.942038
3.039193 0.704278 0.935926
3.047935 0.698916 0.940358
3.065970 0.721685 0.926870
3.058781 0.726041 0.921843
3.053170 0.707534 0.915731
3.061912 0.702171 0.920163
3.047328 0.699173 0.939949
3.038586 0.704535 0.935518
3.039337 0.655603 0.927677
3.044577 0.657732 0.933748
3.062513 0.701850 0.920557
3.053771 0.707213 0.916126
3.054522 0.658280 0.908285
3.059763 0.660409 0.914356
3.041860 0.841996 0.946071
3.037545 0.775921 0.942866
3.067791 0.783377 0.944604
3.083844 0.842580 0.944956
3.041997 0.842677 0.921306
3.037683 0.776602 0.918101
3.067929 0.784058 0.919839
3.083982 0.843261 0.920191
3.036032 0.776114 0.942769
3.031690 0.710045 0.939574
3.050215 0.724365 0.944227
3.066278 0.783570 0.944507
3.039176 0.776283 0.918194
3.034834 0.710215 0.914999
3.053360 0.724534 0.919653
3.069423 0.783740 0.919933
3.074959 0.745658 0.944928
3.079262 0.794282 0.944945
3.067508 0.783703 0.944604
3.051445 0.724498 0.944324
3.075684 0.745589 0.920163
3.079987 0.794214 0.920181
3.068234 0.783634 0.919839
3.052171 0.724429 0.919560
3.079245 0.794325 0.944944
3.083545 0.842948 0.944955
3.067492 0.783745 0.944603
3.080021 0.794261 0.920181
3.084320 0.842885 0.920192
3.068268 0.783682 0.919840
3.028612 0.657118 0.929933
3.046949 0.654815 0.930182
3.046198 0.703748 0.938023
3.033284 0.707936 0.939482
3.028551 0.661375 0.905527
3.046888 0.659072 0.905775
3.046137 0.708005 0.913616
3.033222 0.712193 0.915075
3.043245 0.659018 0.932639
3.038004 0.656889 0.926568
3.045584 0.621828 0.935015
3.056843 0.628608 0.946121
3.061105 0.659044 0.915468
3.055865 0.656915 0.909397
3.063444 0.621854 0.917845
3.074703 0.628634 0.928951
3.027211 0.603351 0.940354
3.053915 0.624254 0.938561
3.046336 0.659315 0.930114
3.027999 0.661618 0.929865
3.028377 0.598512 0.916085
3.055081 0.619415 0.914291
3.047502 0.654476 0.905844
3.029165 0.656778 0.905595
3.051846 0.720513 0.943695
3.033321 0.706193 0.939041
3.046235 0.702005 0.937582
3.051720 0.728316 0.920181
3.033195 0.713997 0.915528
3.046109 0.709809 0.914069
3.022597 0.803509 0.917461
3.024119 0.790087 0.925533
3.026211 0.827090 0.928216
3.024383 0.819599 0.922744
3.046550 0.802702 0.911182
3.048072 0.789280 0.919255
3.050164 0.826282 0.921937
3.048335 0.818792 0.916465
3.024325 0.819828 0.922475
3.026154 0.827319 0.927947
3.026947 0.863874 0.924162
3.023416 0.835020 0.914844
3.048395 0.818615 0.916733
3.050224 0.826106 0.922205
3.051017 0.862661 0.918419
3.047486 0.833808 0.909101
3.024265 0.790210 0.926032
3.025763 0.776787 0.934109
3.030077 0.842862 0.937315
3.026358 0.827213 0.928715
3.047929 0.789154 0.918771
3.049427 0.775731 0.926848
3.053741 0.841806 0.930054
3.050022 0.826157 0.921454
3.026350 0.827210 0.928687
3.030069 0.842859 0.937288
3.030669 0.892617 0.934221
3.027142 0.863765 0.924902
3.050034 0.826255 0.921481
3.053753 0.841904 0.930081
3.054353 0.891663 0.927014
3.050827 0.862811 0.917695
3.025440 0.776228 0.932878
3.023943 0.789652 0.924801
3.017754 0.785499 0.894303
3.016417 0.775489 0.886995
3.049738 0.776236 0.928039
3.048241 0.789659 0.919961
3.042052 0.785507 0.889463
3.040715 0.775497 0.882155
3.016398 0.775525 0.886898
3.017735 0.785535 0.894206
3.011831 0.787847 0.863202
3.007378 0.774781 0.841013
3.040719 0.775459 0.882175
3.042056 0.785469 0.889483
3.036152 0.787781 0.858480
3.031698 0.774715 0.836291
3.023966 0.789658 0.924912
3.022444 0.803080 0.916839
3.019121 0.795517 0.901721
3.017777 0.785505 0.894414
3.048218 0.789677 0.919849
3.046696 0.803099 0.911777
3.043373 0.795535 0.896659
3.042029 0.785524 0.889351
3.017722 0.785672 0.894131
3.019066 0.795683 0.901439
3.016277 0.801047 0.885316
3.011818 0.787984 0.863128
3.042075 0.785355 0.889587
3.043419 0.795367 0.896895
3.040630 0.800730 0.880772
3.036171 0.787667 0.858584
3.007339 0.775382 0.840716
3.011793 0.788448 0.862905
3.012836 0.824980 0.858360
3.009992 0.833255 0.839259
3.031731 0.774162 0.836547
3.036184 0.787228 0.858736
3.037228 0.823760 0.854191
3.034383 0.832035 0.835089
3.009993 0.833304 0.839251
3.012837 0.825028 0.858353
3.015015 0.862006 0.860273
3.012650 0.891174 0.837797
3.034386 0.832081 0.835094
3.037231 0.823806 0.854196
3.039408 0.860783 0.856116
3.037043 0.889952 0.833639
3.011797 0.788446 0.862931
3.016257 0.801509 0.885119
3.015696 0.816704 0.877486
3.012841 0.824978 0.858387
3.036187 0.787235 0.858751
3.040646 0.800298 0.880939
3.040086 0.815492 0.873306
3.037230 0.823766 0.854206
3.012841 0.825008 0.858382
3.015696 0.816734 0.877482
3.017405 0.832815 0.882776
3.015018 0.861986 0.860302
3.037232 0.823789 0.854208
3.040087 0.815515 0.873308
3.041796 0.831596 0.878603
3.039409 0.860767 0.856129
3.030354 0.892940 0.932863
3.021520 0.892155 0.885455
3.020991 0.866381 0.891796
3.026828 0.864088 0.923545
3.054661 0.891383 0.928329
3.045827 0.890598 0.880920
3.045298 0.864824 0.887261
3.051135 0.862531 0.919010
3.021505 0.892139 0.885377
3.012690 0.891351 0.837967
3.015055 0.862183 0.860444
3.020976 0.866365 0.891718
3.045828 0.890613 0.880919
3.037013 0.889825 0.833508
3.039378 0.860657 0.855985
3.045299 0.864839 0.887260
3.026839 0.864065 0.923610
3.021002 0.866357 0.891861
3.020442 0.840587 0.898207
3.023308 0.835211 0.914292
3.051120 0.862500 0.918941
3.045283 0.864793 0.887193
3.044723 0.839022 0.893539
3.047589 0.833647 0.909624
3.020960 0.866297 0.891654
3.015039 0.862115 0.860379
3.017426 0.832945 0.882853
3.020400 0.840527 0.898000
3.045316 0.864851 0.887353
3.039395 0.860669 0.856078
3.041782 0.831499 0.878552
3.044756 0.839081 0.893699
3.025444 0.776850 0.932816
3.016421 0.776111 0.886933
3.012429 0.732868 0.878004
3.018110 0.741622 0.904973
3.049729 0.775563 0.928082
3.040706 0.774824 0.882199
3.036713 0.731581 0.873270
3.042395 0.740335 0.900240
3.016413 0.776086 0.886897
3.007392 0.775342 0.841013
3.004878 0.720701 0.842393
3.012420 0.732843 0.877968
3.040698 0.774837 0.882157
3.031678 0.774093 0.836273
3.029163 0.719453 0.837653
3.036706 0.731595 0.873228
3.025439 0.776861 0.932787
3.018105 0.741634 0.904944
3.016574 0.715412 0.904273
3.021097 0.710793 0.929592
3.049738 0.775510 0.928146
3.042404 0.740282 0.900303
3.040873 0.714060 0.899632
3.045396 0.709441 0.924951
3.018101 0.741582 0.904939
3.012420 0.732828 0.877969
3.010448 0.693760 0.878292
3.016571 0.715359 0.904268
3.042396 0.740304 0.900255
3.036715 0.731550 0.873286
3.034743 0.692482 0.873608
3.040865 0.714081 0.899584
3.012414 0.732794 0.877949
3.004872 0.720652 0.842374
3.002364 0.666010 0.843755
3.010442 0.693727 0.878272
3.036707 0.731548 0.873244
3.029164 0.719406 0.837669
3.026657 0.664763 0.839050
3.034735 0.692480 0.873567
3.016565 0.715342 0.904243
3.010442 0.693743 0.878266
3.010465 0.661055 0.887347
3.021088 0.710723 0.929562
3.040872 0.714047 0.899627
3.034749 0.692448 0.873651
3.034772 0.659760 0.882732
3.045395 0.709429 0.924946
3.010436 0.693685 0.878251
3.002358 0.665968 0.843734
2.999835 0.611329 0.845118
3.010459 0.660997 0.887332
3.034737 0.692431 0.873593
3.026659 0.664714 0.839076
3.024136 0.610075 0.840460
3.034760 0.659743 0.882674
3.030320 0.892565 0.932773
3.030920 0.942323 0.929706
3.022775 0.940262 0.882562
3.021486 0.891779 0.885365
3.054698 0.891836 0.928417
3.055298 0.941594 0.925351
3.047154 0.939534 0.878206
3.045864 0.891051 0.881009
3.030960 0.942996 0.929723
3.034247 0.998739 0.919802
3.025437 0.989140 0.878489
3.022815 0.940936 0.882578
3.055262 0.941022 0.925325
3.058549 0.996765 0.915405
3.049738 0.987166 0.874091
3.047117 0.938962 0.878180
3.034555 0.999616 0.920730
3.043314 1.054066 0.908801
3.028475 1.038001 0.875548
3.025745 0.990017 0.879416
3.058249 0.995992 0.914462
3.067008 1.050442 0.902534
3.052169 1.034377 0.869281
3.049439 0.986393 0.873149
3.043844 1.053508 0.910541
3.044067 1.090417 0.899130
3.032090 1.084792 0.875547
3.029005 1.037442 0.877289
3.066486 1.051095 0.900779
3.066709 1.088004 0.889368
3.054733 1.082379 0.865785
3.051647 1.035029 0.867526
3.044316 1.089583 0.899788
3.039287 1.130060 0.887281
3.032340 1.083958 0.876206
3.066462 1.088909 0.888702
3.061433 1.129386 0.876194
3.054486 1.083284 0.865119
3.021483 0.891945 0.885313
3.022772 0.940428 0.882510
3.014890 0.939665 0.836683
3.012668 0.891157 0.837903
3.045851 0.890883 0.880967
3.047140 0.939366 0.878164
3.039258 0.938603 0.832337
3.037036 0.890095 0.833556
3.022790 0.940676 0.882539
3.025411 0.988881 0.878450
3.017134 0.988419 0.835493
3.014908 0.939913 0.836712
3.047126 0.939215 0.878130
3.049747 0.987419 0.874041
3.041469 0.986957 0.831083
3.039244 0.938451 0.832303
3.025468 0.988950 0.878722
3.028198 1.036935 0.874855
3.019408 1.036996 0.834546
3.017190 0.988488 0.835765
3.049695 0.987447 0.873763
3.052426 1.035431 0.869896
3.043635 1.035492 0.829587
3.041418 0.986984 0.830806
3.028268 1.036983 0.875160
3.031353 1.084333 0.873419
3.021694 1.085550 0.833636
3.019478 1.037044 0.834852
3.052361 1.035479 0.869586
3.055447 1.082828 0.867845
3.045787 1.084046 0.828062
3.043571 1.035540 0.829278
3.031457 1.084455 0.873805
3.038405 1.130557 0.884880
3.024015 1.134178 0.832806
3.021798 1.085672 0.834022
3.055350 1.082802 0.867462
3.062297 1.128904 0.878537
3.047907 1.132525 0.826464
3.045691 1.084019 0.827679
3.021079 0.710755 0.929507
3.010456 0.661087 0.887293
3.016408 0.659937 0.919958
3.045406 0.709361 0.925026
3.034783 0.659692 0.882811
3.040734 0.658543 0.915477
3.016400 0.659904 0.919930
3.010449 0.661054 0.887264
2.999826 0.611385 0.845050
3.040727 0.658509 0.915449
3.034776 0.659659 0.882783
3.024152 0.609991 0.840569
2.999857 0.611513 0.845170
2.997400 0.578690 0.845334
3.011849 0.572150 0.921491
3.015644 0.601766 0.930539
3.024115 0.609756 0.840452
3.021658 0.576932 0.840616
3.036107 0.570392 0.916773
3.039902 0.600008 0.925821
2.975590 0.586910 0.850961
3.007580 0.578521 0.855148
3.010038 0.611345 0.854985
2.982929 0.615686 0.849122
2.979442 0.585503 0.826527
3.011432 0.577115 0.830715
3.013890 0.609938 0.830552
2.986781 0.614279 0.824689
2.966782 0.622564 0.825383
2.959970 0.592572 0.825965
2.966546 0.589057 0.843775
2.973886 0.617833 0.841937
2.988685 0.616875 0.815299
2.981873 0.586883 0.815880
2.988449 0.583367 0.833691
2.995789 0.612143 0.831852
2.960646 0.594583 0.825845
2.948048 0.569503 0.825059
2.955155 0.565371 0.843375
2.967222 0.591068 0.843655
2.981177 0.584817 0.816001
2.968579 0.559737 0.815215
2.975686 0.555604 0.833531
2.987753 0.581301 0.833811
2.976004 0.586833 0.851023
2.963937 0.561136 0.850743
3.000184 0.539419 0.856527
3.007995 0.578445 0.855211
2.979012 0.585517 0.826466
2.966945 0.559820 0.826186
3.003192 0.538102 0.831971
3.011003 0.577128 0.830654
2.997627 0.580159 0.845472
2.989816 0.541133 0.846788
3.000599 0.533229 0.904283
3.012076 0.573619 0.921629
3.021418 0.575391 0.840465
3.013607 0.536366 0.841782
3.024390 0.528461 0.899276
3.035867 0.568852 0.916623
3.016410 0.659768 0.920018
2.999835 0.611249 0.845138
3.015622 0.601502 0.930507
3.040721 0.658606 0.915390
3.024146 0.610087 0.840510
3.039933 0.600339 0.925879
2.993321 1.134220 0.836715
2.992064 1.069412 0.838265
3.010628 1.043567 0.841470
3.011949 1.086351 0.840441
2.996576 1.133554 0.812164
2.995319 1.068745 0.813714
3.013882 1.042901 0.816918
3.015203 1.085684 0.815890
2.991860 1.069474 0.838235
2.990046 1.004678 0.839831
3.008673 0.989410 0.843700
3.010424 1.043629 0.841439
2.995519 1.068570 0.813748
2.993705 1.003775 0.815344
3.012332 0.988507 0.819213
3.014083 1.042726 0.816952
2.989523 1.004432 0.839748
2.988665 0.939625 0.840930
3.006384 0.931840 0.844590
3.008150 0.989163 0.843617
2.994224 1.003901 0.815429
2.993366 0.939095 0.816611
3.011085 0.931310 0.820271
3.012851 0.988633 0.819298
2.988956 0.939654 0.840982
2.987842 0.874853 0.843129
3.004890 0.873733 0.845590
3.006675 0.931870 0.844642
2.993073 0.938942 0.816562
2.991959 0.874141 0.818709
3.009008 0.873021 0.821170
3.010792 0.931158 0.820222
2.987990 0.874753 0.843156
2.986755 0.809948 0.844415
3.003221 0.815468 0.847071
3.005038 0.873632 0.845617
2.991809 0.874118 0.818685
2.990575 0.809314 0.819945
3.007040 0.814833 0.822600
3.008857 0.872998 0.821146
2.986507 0.809923 0.844375
2.985246 0.745118 0.845932
3.001169 0.758046 0.848469
3.002973 0.815442 0.847030
2.990820 0.809217 0.819988
2.989558 0.744411 0.821545
3.005481 0.757340 0.824083
3.007285 0.814736 0.822643
2.985105 0.745061 0.845908
2.983835 0.680260 0.847484
2.999326 0.703664 0.849806
3.001028 0.757990 0.848445
2.989696 0.744347 0.821572
2.988426 0.679546 0.823149
3.003917 0.702949 0.825470
3.005619 0.757276 0.824110
2.983709 0.680205 0.847461
2.982432 0.615408 0.849046
2.997851 0.660768 0.850854
2.999200 0.703609 0.849783
2.988550 0.679487 0.823174
2.987273 0.614691 0.824759
3.002691 0.660050 0.826567
3.004041 0.702891 0.825496
2.993401 1.134277 0.836724
3.012029 1.086408 0.840450
3.032160 1.085211 0.843109
3.034377 1.133717 0.841893
2.996528 1.133550 0.812157
3.015155 1.085680 0.815884
3.035286 1.084483 0.818543
3.037503 1.132990 0.817327
3.011954 1.086362 0.840442
3.010633 1.043579 0.841470
3.029869 1.036660 0.844316
3.032085 1.085166 0.843101
3.015236 1.085632 0.815896
3.013915 1.042848 0.816924
3.033151 1.035929 0.819770
3.035367 1.084435 0.818555
3.010868 1.043636 0.841497
3.009117 0.989417 0.843758
3.027886 0.988209 0.845562
3.030104 1.036717 0.844343
3.013677 1.042694 0.816900
3.011925 0.988476 0.819160
3.030695 0.987267 0.820965
3.032912 1.035775 0.819746
3.009186 0.989200 0.843772
3.007420 0.931876 0.844745
3.025730 0.939486 0.846796
3.027955 0.987991 0.845577
3.011852 0.988589 0.819149
3.010086 0.931266 0.820121
3.028396 0.938875 0.822173
3.030621 0.987381 0.820953
3.007053 0.931831 0.844701
3.005269 0.873694 0.845650
3.023141 0.890933 0.847972
3.025363 0.939440 0.846752
3.010449 0.931205 0.820168
3.008665 0.873068 0.821116
3.026536 0.890306 0.823438
3.028758 0.938814 0.822219
3.004956 0.873709 0.845602
3.003139 0.815544 0.847056
3.020171 0.833077 0.849379
3.022828 0.890947 0.847924
3.008973 0.872941 0.821166
3.007156 0.814776 0.822620
3.024188 0.832310 0.824943
3.026845 0.890180 0.823489
3.003028 0.815491 0.847038
3.001224 0.758095 0.848478
3.017407 0.775151 0.850819
3.020060 0.833024 0.849361
3.007263 0.814714 0.822640
3.005459 0.757318 0.824079
3.021643 0.774374 0.826421
3.024295 0.832247 0.824963
3.001104 0.758043 0.848458
2.999402 0.703717 0.849818
3.014773 0.720458 0.852179
3.017287 0.775099 0.850799
3.005575 0.757258 0.824102
3.003873 0.702931 0.825463
3.019244 0.719672 0.827824
3.021758 0.774313 0.826443
2.999276 0.703672 0.849796
2.997927 0.660831 0.850867
3.012140 0.665770 0.853538
3.014647 0.720413 0.852157
3.003995 0.702874 0.825488
3.002646 0.660033 0.826559
3.016859 0.664972 0.829229
3.019366 0.719615 0.827849
2.997771 0.660781 0.850838
2.982353 0.615422 0.849030
3.009461 0.611081 0.854892
3.011984 0.665721 0.853508
3.002790 0.659983 0.826589
2.987372 0.614624 0.824781
3.014480 0.610283 0.830644
3.017003 0.664923 0.829260
2.983931 1.134239 0.830109
2.974667 1.134410 0.812339
2.973683 1.070186 0.814013
2.982674 1.069430 0.831659
3.005938 1.133572 0.818749
2.996674 1.133744 0.800979
2.995690 1.069520 0.802652
3.004681 1.068764 0.820299
2.982552 1.069411 0.831417
2.973561 1.070166 0.813771
2.972586 1.005932 0.815439
2.980737 1.004616 0.833013
3.004801 1.068655 0.820544
2.995810 1.069410 0.802898
2.994835 1.005176 0.804566
3.002986 1.003860 0.822140
2.980682 1.004452 0.832908
2.972530 1.005769 0.815334
2.971537 0.941526 0.817024
2.979824 0.939645 0.834090
3.003039 1.003894 0.822248
2.994888 1.005211 0.804673
2.993894 0.940969 0.806363
3.002181 0.939087 0.823430
2.979837 0.939644 0.834117
2.971550 0.941525 0.817051
2.970570 0.877298 0.818783
2.978723 0.874843 0.836265
3.002166 0.938959 0.823406
2.993880 0.940841 0.806339
2.992900 0.876613 0.808072
3.001053 0.874158 0.825553
2.978679 0.874751 0.836178
2.970526 0.877206 0.818696
2.969531 0.812970 0.820404
2.977445 0.809946 0.837437
3.001094 0.874121 0.825643
2.992941 0.876576 0.808162
2.991946 0.812341 0.809869
2.999860 0.809317 0.826903
2.977422 0.809896 0.837392
2.969508 0.812920 0.820358
2.968517 0.748692 0.822094
2.976161 0.745091 0.838949
2.999881 0.809237 0.826952
2.991967 0.812262 0.809918
2.990975 0.748034 0.811654
2.998620 0.744432 0.828509
2.976113 0.745025 0.838848
2.968468 0.748626 0.821994
2.967473 0.684395 0.823697
2.974843 0.680224 0.840424
2.998666 0.744369 0.828613
2.991021 0.747970 0.811758
2.990025 0.683739 0.813461
2.997395 0.679568 0.830189
2.974795 0.680162 0.840321
2.967424 0.684333 0.823593
2.966414 0.620097 0.825352
2.973518 0.615365 0.841906
2.997441 0.679501 0.830296
2.990071 0.683672 0.813568
2.989061 0.619436 0.815327
2.996164 0.614704 0.831880
2.967790 0.993853 0.832169
2.961514 0.991136 0.841392
2.961514 0.930213 0.840549
2.968024 0.932484 0.831208
2.947366 0.994021 0.818146
2.941089 0.991303 0.827370
2.941090 0.930381 0.826526
2.947600 0.932652 0.817186
2.967959 0.932412 0.831301
2.961449 0.930141 0.840642
2.961433 0.869220 0.839772
2.968160 0.871040 0.830264
2.947665 0.932603 0.817091
2.941156 0.930332 0.826431
2.941139 0.869411 0.825562
2.947866 0.871231 0.816053
2.968093 0.870976 0.830358
2.961366 0.869156 0.839866
2.961326 0.808240 0.838972
2.968296 0.809599 0.829351
2.947934 0.871173 0.815957
2.941207 0.869353 0.825465
2.941167 0.808437 0.824571
2.948137 0.809796 0.814950
2.968224 0.809541 0.829450
2.961254 0.808183 0.839071
2.961233 0.747262 0.838221
2.968437 0.748169 0.828443
2.948209 0.809731 0.814849
2.941239 0.808373 0.824470
2.941218 0.747452 0.823620
2.948422 0.748359 0.813842
2.968366 0.748103 0.828539
2.961162 0.747197 0.838316
2.961126 0.686279 0.837436
2.968576 0.686728 0.827548
2.948493 0.748302 0.813745
2.941290 0.747395 0.823523
2.941254 0.686477 0.822642
2.948703 0.686926 0.812754
2.968511 0.686666 0.827633
2.961061 0.686216 0.837521
2.961039 0.625297 0.836665
2.968711 0.625295 0.826614
2.948768 0.686866 0.812667
2.941319 0.686417 0.822555
2.941297 0.625498 0.821699
2.948968 0.625496 0.811647
2.958985 0.625466 0.831512
2.977856 0.619843 0.832718
2.978866 0.684079 0.830959
2.958785 0.686836 0.832532
2.958721 0.625322 0.806739
2.977592 0.619699 0.807944
2.978602 0.683935 0.806186
2.958521 0.686692 0.807758
2.958742 0.686360 0.832524
2.978824 0.683603 0.830952
2.971697 0.745370 0.834651
2.958532 0.747736 0.833515
2.958560 0.687292 0.807767
2.978642 0.684535 0.806195
2.971515 0.746302 0.809894
2.958351 0.748668 0.808758
2.957235 0.748036 0.833465
2.970399 0.745670 0.834601
2.967333 0.808671 0.835572
2.957021 0.809408 0.834472
2.959643 0.748491 0.808812
2.972808 0.746126 0.809947
2.969742 0.809127 0.810919
2.959430 0.809864 0.809818
2.967017 0.808723 0.835538
2.963961 0.871717 0.836543
2.956502 0.870836 0.835445
2.956705 0.809460 0.834438
2.970055 0.809200 0.810955
2.966999 0.872195 0.811960
2.959540 0.871314 0.810861
2.959743 0.809937 0.809854
2.955896 0.870881 0.835356
2.963354 0.871762 0.836454
2.960301 0.934766 0.837467
2.955694 0.932252 0.836394
2.960144 0.871394 0.810953
2.967602 0.872275 0.812051
2.964548 0.935279 0.813064
2.959942 0.932766 0.811991
2.986563 0.748537 0.827205
2.987555 0.812764 0.825469
2.975374 0.809073 0.833578
2.978441 0.746072 0.832607
2.972911 0.748190 0.806534
2.973902 0.812418 0.804797
2.961722 0.808726 0.812907
2.964789 0.745725 0.811935
2.975381 0.809131 0.833573
2.987561 0.812822 0.825464
2.988556 0.877058 0.823756
2.972325 0.872126 0.834578
2.961714 0.808796 0.812911
2.973894 0.812487 0.804801
2.974889 0.876723 0.803094
2.958658 0.871791 0.813916
2.972337 0.872192 0.834569
2.988568 0.877124 0.823747
2.989548 0.941351 0.822015
2.969283 0.935196 0.835582
2.958644 0.871852 0.813925
2.974875 0.876784 0.803103
2.975855 0.941011 0.801370
2.955590 0.934856 0.814938
2.968856 0.935444 0.835847
2.989121 0.941600 0.822279
2.990114 1.005842 0.820590
2.964016 0.994300 0.835734
2.956014 0.934733 0.814672
2.976279 0.940888 0.801104
2.977272 1.005130 0.799415
2.951174 0.993589 0.814559
2.964166 0.993990 0.835647
2.990264 1.005532 0.820503
2.991239 1.069765 0.818835
2.962836 1.061121 0.837763
2.951023 0.994026 0.814645
2.977121 1.005568 0.799501
2.978096 1.069802 0.797833
2.949693 1.061158 0.816762
2.960770 1.062629 0.838710
2.989173 1.071273 0.819781
2.990157 1.135498 0.818107
2.968230 1.136170 0.819958
2.951764 1.059785 0.815805
2.980167 1.068429 0.796877
2.981151 1.132654 0.795203
2.959224 1.133327 0.797053
2.985567 0.684247 0.828909
2.986562 0.748478 0.827206
2.978440 0.746014 0.832608
2.971919 0.683911 0.808235
2.972914 0.748142 0.806532
2.964792 0.745677 0.811934
2.955109 0.932361 0.836279
2.959715 0.934874 0.837353
2.954875 0.993730 0.837239
2.960524 0.932760 0.812106
2.965131 0.935273 0.813180
2.960290 0.994129 0.813067
2.928548 0.626127 0.842294
2.951540 0.625221 0.841568
2.951562 0.686140 0.842424
2.929253 0.679709 0.843035
2.927775 0.626477 0.817533
2.950766 0.625571 0.816807
2.950788 0.686490 0.817663
2.928479 0.680059 0.818274
2.929322 0.679741 0.843033
2.951630 0.686172 0.842422
2.951666 0.747090 0.843302
2.930030 0.733318 0.843980
2.928411 0.680142 0.818278
2.950720 0.686573 0.817666
2.950756 0.747491 0.818547
2.929120 0.733719 0.819224
2.930125 0.733388 0.843977
2.951761 0.747160 0.843300
2.951781 0.808080 0.844150
2.930836 0.786964 0.844833
2.929026 0.733764 0.819229
2.950662 0.747536 0.818552
2.950683 0.808456 0.819402
2.929738 0.787340 0.820085
2.930925 0.787014 0.844830
2.951871 0.808131 0.844147
2.951911 0.869046 0.845041
2.931630 0.840594 0.845703
2.929649 0.787405 0.820090
2.950594 0.808521 0.819407
2.950634 0.869436 0.820301
2.930354 0.840984 0.820964
2.931719 0.840653 0.845699
2.951999 0.869105 0.845037
2.952016 0.930025 0.845906
2.932436 0.894225 0.846580
2.930266 0.841040 0.820969
2.950546 0.869492 0.820307
2.950562 0.930413 0.821177
2.930982 0.894613 0.821850
2.891020 0.999348 0.850152
2.902040 0.971368 0.849185
2.951931 0.991098 0.846757
2.922008 1.029601 0.848847
2.889684 0.999662 0.825415
2.900704 0.971682 0.824448
2.950595 0.991413 0.822019
2.920672 1.029915 0.824110
2.951961 0.930123 0.845911
2.951961 0.991045 0.846754
2.902069 0.971314 0.849183
2.932381 0.894323 0.846584
2.950602 0.930441 0.821175
2.950601 0.991364 0.822018
2.900710 0.971633 0.824447
2.931022 0.894642 0.821849
3.043567 0.576154 0.937685
3.028048 0.528878 0.925537
3.039340 0.528175 0.932801
3.049560 0.578062 0.940405
3.055889 0.577253 0.916219
3.040370 0.529977 0.904072
3.051662 0.529274 0.911336
3.061882 0.579161 0.918939
3.038263 0.527252 0.932017
3.026971 0.527955 0.924753
3.010510 0.479703 0.905109
3.022222 0.472168 0.913347
3.052709 0.530096 0.912091
3.041417 0.530799 0.904827
3.024955 0.482547 0.885183
3.036668 0.475012 0.893421
2.983238 0.493200 0.893020
3.011638 0.479070 0.905733
3.028100 0.527323 0.925376
3.006420 0.528739 0.912398
2.995389 0.497320 0.871826
3.023790 0.483191 0.884539
3.040251 0.531443 0.904183
3.018571 0.532860 0.891204
2.991504 0.544772 0.847866
2.969313 0.515315 0.848116
2.979104 0.501328 0.885982
3.002286 0.536867 0.905360
3.011887 0.532655 0.840687
2.989696 0.503199 0.840937
2.999487 0.489211 0.878803
3.022669 0.524751 0.898181
2.964261 0.561577 0.850746
2.946545 0.537387 0.851640
2.978317 0.510403 0.856781
3.000508 0.539859 0.856531
2.966591 0.559320 0.826184
2.948874 0.535131 0.827078
2.980647 0.508146 0.832219
3.002838 0.537603 0.831969
3.022454 0.475016 0.913503
3.010741 0.482551 0.905265
2.980213 0.453740 0.887550
2.989354 0.441509 0.896507
3.036389 0.472081 0.893229
3.024676 0.479616 0.884991
2.994147 0.450805 0.867276
3.003289 0.438574 0.876234
2.958764 0.478269 0.884455
2.982540 0.451184 0.888845
3.013069 0.479995 0.906559
2.984668 0.494124 0.893847
2.968007 0.480476 0.861575
2.991783 0.453391 0.865965
3.022312 0.482202 0.883679
2.993911 0.496331 0.870966
2.944934 0.502937 0.851560
2.957302 0.488379 0.878983
2.983205 0.504234 0.888374
2.973414 0.518222 0.850508
2.957064 0.484959 0.839583
2.969432 0.470401 0.867006
2.995336 0.486256 0.876397
2.985545 0.500244 0.838531
2.946989 0.537977 0.851604
2.928376 0.520702 0.852489
2.950281 0.495708 0.857798
2.978761 0.510993 0.856745
2.948387 0.534498 0.827114
2.929774 0.517223 0.827999
2.951679 0.492228 0.833308
2.980160 0.507513 0.832256
2.949378 0.571453 0.825320
2.932405 0.549315 0.826012
2.938769 0.543131 0.844530
2.956486 0.567320 0.843636
2.967219 0.557739 0.814954
2.950245 0.535601 0.815646
2.956610 0.529417 0.834163
2.974326 0.553606 0.833270
2.913444 0.535945 0.829941
2.922748 0.527534 0.846593
2.941362 0.544809 0.845709
2.934997 0.550993 0.827191
2.926062 0.518835 0.817219
2.935366 0.510424 0.833872
2.953980 0.527699 0.832987
2.947615 0.533883 0.814470
2.958531 0.625862 0.831499
2.950580 0.599418 0.832880
2.970591 0.590247 0.833287
2.977403 0.620239 0.832705
2.959167 0.624835 0.806753
2.951215 0.598391 0.808135
2.971226 0.589220 0.808541
2.978038 0.619212 0.807959
2.950858 0.598734 0.832895
2.939062 0.575400 0.833059
2.958270 0.564483 0.832515
2.970869 0.589563 0.833301
2.950918 0.599022 0.808121
2.939122 0.575688 0.808286
2.958330 0.564771 0.807741
2.970928 0.589851 0.808527
2.939542 0.575608 0.833051
2.924299 0.555763 0.833860
2.941776 0.542553 0.833199
2.958750 0.564691 0.832507
2.938614 0.575435 0.808294
2.923372 0.555590 0.809102
2.940849 0.542380 0.808442
2.957822 0.564518 0.807750
2.924700 0.556443 0.833814
2.908274 0.544226 0.835515
2.920624 0.528185 0.835902
2.942177 0.543233 0.833153
2.922935 0.554875 0.809151
2.906510 0.542658 0.810853
2.918859 0.526616 0.811240
2.940413 0.541665 0.808491
2.878216 0.523913 0.836267
2.887865 0.506476 0.836986
2.919769 0.527826 0.835952
2.907419 0.543868 0.835565
2.878112 0.523027 0.811508
2.887761 0.505590 0.812226
2.919665 0.526940 0.811193
2.907315 0.542982 0.810806
2.882531 0.515307 0.830879
2.886909 0.508132 0.848886
2.923740 0.528247 0.846498
2.914436 0.536657 0.829846
2.893112 0.496735 0.818351
2.897489 0.489560 0.836358
2.934320 0.509675 0.833970
2.925016 0.518085 0.817318
2.891839 0.501521 0.854719
2.926925 0.493156 0.858610
2.950575 0.496641 0.857641
2.928670 0.521636 0.852332
2.892595 0.496147 0.830546
2.927681 0.487781 0.834436
2.951331 0.491267 0.833467
2.929426 0.516261 0.828159
2.925224 0.500432 0.853571
2.931868 0.483106 0.877060
2.961243 0.489359 0.880025
2.948875 0.503917 0.852602
2.929420 0.480472 0.839505
2.936063 0.463147 0.862995
2.965438 0.469400 0.865959
2.953070 0.483958 0.838536
2.932886 0.474644 0.882286
2.940856 0.453209 0.886818
2.986037 0.453812 0.889640
2.962261 0.480896 0.885250
2.935070 0.471570 0.857799
2.943040 0.450135 0.862331
2.988220 0.450738 0.865153
2.964444 0.477823 0.860764
2.941352 0.458940 0.884581
2.947874 0.443541 0.896714
2.995674 0.447312 0.896360
2.986532 0.459543 0.887403
2.942568 0.444366 0.864583
2.949091 0.428966 0.876716
2.996891 0.432738 0.876362
2.987749 0.444968 0.867405
3.057884 0.629076 0.947076
3.046624 0.622296 0.935970
3.041847 0.577247 0.936495
3.047840 0.579155 0.939215
3.073666 0.628086 0.928003
3.062406 0.621306 0.916898
3.057629 0.576257 0.917423
3.063622 0.578165 0.920142
3.048980 0.575425 0.939249
3.053757 0.620474 0.938724
3.027053 0.599571 0.940517
3.023258 0.569955 0.931469
3.050461 0.578061 0.914659
3.055239 0.623111 0.914134
3.028534 0.602208 0.915927
3.024739 0.572592 0.906879
3.029479 0.527103 0.926014
3.044998 0.574380 0.938162
3.019276 0.568911 0.930382
3.007798 0.528520 0.913036
3.038906 0.531748 0.903579
3.054426 0.579025 0.915726
3.028703 0.573555 0.907947
3.017226 0.533165 0.890600
2.960593 0.622762 0.836787
2.953702 0.600163 0.837085
2.960313 0.596316 0.828117
2.968264 0.622760 0.826735
2.941736 0.627948 0.821577
2.934845 0.605349 0.821876
2.941456 0.601502 0.812907
2.949407 0.627946 0.811526
2.928532 0.626295 0.842295
2.923068 0.612503 0.842459
2.944632 0.602790 0.841868
2.951523 0.625389 0.841569
2.927785 0.626233 0.817532
2.922321 0.612442 0.817695
2.943885 0.602729 0.817104
2.950776 0.625328 0.816805
2.952737 0.598526 0.837479
2.942330 0.576114 0.836774
2.947552 0.571344 0.828675
2.959348 0.594678 0.828510
2.935791 0.606939 0.821483
2.925384 0.584528 0.820779
2.930606 0.579758 0.812679
2.942402 0.603092 0.812514
2.908768 0.594686 0.842362
2.934102 0.579921 0.841160
2.944509 0.602332 0.841864
2.922945 0.612045 0.842455
2.908249 0.595504 0.817605
2.933583 0.580739 0.816403
2.943990 0.603150 0.817108
2.922426 0.612863 0.817699
2.941420 0.574810 0.836897
2.927007 0.554187 0.836398
2.931399 0.550195 0.829605
2.946642 0.570040 0.828797
2.926269 0.585789 0.820657
2.911856 0.565165 0.820157
2.916248 0.561174 0.813365
2.931491 0.581019 0.812557
2.908840 0.594589 0.842356
2.896467 0.586751 0.842477
2.919761 0.559200 0.840655
2.934174 0.579824 0.841154
2.908151 0.595566 0.817610
2.895778 0.587728 0.817731
2.919072 0.560177 0.815909
2.933485 0.580801 0.816408
2.907982 0.539192 0.837650
2.913411 0.536397 0.831394
2.929837 0.548614 0.829692
2.925444 0.552606 0.836485
2.895924 0.553300 0.821237
2.901353 0.550505 0.814981
2.917779 0.562722 0.813279
2.913386 0.566713 0.820072
2.880341 0.582469 0.843666
2.902835 0.546193 0.841802
2.920297 0.559606 0.840637
2.897003 0.587157 0.842460
2.878549 0.582611 0.818956
2.901043 0.546334 0.817093
2.918505 0.559748 0.815928
2.895211 0.587298 0.817750
2.878601 0.525251 0.839664
2.882511 0.516644 0.833258
2.911714 0.536599 0.832556
2.906284 0.539394 0.838812
2.869893 0.538925 0.820930
2.873802 0.530319 0.814523
2.903005 0.550274 0.813821
2.897576 0.553068 0.820077
2.865087 0.583167 0.844633
2.874857 0.531801 0.842669
2.902540 0.545944 0.841817
2.880046 0.582220 0.843680
2.863846 0.583790 0.819897
2.873616 0.532424 0.817933
2.901299 0.546568 0.817080
2.878805 0.582844 0.818944
2.864833 0.583041 0.844640
2.841391 0.581736 0.845471
2.843729 0.524918 0.843279
2.874603 0.531676 0.842676
2.864051 0.583905 0.819892
2.840610 0.582600 0.820723
2.842947 0.525781 0.818531
2.873821 0.532539 0.817928
2.875991 0.525715 0.840779
2.845116 0.518957 0.841382
2.846657 0.508619 0.835368
2.879900 0.517108 0.834372
2.872443 0.538436 0.819817
2.841568 0.531679 0.820420
2.843109 0.521341 0.814407
2.876352 0.529830 0.813411
2.878349 0.524121 0.836256
2.845107 0.515633 0.837253
2.847169 0.496035 0.838322
2.887998 0.506684 0.836975
2.877911 0.522789 0.811521
2.844668 0.514300 0.812517
2.846730 0.494702 0.813586
2.887560 0.505352 0.812239
2.885375 0.517425 0.828771
2.844546 0.506775 0.830118
2.845715 0.500449 0.852451
2.889752 0.510250 0.846777
2.890191 0.494586 0.820464
2.849362 0.483936 0.821812
2.850531 0.477610 0.844145
2.894569 0.487411 0.838471
2.841075 0.581664 0.845475
2.764503 0.552734 0.845149
2.799764 0.524833 0.843596
2.843412 0.524846 0.843283
2.840839 0.582654 0.820720
2.764267 0.553723 0.820394
2.799529 0.525822 0.818842
2.843176 0.525835 0.818528
2.844492 0.507423 0.834699
2.842951 0.517761 0.840713
2.799303 0.517748 0.841026
2.796962 0.513667 0.835908
2.845197 0.522533 0.815077
2.843656 0.532870 0.821091
2.800008 0.532857 0.821404
2.797667 0.528777 0.816286
2.797651 0.521791 0.838464
2.785741 0.497041 0.839759
2.847243 0.495950 0.838324
2.845181 0.515547 0.837255
2.796973 0.520623 0.813726
2.785062 0.495872 0.815021
2.846564 0.494781 0.813586
2.844502 0.514379 0.812517
2.784372 0.500190 0.855469
2.848254 0.500861 0.851951
2.847085 0.507187 0.829617
2.785583 0.508278 0.831052
2.784004 0.476517 0.848170
2.847886 0.477188 0.844652
2.846717 0.483515 0.822318
2.785215 0.484605 0.823753
2.781587 0.490405 0.879151
2.847338 0.486882 0.877726
2.848521 0.500129 0.853777
2.784639 0.499458 0.857296
2.780683 0.468177 0.868246
2.846433 0.464655 0.866821
2.847617 0.477902 0.842872
2.783734 0.477231 0.846390
2.759708 0.546496 0.842079
2.755286 0.541188 0.837043
2.792629 0.514514 0.835409
2.794970 0.518595 0.840526
2.768998 0.559942 0.823459
2.764575 0.554635 0.818423
2.801918 0.527960 0.816788
2.804260 0.532041 0.821906
2.797875 0.521449 0.838467
2.760532 0.548123 0.840102
2.746900 0.551419 0.840445
2.785964 0.496698 0.839762
2.796656 0.521010 0.813726
2.759313 0.547684 0.815360
2.745682 0.550979 0.815704
2.784746 0.496259 0.815021
2.784294 0.500168 0.855542
2.785505 0.508257 0.831125
2.722907 0.508398 0.832180
2.724131 0.501085 0.856667
2.783958 0.476540 0.848101
2.785169 0.484628 0.823684
2.722571 0.484769 0.824738
2.723795 0.477456 0.849225
2.722590 0.491780 0.879671
2.781355 0.490739 0.878427
2.784407 0.499793 0.856571
2.724244 0.500709 0.857696
2.722025 0.468886 0.870218
2.780790 0.467845 0.868974
2.783842 0.476899 0.847118
2.723679 0.477815 0.848243
2.747501 0.549514 0.842943
2.744646 0.543521 0.837643
2.758277 0.540226 0.837300
2.762700 0.545533 0.842336
2.750757 0.564915 0.823811
2.747902 0.558923 0.818512
2.761533 0.555628 0.818169
2.765956 0.560935 0.823205
2.942709 0.459528 0.884111
2.896365 0.461507 0.886302
2.899690 0.445508 0.899295
2.949232 0.444129 0.896245
2.941116 0.443778 0.865054
2.894771 0.445756 0.867245
2.898097 0.429757 0.880237
2.947638 0.428378 0.877187
2.896322 0.461544 0.886275
2.849971 0.463544 0.888472
2.850116 0.446930 0.902347
2.899647 0.445545 0.899268
2.894718 0.445722 0.867277
2.848367 0.447722 0.869474
2.848512 0.431108 0.883349
2.898043 0.429723 0.880270
2.934490 0.476158 0.882035
2.891012 0.477480 0.883147
2.896116 0.456703 0.888757
2.942460 0.454724 0.886566
2.933384 0.470053 0.858049
2.889906 0.471374 0.859162
2.895009 0.450597 0.864772
2.941354 0.448618 0.862581
2.890987 0.478085 0.882978
2.847514 0.479406 0.884109
2.849740 0.459308 0.890785
2.896091 0.457308 0.888588
2.889841 0.470772 0.859334
2.846368 0.472094 0.860465
2.848594 0.451996 0.867141
2.894944 0.449995 0.864944
2.927531 0.500662 0.853545
2.887971 0.499941 0.854435
2.890696 0.484658 0.878147
2.934174 0.483337 0.877034
2.927045 0.480237 0.839531
2.887485 0.479516 0.840421
2.890210 0.464233 0.864133
2.933688 0.462912 0.863021
2.887919 0.500359 0.853784
2.848355 0.499645 0.854678
2.847171 0.486398 0.878627
2.890644 0.485076 0.877497
2.887453 0.479098 0.841073
2.847890 0.478384 0.841967
2.846706 0.465137 0.865916
2.890179 0.463816 0.864785
2.927424 0.496172 0.857516
2.892337 0.504538 0.853626
2.887863 0.495451 0.858406
2.927137 0.484749 0.835533
2.892051 0.493115 0.831643
2.887577 0.484028 0.836423
2.887839 0.495450 0.858407
2.892313 0.504536 0.853627
2.848275 0.494736 0.859301
2.887549 0.484028 0.836423
2.892023 0.493115 0.831643
2.847985 0.483314 0.837317
2.781691 0.483464 0.885358
2.785478 0.465228 0.892181
2.849667 0.459843 0.890610
2.847441 0.479941 0.883933
2.780580 0.475088 0.862068
2.784367 0.456852 0.868891
2.848556 0.451467 0.867320
2.846330 0.471565 0.860643
2.785598 0.468504 0.890396
2.783538 0.448042 0.904818
2.849933 0.446504 0.902700
2.849788 0.463119 0.888824
2.784249 0.453539 0.870697
2.782188 0.433077 0.885119
2.848583 0.431539 0.883001
2.848438 0.448153 0.869126
2.724638 0.467844 0.892352
2.726586 0.449320 0.907287
2.783210 0.448008 0.904862
2.785271 0.468470 0.890439
2.723819 0.452951 0.872570
2.725767 0.434426 0.887505
2.782391 0.433114 0.885080
2.784452 0.453576 0.870657
2.785181 0.465436 0.892115
2.781395 0.483671 0.885293
2.722629 0.484712 0.886537
2.724549 0.464810 0.894028
2.784539 0.456649 0.868959
2.780752 0.474885 0.862137
2.721986 0.475925 0.863382
2.723906 0.456024 0.870872
2.496687 0.472382 0.895634
2.494994 0.453739 0.913700
2.552820 0.452919 0.911883
2.553602 0.471514 0.894591
2.495988 0.455353 0.877651
2.494296 0.436711 0.895717
2.552121 0.435891 0.893900
2.552904 0.454485 0.876608
2.553669 0.471319 0.894768
2.552887 0.452725 0.912060
2.610711 0.451855 0.910199
2.610583 0.470454 0.893716
2.552952 0.454678 0.876428
2.552169 0.436083 0.893720
2.609994 0.435213 0.891859
2.609866 0.453812 0.875376
2.610636 0.470245 0.893899
2.610764 0.451646 0.910382
2.668587 0.450815 0.908557
2.667554 0.469373 0.892857
2.609928 0.454019 0.875190
2.610056 0.435420 0.891673
2.667879 0.434589 0.889848
2.666846 0.453146 0.874149
2.667610 0.469162 0.893034
2.668643 0.450605 0.908733
2.726471 0.449777 0.906930
2.724523 0.468301 0.891995
2.666905 0.453355 0.873969
2.667938 0.434798 0.889669
2.725766 0.433970 0.887865
2.723818 0.452495 0.872930
2.724475 0.464734 0.894059
2.722556 0.484635 0.886568
2.668114 0.484617 0.888150
2.667562 0.465594 0.895098
2.723864 0.456101 0.870844
2.721944 0.476003 0.863354
2.667503 0.475984 0.864935
2.666950 0.456961 0.871883
2.667507 0.465442 0.895154
2.668059 0.484465 0.888206
2.613620 0.484435 0.889789
2.610589 0.466315 0.896196
2.666894 0.457114 0.871829
2.667446 0.476137 0.864881
2.613008 0.476107 0.866463
2.609976 0.457987 0.872870
2.610535 0.466149 0.896255
2.613566 0.484269 0.889848
2.559125 0.484251 0.891430
2.553621 0.467015 0.897307
2.609919 0.458153 0.872814
2.612951 0.476273 0.866406
2.558510 0.476255 0.867989
2.553005 0.459019 0.873866
2.553563 0.466830 0.897370
2.559068 0.484066 0.891493
2.504628 0.484033 0.893075
2.496648 0.467698 0.898413
2.552951 0.459204 0.873806
2.558455 0.476440 0.867929
2.504016 0.476407 0.869510
2.496035 0.460072 0.874849
2.508983 0.505170 0.861089
2.504565 0.491190 0.887055
2.559005 0.491224 0.885473
2.562733 0.503930 0.860506
2.508508 0.483260 0.849533
2.504090 0.469280 0.875499
2.558529 0.469314 0.873918
2.562258 0.482020 0.848950
2.562785 0.504068 0.860236
2.559056 0.491361 0.885204
2.613497 0.491379 0.883621
2.616533 0.502833 0.859650
2.562315 0.481882 0.849218
2.558586 0.469175 0.874185
2.613027 0.469193 0.872603
2.616063 0.480648 0.848632
2.616583 0.502978 0.859345
2.613547 0.491524 0.883316
2.667985 0.491554 0.881734
2.670333 0.501733 0.858761
2.616122 0.480501 0.848934
2.613086 0.469047 0.872905
2.667524 0.469077 0.871323
2.669872 0.479257 0.848350
2.670382 0.501885 0.858417
2.668034 0.491706 0.881390
2.722476 0.491725 0.879809
2.724130 0.500654 0.857833
2.669931 0.479103 0.848692
2.667584 0.468924 0.871665
2.722026 0.468942 0.870084
2.723680 0.477871 0.848108
2.404392 0.474223 0.896734
2.404812 0.455353 0.915762
2.449840 0.454650 0.914603
2.450475 0.473417 0.896074
2.403752 0.456730 0.879200
2.404172 0.437861 0.898229
2.449201 0.437157 0.897070
2.449836 0.455925 0.878541
2.450516 0.473320 0.896169
2.449881 0.454553 0.914698
2.494908 0.453876 0.913572
2.496600 0.472518 0.895506
2.449887 0.456020 0.878445
2.449252 0.437253 0.896974
2.494279 0.436576 0.895848
2.495972 0.455219 0.877781
2.504532 0.483882 0.893125
2.454655 0.485820 0.893736
2.450466 0.468349 0.899126
2.496551 0.467547 0.898463
2.504009 0.476561 0.869462
2.454132 0.478499 0.870073
2.449943 0.461027 0.875464
2.496028 0.460225 0.874800
2.454603 0.485692 0.893776
2.404725 0.487621 0.894388
2.404331 0.469027 0.899826
2.450415 0.468221 0.899166
2.454087 0.478629 0.870034
2.404210 0.480558 0.870646
2.403815 0.461964 0.876084
2.449899 0.461158 0.875425
2.202714 0.478448 0.898524
2.197365 0.461209 0.917025
2.266440 0.459292 0.916481
2.269866 0.477105 0.897831
2.202130 0.460501 0.881453
2.196781 0.443262 0.899955
2.265855 0.441345 0.899411
2.269281 0.459158 0.880760
2.269924 0.477023 0.897914
2.266498 0.459210 0.916565
2.335573 0.457341 0.916069
2.337077 0.475691 0.897245
2.269359 0.459237 0.880676
2.265933 0.441424 0.899327
2.335008 0.439555 0.898831
2.336512 0.457905 0.880007
2.337138 0.475623 0.897313
2.335634 0.457273 0.916137
2.404711 0.455435 0.915684
2.404291 0.474305 0.896655
2.336588 0.457970 0.879939
2.335083 0.439620 0.898762
2.404160 0.437781 0.898309
2.403740 0.456651 0.879281
2.215818 0.511309 0.864605
2.211056 0.497921 0.887461
2.275540 0.496900 0.887838
2.277387 0.510050 0.863636
2.215370 0.489759 0.852389
2.210609 0.476372 0.875245
2.275093 0.475350 0.875623
2.276940 0.488501 0.851420
2.277450 0.510245 0.863277
2.275602 0.497094 0.887480
2.340086 0.496086 0.887862
2.339021 0.508992 0.862318
2.277004 0.488304 0.851778
2.275156 0.475154 0.875981
2.339640 0.474145 0.876363
2.338575 0.487052 0.850818
2.339085 0.509163 0.861978
2.340151 0.496256 0.887522
2.404635 0.495248 0.887911
2.400656 0.507907 0.861015
2.338636 0.486880 0.851158
2.339702 0.473973 0.876702
2.404186 0.472965 0.877091
2.400207 0.485624 0.850194
2.404108 0.469300 0.899744
2.404502 0.487894 0.894306
2.340018 0.488902 0.893917
2.336955 0.470618 0.900402
2.403925 0.461693 0.876166
2.404319 0.480288 0.870728
2.339835 0.481296 0.870339
2.336773 0.463012 0.876824
2.336902 0.471264 0.900175
2.339965 0.489547 0.893690
2.275481 0.490555 0.893307
2.269749 0.472595 0.900843
2.336694 0.462369 0.877052
2.339757 0.480653 0.870567
2.275273 0.481661 0.870185
2.269541 0.463701 0.877721
2.269698 0.473225 0.900581
2.275429 0.491186 0.893045
2.210946 0.492207 0.892668
2.202546 0.474568 0.901274
2.269461 0.463073 0.877983
2.275193 0.481033 0.870447
2.210709 0.482054 0.870070
2.202309 0.464416 0.878676
2.138511 0.480900 0.898111
2.140946 0.462310 0.917132
2.197251 0.461185 0.917053
2.202599 0.478424 0.898552
2.138027 0.463003 0.880985
2.140462 0.444414 0.900006
2.196767 0.443289 0.899927
2.202116 0.460528 0.881426
2.138199 0.492046 0.894703
2.138489 0.477020 0.900844
2.202578 0.474544 0.901284
2.210978 0.492183 0.892678
2.137765 0.481944 0.872086
2.138055 0.466917 0.878226
2.202143 0.464442 0.878667
2.210543 0.482081 0.870061
2.140071 0.512279 0.864162
2.138112 0.497724 0.889596
2.210890 0.497861 0.887571
2.215652 0.511249 0.864714
2.139819 0.490851 0.851728
2.137860 0.476296 0.877162
2.210638 0.476433 0.875137
2.215399 0.489821 0.852280
2.141600 0.519139 0.837732
2.140144 0.513656 0.860652
2.215725 0.512626 0.861205
2.219456 0.517853 0.836385
2.141207 0.494977 0.832269
2.139751 0.489494 0.855189
2.215332 0.488464 0.855742
2.219063 0.493690 0.830922
2.062159 0.481201 0.897550
2.062700 0.464298 0.915848
2.140666 0.462341 0.917104
2.138231 0.480930 0.898083
2.062097 0.463247 0.880478
2.062639 0.446343 0.898776
2.140605 0.444386 0.900033
2.138170 0.462976 0.881012
2.137830 0.491753 0.894832
2.063235 0.494375 0.893110
2.062048 0.476998 0.900439
2.138120 0.476727 0.900972
2.137990 0.482240 0.871957
2.063395 0.484861 0.870234
2.062208 0.467484 0.877564
2.138280 0.467213 0.878097
2.138170 0.497718 0.889604
2.140129 0.512273 0.864170
2.063460 0.514848 0.863261
2.063575 0.500340 0.887882
2.137651 0.476305 0.877153
2.139610 0.490861 0.851719
2.062941 0.493436 0.850809
2.063056 0.478927 0.875430
2.060617 0.521689 0.838438
2.063587 0.516174 0.859973
2.140257 0.513599 0.860882
2.141713 0.519082 0.837962
2.059843 0.497645 0.832516
2.062814 0.492130 0.854051
2.139483 0.489555 0.854960
2.140939 0.495038 0.832040
2.764550 0.552649 0.845144
2.841122 0.581580 0.845470
2.749765 0.582953 0.846859
2.749352 0.556629 0.845751
2.764147 0.553852 0.820402
2.840719 0.582783 0.820728
2.749362 0.584156 0.822116
2.748949 0.557833 0.821009
2.749261 0.556714 0.845756
2.749674 0.583038 0.846864
2.682178 0.584068 0.847828
2.684124 0.558184 0.846726
2.748920 0.557752 0.821005
2.749333 0.584075 0.822113
2.681836 0.585106 0.823076
2.683783 0.559221 0.821974
2.684058 0.558178 0.846726
2.682111 0.584063 0.847828
2.614609 0.585091 0.848824
2.618925 0.559659 0.847662
2.683717 0.559229 0.821976
2.681770 0.585113 0.823078
2.614269 0.586141 0.824074
2.618585 0.560709 0.822912
2.749059 0.549097 0.842733
2.683922 0.550567 0.843702
2.682077 0.544096 0.838169
2.746203 0.543105 0.837434
2.749121 0.565336 0.824022
2.683984 0.566806 0.824991
2.682139 0.560335 0.819458
2.746265 0.559344 0.818723
2.683858 0.550727 0.843839
2.618726 0.552207 0.844775
2.617885 0.545249 0.839037
