3.326903 1.125648 -0.785393
3.328270 1.092897 -0.783476
3.331504 1.093740 -0.803613
3.331182 1.114329 -0.802782
3.276294 1.123848 -0.795022
3.277661 1.091098 -0.793105
3.280895 1.091941 -0.813242
3.280572 1.112530 -0.812410
3.328427 1.092773 -0.784361
3.329023 1.080039 -0.784654
3.331864 1.084348 -0.804930
3.331661 1.093617 -0.804498
3.277506 1.091183 -0.792219
3.278101 1.078449 -0.792512
3.280943 1.082757 -0.812787
3.280739 1.092026 -0.812356
3.328875 1.080702 -0.783953
3.329757 1.054539 -0.783800
3.333754 1.056721 -0.802975
3.331716 1.085010 -0.804228
3.278251 1.077748 -0.793213
3.279134 1.051585 -0.793060
3.283130 1.053767 -0.812235
3.281092 1.082056 -0.813488
3.219017 1.127881 -0.764747
3.209725 1.094020 -0.762581
3.240492 1.094522 -0.761961
3.246188 1.128074 -0.763389
3.220811 1.124741 -0.816169
3.211519 1.090880 -0.814002
3.242286 1.091382 -0.813382
3.247982 1.124934 -0.814810
3.247196 1.127728 -0.763354
3.241501 1.094176 -0.761926
3.272246 1.094125 -0.761837
3.274428 1.127283 -0.763606
3.247031 1.125281 -0.814844
3.241336 1.091729 -0.813416
3.272081 1.091678 -0.813327
3.274263 1.124835 -0.815096
3.275115 1.127488 -0.763627
3.272933 1.094330 -0.761859
3.303689 1.093430 -0.762557
3.302322 1.126181 -0.764474
3.273634 1.124629 -0.815075
3.271453 1.091471 -0.813306
3.302209 1.090571 -0.814004
3.300842 1.123322 -0.815922
3.304091 1.079233 -0.762804
3.273770 1.077968 -0.762002
3.274378 1.052190 -0.762164
3.304974 1.053071 -0.762651
3.303001 1.079212 -0.814341
3.272680 1.077946 -0.813538
3.273287 1.052168 -0.813701
3.303884 1.053049 -0.814188
3.273249 1.077769 -0.761996
3.242877 1.076397 -0.761916
3.243223 1.051620 -0.762123
3.273857 1.051990 -0.762159
3.273140 1.078144 -0.813543
3.242768 1.076772 -0.813462
3.243113 1.051995 -0.813670
3.273747 1.052365 -0.813706
3.242518 1.076402 -0.761917
3.212312 1.074974 -0.762285
3.212328 1.051625 -0.762412
3.242863 1.051626 -0.762124
3.243066 1.076765 -0.813461
3.212860 1.075337 -0.813829
3.212876 1.051987 -0.813956
3.243411 1.051988 -0.813668
3.210198 1.092548 -0.762520
3.212163 1.075299 -0.762286
3.242370 1.076727 -0.761919
3.240965 1.093050 -0.761900
3.211040 1.092301 -0.814061
3.213006 1.075053 -0.813827
3.243213 1.076481 -0.813460
3.241808 1.092804 -0.813441
3.241417 1.092758 -0.761897
3.242822 1.076434 -0.761915
3.273194 1.077806 -0.761996
3.272162 1.092706 -0.761808
3.241417 1.093098 -0.813444
3.242822 1.076775 -0.813462
3.273194 1.078147 -0.813543
3.272162 1.093047 -0.813355
3.272828 1.092466 -0.761819
3.273860 1.077566 -0.762007
3.304181 1.078832 -0.762809
3.303585 1.091566 -0.762517
3.271558 1.093288 -0.813345
3.272589 1.078388 -0.813533
3.302910 1.079653 -0.814335
3.302314 1.092388 -0.814043
3.191696 1.124113 -0.762871
3.168176 1.125301 -0.763026
3.167609 1.094846 -0.762086
3.198247 1.090296 -0.762877
3.191005 1.123299 -0.814408
3.167485 1.124487 -0.814563
3.166918 1.094032 -0.813623
3.197556 1.089483 -0.814414
3.190298 1.096279 -0.769907
3.197068 1.098162 -0.767118
3.206360 1.132023 -0.769284
3.192213 1.133241 -0.779683
3.217367 1.084853 -0.812262
3.224137 1.086736 -0.809473
3.233429 1.120598 -0.811639
3.219283 1.121815 -0.822038
3.206514 1.127255 -0.768092
3.213065 1.093439 -0.768098
3.216016 1.093777 -0.769313
3.213728 1.129217 -0.774769
3.176219 1.120154 -0.809191
3.182770 1.086338 -0.809197
3.185722 1.086677 -0.810411
3.183434 1.122117 -0.815867
3.211991 1.130267 -0.773793
3.214279 1.094827 -0.768337
3.217230 1.095164 -0.769558
3.219145 1.132125 -0.779334
3.185181 1.121070 -0.816850
3.187469 1.085630 -0.811394
3.190420 1.085967 -0.812615
3.192335 1.122929 -0.822391
3.167232 1.076865 -0.762259
3.166885 1.067267 -0.761726
3.199937 1.051226 -0.762594
3.198634 1.074220 -0.762334
3.166345 1.076407 -0.813798
3.165999 1.066810 -0.813265
3.199050 1.050768 -0.814133
3.197747 1.073763 -0.813873
3.167656 1.094693 -0.762084
3.167180 1.076932 -0.762259
3.198582 1.074287 -0.762334
3.198294 1.090144 -0.762875
3.166873 1.094136 -0.813624
3.166396 1.076374 -0.813799
3.197799 1.073729 -0.813873
3.197511 1.089586 -0.814415
3.198017 1.073766 -0.762331
3.199320 1.050772 -0.762591
3.212384 1.051584 -0.762412
3.212367 1.074934 -0.762285
3.198410 1.074208 -0.813876
3.199713 1.051214 -0.814136
3.212776 1.052026 -0.813957
3.212760 1.075376 -0.813830
3.168058 1.150361 -0.784730
3.191578 1.149172 -0.784575
3.198792 1.151135 -0.791252
3.186654 1.151692 -0.800058
3.167613 1.099461 -0.792871
3.191133 1.098273 -0.792715
3.198347 1.100235 -0.799392
3.186209 1.100792 -0.808198
3.184464 1.151899 -0.802670
3.196603 1.151343 -0.793864
3.203757 1.153201 -0.799405
3.203063 1.153222 -0.817999
3.188424 1.100587 -0.805607
3.200563 1.100030 -0.796801
3.207717 1.101889 -0.802341
3.207023 1.101910 -0.820935
3.206137 1.153301 -0.799973
3.220283 1.152084 -0.789574
3.223989 1.153716 -0.819407
3.205443 1.153322 -0.818567
3.205367 1.101790 -0.801779
3.219513 1.100573 -0.791380
3.223219 1.102205 -0.821213
3.204673 1.101811 -0.820373
3.276242 1.151781 -0.789514
3.303449 1.150474 -0.790361
3.302903 1.149785 -0.799276
3.273267 1.152518 -0.815247
3.272506 1.100369 -0.789207
3.299714 1.099062 -0.790054
3.299168 1.098373 -0.798968
3.269531 1.101106 -0.814940
3.219860 1.152073 -0.789243
3.247030 1.152267 -0.787884
3.247339 1.153544 -0.818672
3.223566 1.153705 -0.819076
3.219978 1.100584 -0.791705
3.247149 1.100777 -0.790347
3.247457 1.102054 -0.821135
3.223684 1.102215 -0.821539
3.247756 1.152273 -0.788226
3.274988 1.151827 -0.788478
3.272013 1.152564 -0.814211
3.248065 1.153550 -0.819014
3.246474 1.100771 -0.790001
3.273706 1.100325 -0.790253
3.270731 1.101062 -0.815986
3.246783 1.102048 -0.820789
