-0.524638 0.693656 0.674922
-0.554814 0.693612 0.673772
-0.552328 0.650291 0.673328
-0.522152 0.650334 0.674478
-0.519315 0.695391 0.535174
-0.549492 0.695348 0.534024
-0.547006 0.652027 0.533580
-0.516829 0.652070 0.534730
-0.522149 0.650291 0.674478
-0.552326 0.650247 0.673328
-0.549840 0.606926 0.672884
-0.519663 0.606970 0.674034
-0.516827 0.652027 0.534730
-0.547004 0.651983 0.533580
-0.544518 0.608662 0.533137
-0.514341 0.608706 0.534286
-0.554844 0.693612 0.673771
-0.585021 0.693568 0.672621
-0.582535 0.650247 0.672177
-0.552358 0.650291 0.673327
-0.549522 0.695348 0.534023
-0.579698 0.695304 0.532873
-0.577213 0.651983 0.532429
-0.547036 0.652027 0.533579
-0.552356 0.650247 0.673327
-0.582533 0.650204 0.672177
-0.580047 0.606883 0.671733
-0.549870 0.606926 0.672883
-0.547034 0.651983 0.533579
-0.577210 0.651940 0.532429
-0.574724 0.608619 0.531986
-0.544548 0.608662 0.533135
-0.582477 0.765693 0.518860
-0.582490 0.765037 0.561312
-0.552314 0.765080 0.562462
-0.552301 0.765737 0.520010
-0.582193 0.625850 0.516697
-0.582206 0.625194 0.559150
-0.552029 0.625237 0.560299
-0.552016 0.625894 0.517847
-0.552271 0.765737 0.520011
-0.552284 0.765080 0.562463
-0.522107 0.765124 0.563613
-0.522094 0.765781 0.521161
-0.551986 0.625894 0.517848
-0.551999 0.625237 0.560300
-0.521822 0.625281 0.561450
-0.521810 0.625938 0.518998
-0.582490 0.765036 0.561355
-0.582503 0.764380 0.603807
-0.552327 0.764423 0.604957
-0.552314 0.765080 0.562505
-0.582206 0.625193 0.559192
-0.582219 0.624537 0.601644
-0.552042 0.624580 0.602794
-0.552029 0.625237 0.560342
-0.552284 0.765080 0.562506
-0.552296 0.764423 0.604958
-0.522120 0.764467 0.606108
-0.522107 0.765123 0.563656
-0.551999 0.625237 0.560343
-0.552012 0.624580 0.602795
-0.521835 0.624624 0.603945
-0.521822 0.625280 0.561493
-0.519290 0.696706 0.450184
-0.516804 0.653385 0.449740
-0.546980 0.653341 0.448591
-0.549466 0.696662 0.449034
-0.524612 0.694970 0.589932
-0.522126 0.651649 0.589488
-0.552303 0.651605 0.588339
-0.554788 0.694926 0.588782
-0.516801 0.653341 0.449740
-0.514315 0.610020 0.449297
-0.544492 0.609977 0.448147
-0.546978 0.653298 0.448590
-0.522124 0.651605 0.589488
-0.519638 0.608284 0.589044
-0.549814 0.608241 0.587895
-0.552300 0.651562 0.588338
-0.549496 0.696662 0.449033
-0.547010 0.653341 0.448589
-0.577187 0.653297 0.447440
-0.579673 0.696618 0.447883
-0.554819 0.694926 0.588781
-0.552333 0.651605 0.588337
-0.582509 0.651561 0.587188
-0.584995 0.694883 0.587631
-0.547008 0.653298 0.448589
-0.544522 0.609977 0.448146
-0.574698 0.609933 0.446996
-0.577184 0.653254 0.447439
-0.552330 0.651562 0.588337
-0.549844 0.608241 0.587893
-0.580021 0.608197 0.586744
-0.582507 0.651518 0.587187
-0.514313 0.609977 0.449296
-0.511827 0.566656 0.448853
-0.542004 0.566612 0.447703
-0.544489 0.609933 0.448146
-0.519635 0.608241 0.589044
-0.517149 0.564920 0.588601
-0.547326 0.564876 0.587451
-0.549812 0.608197 0.587894
-0.544519 0.609933 0.448145
-0.542034 0.566612 0.447702
-0.572210 0.566568 0.446552
-0.574696 0.609890 0.446995
-0.549842 0.608197 0.587893
-0.547356 0.564876 0.587450
-0.577533 0.564833 0.586300
-0.580018 0.608154 0.586743
-0.519661 0.606927 0.674034
-0.549837 0.606883 0.672884
-0.547352 0.563562 0.672441
-0.517175 0.563605 0.673590
-0.514339 0.608662 0.534286
-0.544515 0.608619 0.533136
-0.542029 0.565298 0.532693
-0.511853 0.565341 0.533842
-0.549868 0.606883 0.672883
-0.580044 0.606839 0.671733
-0.577558 0.563518 0.671290
-0.547382 0.563562 0.672439
-0.544545 0.608619 0.533135
-0.574722 0.608575 0.531985
-0.572236 0.565254 0.531542
-0.542059 0.565298 0.532691
