3.508084 0.529359 -0.161818
3.508479 0.530905 -0.180183
3.508821 0.539705 -0.171503
3.508305 0.535953 -0.156376
3.527548 0.530301 -0.162546
3.528023 0.532475 -0.180565
3.527953 0.541229 -0.171800
3.527628 0.537128 -0.156968
3.507044 0.542216 -0.194309
3.507951 0.550012 -0.183722
3.526626 0.543844 -0.194330
3.526964 0.551590 -0.183729
3.506362 0.559226 -0.200879
3.507575 0.564552 -0.190814
3.525427 0.560487 -0.200927
3.526021 0.565829 -0.190878
3.504051 0.567853 -0.197876
3.505896 0.573847 -0.189962
3.523664 0.569084 -0.198053
3.524586 0.574986 -0.190094
3.509049 0.548178 -0.163025
3.508475 0.542532 -0.150732
3.527803 0.549680 -0.163241
3.527637 0.543915 -0.151103
3.508657 0.558046 -0.173417
3.527096 0.559679 -0.173264
3.508635 0.570346 -0.180599
3.526479 0.571562 -0.180624
3.507656 0.579748 -0.181954
3.525404 0.580862 -0.181963
3.509199 0.556326 -0.154399
3.508678 0.549191 -0.145061
3.527662 0.557839 -0.154446
3.527639 0.550666 -0.145242
3.509262 0.565593 -0.163004
3.527254 0.567026 -0.162926
3.509618 0.576281 -0.169984
3.526827 0.577506 -0.169982
3.509393 0.585537 -0.173829
3.526188 0.586570 -0.173855
3.509456 0.564642 -0.145865
3.508904 0.555735 -0.139390
3.527527 0.566071 -0.145815
3.527691 0.557305 -0.139294
3.510231 0.573143 -0.152858
3.527511 0.574399 -0.152692
3.510559 0.582300 -0.159121
3.527125 0.583500 -0.159121
3.511082 0.591194 -0.165733
3.526919 0.592310 -0.165732
3.547023 0.531427 -0.163277
3.547561 0.534071 -0.180924
3.547035 0.542812 -0.172107
3.546863 0.538335 -0.157572
3.546213 0.545430 -0.194386
3.545931 0.553187 -0.183695
3.544494 0.561803 -0.200938
3.544393 0.567109 -0.190920
3.543251 0.570323 -0.198249
3.543200 0.576088 -0.190209
3.546488 0.551180 -0.163465
3.546681 0.545305 -0.151472
3.545536 0.561312 -0.173112
3.544193 0.572771 -0.180663
3.543068 0.581969 -0.181981
3.545976 0.559439 -0.154430
3.546510 0.552159 -0.145410
3.545071 0.568615 -0.162716
3.543999 0.578867 -0.169859
3.543028 0.587659 -0.173783
3.545517 0.567676 -0.145741
3.546343 0.559007 -0.139193
3.544673 0.576370 -0.152451
3.543831 0.584784 -0.159080
3.542941 0.593250 -0.165706
3.566502 0.532531 -0.164003
3.567099 0.535672 -0.181285
3.566069 0.544414 -0.172392
3.566083 0.539515 -0.158115
3.565799 0.547037 -0.194427
3.564835 0.554783 -0.183664
3.563543 0.563106 -0.200938
3.562720 0.568369 -0.190961
3.562834 0.571565 -0.198392
3.561760 0.577221 -0.190381
3.565185 0.552621 -0.163670
3.565732 0.546565 -0.151801
3.563975 0.562945 -0.172959
3.561906 0.573931 -0.180785
3.560728 0.583031 -0.182101
3.564334 0.560654 -0.154468
3.565435 0.553467 -0.145587
3.562850 0.569798 -0.162714
3.561024 0.579942 -0.169968
3.559687 0.588594 -0.173952
3.563556 0.568880 -0.145650
3.565237 0.560316 -0.139325
3.562176 0.576866 -0.152523
3.560412 0.585765 -0.158979
3.558806 0.594500 -0.165583
3.585960 0.533794 -0.164700
3.586640 0.537306 -0.181628
3.585081 0.545997 -0.172670
3.585426 0.540762 -0.158651
3.585377 0.548673 -0.194442
3.583586 0.556324 -0.183667
3.582630 0.564358 -0.201016
3.581005 0.569606 -0.191016
3.582423 0.572809 -0.198430
3.580370 0.578362 -0.190580
3.583941 0.554015 -0.163921
3.584967 0.547837 -0.152170
3.582415 0.564577 -0.172807
3.579748 0.575109 -0.180994
3.578479 0.584030 -0.182363
3.582995 0.561899 -0.154570
3.584475 0.554805 -0.145768
3.581200 0.570994 -0.162883
3.578567 0.580879 -0.170364
3.576789 0.589326 -0.174523
3.581768 0.570116 -0.145725
3.584042 0.561831 -0.139197
3.579641 0.577719 -0.152976
3.577447 0.585745 -0.159461
3.575079 0.593594 -0.166673
