4.297861 1.039864 0.318313
4.298781 1.039742 0.282227
4.263470 1.035438 0.280773
4.264924 1.015308 0.316605
4.300392 1.020044 0.318331
4.301311 1.019923 0.282245
4.266001 1.015619 0.280791
4.263568 1.035450 0.280707
4.298879 1.039754 0.282161
4.299280 1.039517 0.246057
4.264209 1.035525 0.244932
4.265904 1.015607 0.280786
4.301215 1.019911 0.282239
4.301616 1.019674 0.246136
4.266545 1.015683 0.245010
4.264247 1.035529 0.244888
4.299317 1.039521 0.246014
4.299284 1.039357 0.209974
4.264422 1.035371 0.209147
4.266508 1.015678 0.244982
4.301579 1.019670 0.246107
4.301546 1.019505 0.210068
4.266683 1.015520 0.209240
4.264470 1.035377 0.209092
4.299333 1.039362 0.209920
4.299033 1.038911 0.173695
4.264166 1.035289 0.173192
4.266635 1.015515 0.209222
4.301497 1.019500 0.210050
4.301197 1.019049 0.173825
4.266330 1.015427 0.173322
4.299098 1.038918 0.173778
4.300711 1.039335 0.124701
4.266068 1.035856 0.122204
4.264230 1.035296 0.173276
4.301134 1.019042 0.173655
4.302746 1.019460 0.124577
4.268104 1.015980 0.122080
4.266266 1.015421 0.173152
4.264175 1.035290 0.173347
4.266013 1.035849 0.122274
4.222553 1.031677 0.119890
4.223091 1.030697 0.172884
4.266244 1.015419 0.173078
4.268082 1.015979 0.122006
4.224622 1.011807 0.119622
4.225160 1.010826 0.172616
4.024879 0.777197 0.313530
3.990417 0.774222 0.313233
3.991064 0.774018 0.328896
4.025510 0.777278 0.328799
4.026680 0.757299 0.313376
3.992218 0.754324 0.313079
3.992865 0.754119 0.328741
4.027311 0.757380 0.328644
3.990419 0.774222 0.313284
3.955980 0.771168 0.313635
3.956770 0.771069 0.331412
3.991067 0.774017 0.328947
3.992147 0.754319 0.313029
3.957707 0.751264 0.313381
3.958497 0.751166 0.331157
3.992794 0.754114 0.328692
4.024954 0.777204 0.313484
4.025584 0.777285 0.328753
4.060625 0.780248 0.328181
4.063518 0.780619 0.313366
4.026678 0.757299 0.313422
4.027308 0.757379 0.328690
4.062349 0.760342 0.328118
4.065242 0.760713 0.313303
4.063495 0.780617 0.313315
4.060602 0.780246 0.328131
4.095530 0.783612 0.328128
4.102025 0.784057 0.314795
4.065338 0.760722 0.313353
4.062445 0.760351 0.328169
4.097372 0.763717 0.328166
4.103868 0.764162 0.314833
4.102125 0.784066 0.314756
4.095630 0.783621 0.328089
4.130529 0.786615 0.331399
4.140682 0.787449 0.318988
4.103841 0.764160 0.314877
4.097346 0.763715 0.328210
4.132245 0.766709 0.331519
4.142399 0.767544 0.319109
4.140731 0.787454 0.319026
4.130577 0.786620 0.331437
4.158515 0.789090 0.357706
4.162719 0.789347 0.335161
4.142412 0.767545 0.319095
4.132259 0.766711 0.331506
4.160197 0.769181 0.357775
4.164400 0.769438 0.335230
4.215929 1.004784 0.314389
4.216114 1.012100 0.353932
4.215882 1.021169 0.357571
4.215510 1.020126 0.315015
4.235900 1.005350 0.314196
4.236085 1.012666 0.353739
4.235853 1.021735 0.357378
4.235481 1.020692 0.314822
4.058557 0.946191 0.260755
4.054794 0.964926 0.252923
4.030705 0.965951 0.240426
4.067228 0.940758 0.243594
4.063466 0.959494 0.235762
4.039377 0.960519 0.223265
4.057319 0.944242 0.260430
4.083666 0.922063 0.280494
4.087414 0.934620 0.281839
4.068525 0.942660 0.243965
4.094872 0.920480 0.264029
4.098620 0.933037 0.265373
4.186384 0.781709 0.344423
4.183834 0.827985 0.343772
4.160745 0.821399 0.342669
4.163444 0.779767 0.345176
4.186665 0.781008 0.324457
4.184116 0.827285 0.323807
4.161026 0.820699 0.322703
4.163725 0.779067 0.325210
4.183314 0.827807 0.343756
4.179385 0.870525 0.343273
4.156014 0.857633 0.341567
4.160225 0.821221 0.342652
4.184629 0.827547 0.323821
4.180700 0.870265 0.323338
4.157328 0.857374 0.321632
4.161540 0.820961 0.322717
4.179176 0.870515 0.343258
4.174850 0.913101 0.342751
4.152749 0.894145 0.340776
4.155805 0.857624 0.341551
4.180901 0.870354 0.323353
4.176574 0.912939 0.322847
4.154473 0.893984 0.320872
4.157529 0.857463 0.321646
4.174868 0.913064 0.342753
4.170992 0.955690 0.342286
4.150113 0.930574 0.340655
4.152767 0.894109 0.340778
4.176549 0.913055 0.322844
4.172673 0.955681 0.322377
4.151794 0.930564 0.320746
4.154448 0.894099 0.320869
4.147093 1.000586 0.061768
4.128112 0.999412 0.102596
4.145947 1.000901 0.096894
4.148830 0.980683 0.062004
4.129849 0.979509 0.102831
4.147684 0.980998 0.097130
4.146070 1.000911 0.096883
4.124848 0.999926 0.133546
4.145170 1.001418 0.131998
4.147557 0.980989 0.097208
4.126334 0.980004 0.133871
4.146656 0.981496 0.132323
4.214515 1.004267 0.169029
4.214119 1.020495 0.172850
4.213580 1.021475 0.119855
4.214047 1.003863 0.123191
4.234488 1.004780 0.168828
4.234091 1.021007 0.172649
4.233553 1.021987 0.119655
4.234019 1.004376 0.122991
4.214046 1.003885 0.123138
4.213579 1.021497 0.119802
4.213013 1.021483 0.061222
4.213469 1.003788 0.067277
4.234019 1.004354 0.122938
4.233553 1.021966 0.119602
4.232986 1.021952 0.061022
4.233443 1.004258 0.067077
4.213469 1.003791 0.067226
4.213012 1.021486 0.061171
4.212703 1.020918 0.028443
4.213131 1.004208 0.031331
4.233443 1.004255 0.067036
4.232986 1.021950 0.060981
4.232676 1.021382 0.028254
4.233104 1.004673 0.031141
4.157547 0.779581 0.343159
4.134382 0.824209 0.325171
4.128117 0.818535 0.320188
4.135559 0.777687 0.327025
4.169564 0.779249 0.327201
4.146399 0.823877 0.309212
4.140135 0.818203 0.304230
4.147576 0.777355 0.311066
4.134196 0.824007 0.325029
4.114249 0.854128 0.309582
4.127932 0.818333 0.320047
4.146558 0.824143 0.309333
4.126610 0.854264 0.293885
4.140293 0.818470 0.304350
4.132969 0.819740 0.322032
4.094030 0.815464 0.318421
4.101853 0.775507 0.324637
4.140410 0.778891 0.328869
4.135230 0.816991 0.302371
4.096291 0.812715 0.298761
4.104114 0.772759 0.304976
4.142672 0.776143 0.309208
3.947703 0.759959 0.331714
3.941397 0.804573 0.308174
3.946913 0.760057 0.313938
3.967526 0.762303 0.330846
3.961220 0.806917 0.307307
3.966736 0.762402 0.313070
3.914305 0.757487 0.336948
3.909072 0.801032 0.308638
3.912424 0.757527 0.314336
3.934174 0.758802 0.335297
3.928941 0.802346 0.306987
3.932292 0.758841 0.312685
3.955930 0.771164 0.313467
3.921497 0.768122 0.313472
3.939181 0.769723 0.323901
3.957688 0.751262 0.313539
3.923255 0.748220 0.313544
3.940940 0.749820 0.323973
3.921408 0.768114 0.313613
3.923290 0.768074 0.336225
3.939093 0.769714 0.324042
3.923322 0.748226 0.313419
3.925204 0.748187 0.336031
3.941007 0.749827 0.323848
3.923401 0.768082 0.336361
3.956742 0.771065 0.331520
3.939204 0.769722 0.324178
3.925116 0.748181 0.335906
3.958457 0.751164 0.331066
3.940919 0.749821 0.323724
3.956810 0.771073 0.331376
3.956020 0.771172 0.313600
3.939272 0.769730 0.324034
3.958411 0.751158 0.331195
3.957621 0.751257 0.313418
3.940873 0.749815 0.323853
4.162641 0.789340 0.335145
4.158437 0.789083 0.357691
4.172999 0.790386 0.346729
4.164512 0.769449 0.335267
4.160308 0.769191 0.357813
4.174870 0.770494 0.346851
4.158512 0.789090 0.357790
4.185440 0.791429 0.360817
4.173074 0.790393 0.346829
4.160248 0.769185 0.357730
4.187175 0.771524 0.360757
4.174810 0.770488 0.346768
4.185549 0.791437 0.360720
4.185765 0.791297 0.334394
4.173184 0.790402 0.346731
4.187084 0.771517 0.360839
4.187300 0.771377 0.334512
4.174719 0.770481 0.346850
4.185678 0.791289 0.334304
4.162738 0.789348 0.335057
4.173097 0.790394 0.346641
4.187372 0.771383 0.334585
4.164432 0.769442 0.335339
4.174791 0.770488 0.346923
3.890214 1.030932 0.060779
3.890687 1.033953 0.032125
3.893230 1.014194 0.030458
3.892783 1.011189 0.059228
3.910026 1.033449 0.061361
3.910499 1.036470 0.032707
3.913042 1.016711 0.031039
3.912596 1.013706 0.059810
3.890356 1.023455 0.098291
3.890211 1.030931 0.060881
3.892781 1.011188 0.059330
3.892863 1.004204 0.093522
3.910173 1.025963 0.098735
3.910028 1.033439 0.061324
3.912598 1.013696 0.059773
3.912680 1.006712 0.093965
3.891009 1.011501 0.134459
3.890353 1.023473 0.098318
3.892860 1.004222 0.093548
3.893414 0.993526 0.126094
3.910833 1.013954 0.134920
3.910177 1.025926 0.098778
3.912684 1.006675 0.094009
3.913238 0.995980 0.126554
3.892062 0.995505 0.169187
3.891009 1.011502 0.134469
3.893414 0.993528 0.126103
3.894485 0.977512 0.160825
3.911888 0.997929 0.169698
3.910835 1.013926 0.134979
3.913240 0.995951 0.126614
3.914311 0.979935 0.161336
3.892058 0.995569 0.169079
3.894481 0.977576 0.160716
3.895662 0.955713 0.192246
3.893434 0.971319 0.204511
3.911894 0.997826 0.169875
3.914317 0.979833 0.161513
3.915498 0.957969 0.193043
3.913270 0.973575 0.205308
3.893437 0.971224 0.204792
3.895665 0.955618 0.192527
3.898018 0.931450 0.219770
3.896415 0.944117 0.235144
3.913271 0.973621 0.205090
3.915499 0.958015 0.192825
3.917852 0.933846 0.220068
3.916249 0.946514 0.235442
3.896387 0.944404 0.235052
3.897990 0.931736 0.219678
3.899848 0.902924 0.243403
3.898573 0.912764 0.260739
3.916281 0.946171 0.235586
3.917884 0.933504 0.220212
3.919743 0.904691 0.243937
3.918468 0.914531 0.261273
3.898576 0.912704 0.260866
3.899851 0.902864 0.243531
3.902664 0.867519 0.263806
3.901570 0.877390 0.281149
3.918470 0.914525 0.261190
3.919745 0.904685 0.243855
3.922558 0.869340 0.264130
3.921464 0.879211 0.281473
3.901572 0.877357 0.281209
3.902666 0.867486 0.263866
3.905624 0.833403 0.277939
3.904788 0.839907 0.296807
3.921468 0.879173 0.281448
3.922562 0.869302 0.264105
3.925520 0.835219 0.278179
3.924684 0.841723 0.297046
3.904808 0.839704 0.296908
3.905644 0.833200 0.278041
3.909472 0.796824 0.288147
3.909070 0.800661 0.307755
3.924672 0.841852 0.296971
3.925508 0.835348 0.278103
3.929336 0.798973 0.288209
3.928934 0.802809 0.307817
3.909043 0.800960 0.307803
3.909445 0.797124 0.288195
3.912237 0.757520 0.294274
3.912394 0.757455 0.313501
3.928968 0.802431 0.307786
3.929371 0.798594 0.288178
3.932163 0.758990 0.294257
3.932320 0.758926 0.313484
3.925683 1.038299 0.031660
3.928136 1.018559 0.030052
3.928189 1.015714 0.059186
3.925735 1.035512 0.060680
3.945511 1.040744 0.031860
3.947965 1.021004 0.030253
3.948018 1.018159 0.059387
3.945564 1.037957 0.060881
3.925736 1.035524 0.060566
3.928189 1.015726 0.059072
3.928163 1.008801 0.093609
3.925715 1.028042 0.098304
3.945564 1.037935 0.061060
3.948017 1.018137 0.059566
3.947991 1.011213 0.094103
3.945543 1.030453 0.098798
3.925714 1.028050 0.098306
3.928162 1.008809 0.093611
3.928531 0.997829 0.126777
3.926142 1.015864 0.135095
3.945544 1.030427 0.098868
3.947992 1.011186 0.094173
3.948361 1.000206 0.127339
3.945972 1.018242 0.135657
3.926144 1.015836 0.135153
3.928533 0.997800 0.126835
3.929595 0.981552 0.162380
3.927178 0.999530 0.170696
3.945971 1.018243 0.135670
3.948361 1.000207 0.127352
3.949423 0.983959 0.162897
3.947006 1.001937 0.171214
3.927396 0.974578 0.206679
3.929644 0.960023 0.193143
3.931437 0.934585 0.220730
3.929744 0.947074 0.236204
3.947242 0.976802 0.207302
3.949490 0.962247 0.193766
3.951283 0.936810 0.221353
3.949590 0.949298 0.236827
3.929727 0.947208 0.236308
3.931420 0.934719 0.220834
3.933500 0.905757 0.244208
3.932292 0.915527 0.261622
3.949611 0.949107 0.236776
3.951304 0.936619 0.221303
3.953384 0.907656 0.244677
3.952176 0.917426 0.262090
3.932291 0.915515 0.261730
3.933499 0.905745 0.244316
3.936444 0.870661 0.264236
3.935310 0.880417 0.281607
3.952182 0.917373 0.262026
3.953390 0.907603 0.244613
3.956335 0.872519 0.264532
3.955201 0.882275 0.281903
3.935293 0.880622 0.281590
3.936428 0.870866 0.264219
3.938358 0.837217 0.277934
3.937705 0.843736 0.296834
3.955223 0.881999 0.281954
3.956357 0.872243 0.264584
3.958287 0.838593 0.278298
3.957635 0.845113 0.297198
3.937728 0.843435 0.296996
3.938381 0.836916 0.278095
3.941810 0.801156 0.288078
3.941358 0.804838 0.307683
3.957617 0.845341 0.297061
3.958270 0.838822 0.278161
3.961698 0.803062 0.288143
3.961247 0.806744 0.307748
3.941397 0.804488 0.307669
3.941849 0.800806 0.288064
3.947136 0.760045 0.294161
3.946914 0.759973 0.313433
3.961217 0.807014 0.307778
3.961668 0.803332 0.288173
3.966955 0.762571 0.294269
3.966733 0.762499 0.313541
3.927398 0.974727 0.206312
3.927172 0.999726 0.170342
3.929590 0.981748 0.162025
3.929646 0.960172 0.192776
3.947238 0.976703 0.207607
3.947012 1.001701 0.171637
3.949430 0.983723 0.163321
3.949486 0.962147 0.194071
4.170147 0.956473 0.342148
4.150288 0.966493 0.337972
4.149268 0.931356 0.340517
4.173509 0.954953 0.322512
4.153650 0.964973 0.318336
4.152630 0.929836 0.320881
4.151797 0.969294 0.337490
4.171656 0.959274 0.341666
4.170013 0.999211 0.326500
4.152154 0.962215 0.318809
4.172012 0.952195 0.322985
4.170369 0.992132 0.307819
3.899384 1.045089 0.033401
3.898911 1.042068 0.062055
3.934405 1.046608 0.061766
3.934353 1.049395 0.032746
3.901835 1.025358 0.031432
3.901361 1.022337 0.060086
3.936856 1.026876 0.059797
3.936803 1.029664 0.030776
4.242312 1.030310 0.019226
4.239965 1.038353 0.027428
4.300733 1.033786 0.018320
4.243369 1.016216 0.033349
4.241023 1.024259 0.041551
4.301791 1.019692 0.032443
4.220912 1.031496 0.061063
4.224656 1.032323 0.071370
4.225110 1.032357 0.046547
4.225091 1.011958 0.061114
4.228834 1.012785 0.071421
4.229289 1.012819 0.046597
4.300800 1.039309 0.123773
4.302377 1.037106 0.095742
4.266158 1.035829 0.121276
4.302671 1.019486 0.125436
4.304248 1.017283 0.097405
4.268029 1.016007 0.122939
4.266308 1.035874 0.121851
4.302527 1.037150 0.096317
4.240389 1.033173 0.092376
4.222848 1.031701 0.119467
4.267815 1.015957 0.122351
4.304034 1.017233 0.096817
4.241896 1.013257 0.092875
4.224355 1.011785 0.119967
4.240118 1.041390 0.086573
4.238570 1.041117 0.034538
4.226936 1.038906 0.048008
4.227347 1.038882 0.070991
4.243913 1.021773 0.086539
4.242366 1.021501 0.034504
4.230731 1.019290 0.047974
4.231143 1.019266 0.070957
4.234482 1.035555 0.091794
4.221711 1.033048 0.076212
4.219220 1.026536 0.076634
4.233584 1.027194 0.097816
4.249549 1.027601 0.081358
4.236779 1.025094 0.065776
4.234288 1.018582 0.066198
4.248652 1.019240 0.087380
4.219713 1.032082 0.070968
4.219301 1.032106 0.047986
4.217677 1.025604 0.046567
4.217222 1.025570 0.071390
4.238763 1.026057 0.070978
4.238351 1.026081 0.047995
4.236726 1.019579 0.046576
4.236272 1.019546 0.071400
4.221389 1.032509 0.042249
4.233024 1.034720 0.028779
4.235370 1.026677 0.020577
4.219764 1.026007 0.040830
4.236277 1.025680 0.053691
4.247911 1.027891 0.040221
4.250258 1.019848 0.032018
4.234652 1.019177 0.052272
4.224538 1.032298 0.071439
4.220795 1.031470 0.061132
4.221361 1.031484 0.119712
4.228949 1.012811 0.071401
4.225206 1.011984 0.061094
4.225772 1.011997 0.119674
4.220518 1.031402 0.060930
4.224715 1.032263 0.046413
4.220208 1.030835 0.028203
4.225483 1.012051 0.061219
4.229680 1.012912 0.046702
4.225173 1.011483 0.028491
4.226118 1.032505 0.046037
4.241723 1.033176 0.025784
4.221611 1.031077 0.027827
4.228291 1.012670 0.047055
4.243896 1.013341 0.026801
4.223784 1.011242 0.028844
4.226108 1.032523 0.071556
4.222930 1.031709 0.119829
4.240472 1.033182 0.092738
4.227392 1.012586 0.071305
4.224215 1.011772 0.119578
4.241756 1.013244 0.092486
4.241157 1.037456 0.094617
4.240260 1.029096 0.100639
4.302399 1.033072 0.104580
4.242928 1.025701 0.078559
4.242031 1.017340 0.084580
4.304169 1.021317 0.088522
4.302004 1.036704 0.025334
4.241236 1.041271 0.034442
4.242784 1.041543 0.086477
4.304025 1.037159 0.096440
4.300541 1.016779 0.025494
4.239773 1.021345 0.034602
4.241321 1.021618 0.086637
4.302562 1.017233 0.096600
4.264500 1.036426 -0.060150
4.260738 1.035516 -0.016874
4.299822 1.037814 -0.018843
4.299163 1.039913 -0.063320
4.266018 1.016513 -0.060779
4.262256 1.015603 -0.017503
4.301340 1.017901 -0.019472
4.300681 1.020001 -0.063949
4.260909 1.035527 -0.016876
4.242273 1.033231 0.026531
4.300695 1.036708 0.025625
4.299994 1.037825 -0.018845
4.262074 1.015589 -0.017413
4.243438 1.013292 0.025994
4.301860 1.016769 0.025088
4.301159 1.017886 -0.019382
4.220893 1.031909 -0.057114
4.221343 1.031446 -0.009372
4.260443 1.035494 -0.017072
4.264205 1.036404 -0.060348
4.222923 1.012034 -0.057340
4.223373 1.011571 -0.009598
4.262473 1.015618 -0.017298
4.266235 1.016528 -0.060574
4.221337 1.031445 -0.009347
4.221688 1.031098 0.028403
4.241800 1.033197 0.026361
4.260436 1.035493 -0.017047
4.223369 1.011570 -0.009537
4.223720 1.011222 0.028214
4.243832 1.013321 0.026171
4.262468 1.015617 -0.017236
4.209111 1.006237 -0.354316
4.209166 1.021604 -0.354896
4.208759 1.022732 -0.397448
4.208775 1.013666 -0.393822
4.229090 1.006173 -0.354504
4.229145 1.021540 -0.355083
4.228738 1.022669 -0.397636
4.228754 1.013602 -0.394010
4.176804 0.783462 -0.387018
4.153884 0.781786 -0.385705
4.151655 0.824274 -0.383814
4.174743 0.830569 -0.386031
4.178429 0.782900 -0.367112
4.155509 0.781225 -0.365799
4.153280 0.823713 -0.363908
4.176368 0.830008 -0.366125
4.174372 0.830597 -0.385993
4.151284 0.824302 -0.383776
4.147620 0.860728 -0.382000
4.171030 0.873365 -0.384812
4.176734 0.830065 -0.366161
4.153646 0.823770 -0.363943
4.149981 0.860196 -0.362167
4.173392 0.872833 -0.364980
4.170857 0.873337 -0.384791
4.147446 0.860700 -0.381978
4.144868 0.897240 -0.380765
4.167069 0.915963 -0.383551
4.173559 0.872940 -0.364998
4.150148 0.860303 -0.362186
4.147570 0.896843 -0.360972
4.169771 0.915567 -0.363758
4.167135 0.915989 -0.383559
4.144933 0.897266 -0.380773
4.142742 0.933782 -0.380069
4.163932 0.958604 -0.382092
4.169700 0.915620 -0.363748
4.147499 0.896897 -0.360962
4.145307 0.933414 -0.360258
4.166498 0.958235 -0.362280
4.153768 0.791427 -0.375996
4.163575 0.792031 -0.389068
4.148562 0.790402 -0.399359
4.155608 0.771537 -0.375533
4.165416 0.772141 -0.388605
4.150403 0.770512 -0.398896
4.148423 0.790391 -0.399153
4.163436 0.792019 -0.388862
4.175136 0.793252 -0.403405
4.150556 0.770525 -0.399120
4.165569 0.772154 -0.388830
4.177268 0.773386 -0.403372
4.175300 0.793267 -0.403271
4.163600 0.792035 -0.388729
4.176713 0.793107 -0.376970
4.177123 0.773372 -0.403491
4.165423 0.772140 -0.388948
4.178535 0.773211 -0.377189
4.176884 0.793121 -0.377160
4.163771 0.792049 -0.388920
4.153964 0.791446 -0.375847
4.178350 0.773196 -0.376980
4.165238 0.772124 -0.388739
4.155431 0.771520 -0.375667
4.163205 0.959365 -0.381928
4.142015 0.934544 -0.379905
4.143664 0.969626 -0.376938
4.167216 0.957528 -0.362441
4.146026 0.932707 -0.360418
4.147675 0.967789 -0.357451
4.145277 0.972469 -0.376445
4.164345 1.001843 -0.365397
4.164818 0.962208 -0.381434
4.146076 0.964989 -0.357935
4.165143 0.994363 -0.346887
4.165617 0.954728 -0.362925
4.146506 0.781366 -0.381485
4.131539 0.812470 -0.361178
4.129592 0.836640 -0.358850
4.144277 0.823854 -0.379594
4.162850 0.781663 -0.369997
4.147884 0.812767 -0.349690
4.145936 0.836937 -0.347362
4.160621 0.824151 -0.368106
4.144109 0.823525 -0.379328
4.129424 0.836312 -0.358584
4.126036 0.867528 -0.355934
4.140445 0.859952 -0.377552
4.160783 0.824547 -0.368367
4.146098 0.837333 -0.347623
4.142710 0.868549 -0.344973
4.157119 0.860973 -0.366591
4.140366 0.860145 -0.377446
4.125957 0.867722 -0.355828
4.122809 0.901097 -0.352649
4.137787 0.896685 -0.376232
4.157191 0.860848 -0.366693
4.142782 0.868425 -0.345075
4.139634 0.901799 -0.341897
4.154613 0.897388 -0.365479
4.137695 0.896728 -0.376088
4.122716 0.901139 -0.352505
4.119606 0.935041 -0.349220
4.135504 0.933245 -0.375384
4.154699 0.897415 -0.365619
4.139721 0.901827 -0.342037
4.136610 0.935728 -0.338752
4.152508 0.933932 -0.364916
4.135471 0.934564 -0.375253
4.119573 0.936359 -0.349090
4.120301 0.970191 -0.343344
4.137120 0.969646 -0.372286
4.152540 0.932683 -0.365040
4.136642 0.934479 -0.338876
4.137370 0.968310 -0.333131
4.154189 0.967766 -0.362073
4.138821 0.974450 -0.371682
4.122002 0.974995 -0.342740
4.126626 1.000740 -0.319924
4.157888 1.003824 -0.360635
4.152501 0.963024 -0.362655
4.135683 0.963568 -0.333713
4.140307 0.989314 -0.310897
4.171569 0.992397 -0.351608
4.146510 0.781479 -0.381493
4.124237 0.779502 -0.350734
4.119145 0.813051 -0.342849
4.131544 0.812583 -0.361186
4.162830 0.781516 -0.369967
4.140557 0.779539 -0.339207
4.135465 0.813088 -0.331322
4.147864 0.812620 -0.349660
4.131462 0.812445 -0.361066
4.119063 0.812913 -0.342729
4.115378 0.841551 -0.338585
4.129514 0.836615 -0.358738
4.147933 0.812816 -0.349763
4.135534 0.813284 -0.331425
4.131849 0.841923 -0.327282
4.145985 0.836987 -0.347434
4.129466 0.836501 -0.358661
4.115330 0.841437 -0.338509
4.111536 0.872271 -0.334156
4.126078 0.867718 -0.356011
4.146027 0.837158 -0.347504
4.131891 0.842095 -0.327351
4.128097 0.872929 -0.322998
4.142639 0.868375 -0.344854
4.125970 0.867875 -0.355856
4.111429 0.872429 -0.334001
4.107596 0.904307 -0.328833
4.122822 0.901250 -0.352678
4.142739 0.868281 -0.345001
4.128198 0.872834 -0.323146
4.124365 0.904712 -0.317977
4.139591 0.901656 -0.341822
4.122743 0.901271 -0.352554
4.107516 0.904327 -0.328709
4.103283 0.936321 -0.322958
4.119632 0.935172 -0.349269
4.139663 0.901701 -0.341938
4.124437 0.904757 -0.318092
4.120203 0.936751 -0.312342
4.136553 0.935602 -0.338653
4.119688 0.936477 -0.349253
4.103338 0.937626 -0.322942
4.102050 0.969060 -0.314775
4.120416 0.970308 -0.343508
4.136494 0.934362 -0.338657
4.120144 0.935511 -0.312346
4.118856 0.966945 -0.304179
4.137222 0.968194 -0.332912
4.121646 0.974346 -0.342956
4.103281 0.973098 -0.314223
4.104272 0.997990 -0.291617
4.126271 1.000092 -0.320140
4.135994 0.964214 -0.333434
4.117628 0.962965 -0.304701
4.118620 0.987857 -0.282095
4.140618 0.989959 -0.310617
4.124275 0.779683 -0.350786
4.101978 0.777631 -0.320023
4.104112 0.812766 -0.321886
4.119184 0.813231 -0.342901
4.140482 0.779357 -0.339105
4.118185 0.777304 -0.308342
4.120319 0.812440 -0.310205
4.135390 0.812905 -0.331220
4.119092 0.812992 -0.342773
4.104021 0.812527 -0.321758
4.101434 0.842975 -0.318028
4.115407 0.841630 -0.338629
4.135478 0.813208 -0.331341
4.120406 0.812743 -0.310327
4.117819 0.843191 -0.306597
4.131792 0.841847 -0.327198
4.115259 0.841615 -0.338411
4.101286 0.842960 -0.317811
4.097298 0.874098 -0.312104
4.111466 0.872449 -0.334058
4.131933 0.841923 -0.327407
4.117960 0.843267 -0.306806
4.113972 0.874406 -0.301100
4.128139 0.872757 -0.323054
4.111388 0.872517 -0.333940
4.097220 0.874166 -0.311986
4.092347 0.905433 -0.304942
4.107555 0.904395 -0.328772
4.128209 0.872752 -0.323161
4.114042 0.874401 -0.301207
4.109168 0.905668 -0.294163
4.124376 0.904629 -0.317993
4.107515 0.904423 -0.328709
4.092307 0.905461 -0.304880
4.086826 0.936165 -0.296670
4.103281 0.936416 -0.322959
4.124407 0.904665 -0.318042
4.109199 0.905703 -0.294212
4.103718 0.936407 -0.286002
4.120173 0.936658 -0.312291
4.103340 0.937522 -0.322966
4.086885 0.937271 -0.296676
4.083201 0.967012 -0.286143
4.102052 0.968956 -0.314799
4.120107 0.935614 -0.312268
4.103652 0.935364 -0.285979
4.099968 0.965105 -0.275445
4.118819 0.967048 -0.304101
4.102979 0.972416 -0.314432
4.084128 0.970472 -0.285777
4.082034 0.995106 -0.263282
4.103971 0.997307 -0.291826
4.117889 0.963644 -0.304435
4.099038 0.961700 -0.275780
4.096944 0.986335 -0.253285
4.118881 0.988536 -0.281829
4.101872 0.777668 -0.319872
4.093436 0.811714 -0.306591
4.104007 0.812803 -0.321735
4.118266 0.777277 -0.308457
4.109829 0.811323 -0.295176
4.120400 0.812413 -0.310320
4.103997 0.812648 -0.321725
4.093426 0.811558 -0.306580
4.088361 0.841995 -0.299159
4.101410 0.843096 -0.317995
4.120404 0.812621 -0.310322
4.109833 0.811532 -0.295178
4.104768 0.841969 -0.287757
4.117817 0.843070 -0.306593
4.101302 0.843189 -0.317836
4.088254 0.842088 -0.299000
4.083650 0.873368 -0.291001
4.097314 0.874327 -0.312130
4.117917 0.843039 -0.306739
4.104868 0.841938 -0.287903
4.100264 0.873218 -0.279904
4.113928 0.874178 -0.301033
4.097198 0.874230 -0.311952
4.083533 0.873270 -0.290823
4.077616 0.904468 -0.281603
4.092325 0.905496 -0.304908
4.114035 0.874338 -0.301196
4.100371 0.873378 -0.280067
4.094454 0.904576 -0.270847
4.109162 0.905605 -0.294152
4.092265 0.905528 -0.304813
4.077557 0.904499 -0.281509
4.070710 0.934724 -0.270601
4.086784 0.936232 -0.296603
4.109210 0.905635 -0.294229
4.094502 0.904606 -0.270924
4.087656 0.934831 -0.260016
4.103730 0.936340 -0.286019
4.086842 0.937002 -0.296650
4.070768 0.935493 -0.270647
4.064281 0.964257 -0.257688
4.083158 0.966743 -0.286116
4.103660 0.935630 -0.285951
4.087587 0.934121 -0.259949
4.081099 0.962885 -0.246989
4.099976 0.965371 -0.275417
4.083846 0.969723 -0.285947
4.064969 0.967237 -0.257519
4.063788 0.992601 -0.240137
4.081752 0.994357 -0.263453
4.099281 0.962445 -0.275555
4.080404 0.959960 -0.247126
4.079223 0.985323 -0.229745
4.097187 0.987079 -0.253060
4.101946 0.777733 -0.319974
4.079724 0.775666 -0.289158
4.078831 0.809073 -0.286348
4.093510 0.811779 -0.306693
4.118169 0.777198 -0.308324
4.095947 0.775131 -0.277507
4.095054 0.808538 -0.274698
4.109732 0.811243 -0.295043
4.093408 0.811705 -0.306552
4.078730 0.808999 -0.286207
4.075521 0.838496 -0.279992
4.088343 0.842142 -0.299131
4.109825 0.811381 -0.295169
4.095147 0.808676 -0.274824
4.091939 0.838172 -0.268610
4.104761 0.841818 -0.287748
4.088197 0.842228 -0.298912
4.075376 0.838582 -0.279773
4.070524 0.870024 -0.270882
4.083594 0.873508 -0.290913
4.104897 0.841794 -0.287952
4.092075 0.838148 -0.268813
4.087224 0.869590 -0.259922
4.100294 0.873074 -0.279952
4.083514 0.873386 -0.290792
4.070444 0.869903 -0.270762
4.063741 0.901646 -0.259432
4.077597 0.904584 -0.281573
4.100363 0.873258 -0.280054
4.087292 0.869775 -0.260024
4.080589 0.901518 -0.248694
4.094446 0.904456 -0.270834
4.077537 0.904552 -0.281478
4.063681 0.901614 -0.259337
4.055188 0.932103 -0.245628
4.070691 0.934777 -0.270570
4.094491 0.904549 -0.270907
4.080635 0.901611 -0.248766
4.072142 0.932100 -0.235056
4.087645 0.934774 -0.259999
4.070739 0.935176 -0.270632
4.055235 0.932503 -0.245690
4.045826 0.961077 -0.229701
4.064251 0.963941 -0.257673
4.087582 0.934433 -0.259910
4.072079 0.931759 -0.234968
4.062669 0.960334 -0.218979
4.081094 0.963197 -0.246951
4.064754 0.966398 -0.257711
4.046329 0.963535 -0.229739
4.040288 0.989411 -0.210056
4.063573 0.991762 -0.240329
4.080580 0.960794 -0.246880
4.062155 0.957930 -0.218907
4.056114 0.983806 -0.199225
4.079399 0.986158 -0.229498
4.075430 0.838714 -0.279848
4.063309 0.836777 -0.262260
4.058182 0.869409 -0.252278
4.070578 0.870157 -0.270957
4.091996 0.838011 -0.268701
4.079876 0.836074 -0.251113
4.074748 0.868705 -0.241131
4.087144 0.869453 -0.259810
4.070652 0.869984 -0.271073
4.058256 0.869236 -0.252394
4.054190 0.896674 -0.246682
4.063949 0.901727 -0.259743
4.087059 0.869687 -0.259675
4.074663 0.868939 -0.240996
4.070598 0.896377 -0.235284
4.080356 0.901430 -0.248345
4.063908 0.902006 -0.259671
4.054150 0.896952 -0.246610
4.042002 0.930845 -0.225650
4.055415 0.932495 -0.245961
4.080381 0.901213 -0.248392
4.070623 0.896160 -0.235331
4.058476 0.930052 -0.214371
4.071888 0.931702 -0.234683
4.055270 0.932459 -0.245745
4.041857 0.930809 -0.225434
4.028296 0.958285 -0.202682
4.045860 0.961034 -0.229756
4.072012 0.931798 -0.234862
4.058599 0.930148 -0.214551
4.045038 0.957623 -0.191798
4.062603 0.960372 -0.218873
4.046151 0.962531 -0.229900
4.028586 0.959782 -0.202825
4.015473 0.985947 -0.178215
4.040110 0.988407 -0.210217
4.062291 0.958929 -0.218688
4.044726 0.956180 -0.191613
4.031613 0.982344 -0.167002
4.056250 0.984805 -0.199005
4.217600 1.014025 -0.106478
4.217174 1.014234 -0.147744
4.205081 1.008750 -0.145001
4.225819 0.995815 -0.106655
4.225393 0.996024 -0.147921
4.213300 0.990539 -0.145178
4.220033 1.014762 -0.106896
4.207514 1.009486 -0.145419
4.179790 1.006757 -0.142646
4.183063 1.006734 -0.105619
4.223350 0.995071 -0.106220
4.210831 0.989795 -0.144743
4.183106 0.987066 -0.141971
4.186380 0.987042 -0.104944
4.183788 1.006832 -0.105165
4.180514 1.006856 -0.142192
4.149429 1.004127 -0.140069
4.141784 1.002906 -0.103183
4.185587 0.986935 -0.105394
4.182313 0.986958 -0.142421
4.151228 0.984230 -0.140298
4.143583 0.983008 -0.103412
4.141909 1.002916 -0.103202
4.149555 1.004138 -0.140088
4.117712 1.001466 -0.139914
4.109246 1.000787 -0.102217
4.143389 0.982992 -0.103390
4.151034 0.984214 -0.140276
4.119191 0.981542 -0.140102
4.110726 0.980862 -0.102406
4.109264 1.000788 -0.102318
4.117729 1.001468 -0.140015
4.085953 0.999147 -0.143801
4.076613 0.998647 -0.101337
4.110644 0.980856 -0.102305
4.119109 0.981536 -0.140002
4.087333 0.979215 -0.143788
4.077993 0.978714 -0.101324
4.217795 1.014486 -0.147577
4.217348 1.014695 -0.188847
4.199024 1.008611 -0.183653
4.205703 1.009002 -0.144834
4.224763 0.995769 -0.148155
4.224315 0.995978 -0.189425
4.205992 0.989895 -0.184231
4.212671 0.990285 -0.145412
4.208256 1.009587 -0.145020
4.201577 1.009197 -0.183839
4.175710 1.006947 -0.178921
4.180531 1.006858 -0.142247
4.210076 0.989691 -0.145218
4.203397 0.989301 -0.184037
4.177530 0.987051 -0.179119
4.182351 0.986962 -0.142445
4.180534 1.006858 -0.142216
4.175713 1.006947 -0.178890
4.148425 1.004439 -0.175076
4.149449 1.004129 -0.140093
4.182293 0.986957 -0.142470
4.177472 0.987046 -0.179144
4.150185 0.984538 -0.175330
4.151208 0.984229 -0.140347
4.149465 1.004131 -0.140105
4.148442 1.004441 -0.175088
4.121216 1.002147 -0.173884
4.117622 1.001459 -0.139931
4.151133 0.984222 -0.140331
4.150110 0.984532 -0.175314
4.122884 0.982238 -0.174110
4.119290 0.981550 -0.140157
4.117665 1.001463 -0.139946
4.121258 1.002151 -0.173898
4.095042 1.000107 -0.177347
4.085888 0.999142 -0.143732
4.119189 0.981542 -0.140146
4.122782 0.982230 -0.174098
4.096566 0.980186 -0.177547
4.087412 0.979222 -0.143932
4.217953 1.014902 -0.188990
4.217551 1.015109 -0.230256
4.196139 1.009005 -0.223090
4.199629 1.008818 -0.183797
4.223705 0.995771 -0.189362
4.223303 0.995978 -0.230627
4.201891 0.989875 -0.223461
4.205381 0.989688 -0.184168
4.201616 1.009201 -0.183866
4.198126 1.009387 -0.223159
4.172605 1.007027 -0.215779
4.175749 1.006950 -0.178948
4.203349 0.989297 -0.184086
4.199859 0.989484 -0.223379
4.174338 0.987124 -0.215999
4.177482 0.987047 -0.179168
4.175737 1.006949 -0.178926
4.172593 1.007026 -0.215757
4.147451 1.004905 -0.208891
4.148450 1.004442 -0.175112
4.177443 0.987044 -0.179178
4.174298 0.987120 -0.216010
4.149157 0.985000 -0.209144
4.150156 0.984536 -0.175365
4.148426 1.004439 -0.175088
4.147427 1.004903 -0.208867
4.123956 1.002777 -0.204422
4.121199 1.002146 -0.173884
4.150128 0.984534 -0.175381
4.149129 0.984997 -0.209160
4.125658 0.982872 -0.204714
4.122902 0.982241 -0.174176
4.121226 1.002149 -0.173902
4.123983 1.002780 -0.204440
4.103264 1.001105 -0.205092
4.095010 1.000105 -0.177351
4.122826 0.982234 -0.174157
4.125583 0.982865 -0.204696
4.104864 0.981191 -0.205348
4.096610 0.980190 -0.177606
4.217810 1.015185 -0.230354
4.217332 1.015401 -0.271629
4.193528 1.009040 -0.263637
4.196398 1.009081 -0.223188
4.223040 0.995903 -0.230610
4.222561 0.996119 -0.271884
4.198758 0.989759 -0.263893
4.201628 0.989799 -0.223444
4.198151 1.009390 -0.223222
4.195281 1.009350 -0.263671
4.169133 1.007212 -0.253869
4.172630 1.007030 -0.215842
4.199827 0.989481 -0.223394
4.196957 0.989441 -0.263843
4.170809 0.987303 -0.254041
4.174306 0.987121 -0.216014
4.172612 1.007028 -0.215809
4.169115 1.007210 -0.253836
4.145159 1.005032 -0.242430
4.147471 1.004907 -0.208943
4.174273 0.987118 -0.216029
4.170776 0.987300 -0.254056
4.146820 0.985123 -0.242651
4.149132 0.984998 -0.209163
4.147429 1.004904 -0.208928
4.145117 1.005029 -0.242415
4.124165 1.003189 -0.231899
4.123958 1.002778 -0.204483
4.149127 0.984997 -0.209162
4.146815 0.985122 -0.242649
4.125863 0.983283 -0.232133
4.125656 0.982872 -0.204717
4.123961 1.002778 -0.204465
4.124168 1.003189 -0.231881
4.109215 1.001820 -0.224863
4.103242 1.001104 -0.205117
4.125613 0.982868 -0.204724
4.125820 0.983279 -0.232140
4.110868 0.981910 -0.225122
4.104895 0.981194 -0.205376
4.217578 1.015465 -0.271626
4.217196 1.015688 -0.312883
4.189733 1.009295 -0.306651
4.193775 1.009104 -0.263635
4.222311 0.996056 -0.271970
4.221929 0.996280 -0.313227
4.194466 0.989887 -0.306995
4.198508 0.989695 -0.263979
4.195279 1.009350 -0.263709
4.191237 1.009541 -0.306725
4.163792 1.006987 -0.295187
4.169131 1.007212 -0.253907
4.196951 0.989441 -0.263887
4.192910 0.989632 -0.306903
4.165465 0.987077 -0.295365
4.170803 0.987303 -0.254085
4.169122 1.007211 -0.253903
4.163784 1.006986 -0.295184
4.140018 1.005004 -0.277370
4.145166 1.005034 -0.242498
4.170761 0.987299 -0.254062
4.165422 0.987074 -0.295343
4.141656 0.985092 -0.277529
4.146804 0.985121 -0.242657
4.145146 1.005031 -0.242450
4.139999 1.005002 -0.277322
4.118759 1.003047 -0.258170
4.124195 1.003192 -0.231934
4.146778 0.985120 -0.242676
4.141631 0.985090 -0.277548
4.120391 0.983135 -0.258396
4.125827 0.983280 -0.232160
4.124177 1.003190 -0.231899
4.118741 1.003045 -0.258135
4.100351 1.001332 -0.238643
4.109225 1.001821 -0.224881
4.125806 0.983279 -0.232166
4.120370 0.983134 -0.258402
4.101979 0.981420 -0.238910
4.110854 0.981909 -0.225148
4.109232 1.001821 -0.224860
4.100358 1.001332 -0.238623
4.085020 0.999758 -0.215089
4.103259 1.001105 -0.205115
4.110819 0.981906 -0.225133
4.101945 0.981417 -0.238896
4.086607 0.979843 -0.215362
4.104846 0.981190 -0.205387
4.103259 1.001105 -0.205110
4.085020 0.999758 -0.215085
4.069754 0.998266 -0.187467
4.095005 1.000104 -0.177369
4.104824 0.981188 -0.205342
4.086585 0.979841 -0.215317
4.071319 0.978349 -0.187698
4.096570 0.980187 -0.177601
4.094988 1.000103 -0.177364
4.069736 0.998265 -0.187461
4.054259 0.996690 -0.156576
4.085834 0.999138 -0.143748
4.096564 0.980186 -0.177546
4.071312 0.978348 -0.187644
4.055835 0.976773 -0.156758
4.087410 0.979221 -0.143931
4.085927 0.999145 -0.143881
4.054352 0.996697 -0.156708
4.038840 0.996079 -0.123150
4.076587 0.998645 -0.101417
4.087292 0.979213 -0.143728
4.055718 0.976765 -0.156556
4.040205 0.976146 -0.122997
4.077953 0.978712 -0.101264
4.217277 1.015709 -0.313045
4.216803 1.015917 -0.354314
4.191464 1.009876 -0.355186
4.189814 1.009316 -0.306813
4.221846 0.996259 -0.313152
4.221373 0.996467 -0.354420
4.196033 0.990426 -0.355292
4.194384 0.989866 -0.306920
4.191290 1.009546 -0.306724
4.192940 1.010105 -0.355097
4.163982 1.008085 -0.355967
4.163845 1.006991 -0.295187
4.192853 0.989629 -0.307001
4.194503 0.990188 -0.355373
4.165546 0.988168 -0.356243
4.165408 0.987074 -0.295463
4.163856 1.006991 -0.295143
4.163994 1.008085 -0.355924
4.132732 1.005001 -0.315213
4.140090 1.005009 -0.277329
4.165341 0.987069 -0.295471
4.165479 0.988163 -0.356252
4.134217 0.985079 -0.315541
4.141575 0.985087 -0.277657
4.140043 1.005006 -0.277313
4.132685 1.004997 -0.315197
4.110686 1.002895 -0.286675
4.118803 1.003051 -0.258161
4.141573 0.985087 -0.277621
4.134215 0.985078 -0.315504
4.112216 0.982976 -0.286982
4.120333 0.983132 -0.258468
4.118767 1.003047 -0.258134
4.110650 1.002892 -0.286648
4.088713 1.000691 -0.258104
4.100376 1.001334 -0.238643
4.120328 0.983131 -0.258447
4.112211 0.982976 -0.286961
4.090274 0.980775 -0.258417
4.101937 0.981417 -0.238955
4.100351 1.001332 -0.238627
4.088688 1.000689 -0.258088
4.070724 0.998933 -0.234773
4.085014 0.999758 -0.215093
4.101925 0.981416 -0.238924
4.090262 0.980773 -0.258385
4.072298 0.979017 -0.235070
4.086587 0.979842 -0.215390
4.084976 0.999755 -0.215091
4.070686 0.998930 -0.234771
4.047401 0.996578 -0.204498
4.069709 0.998263 -0.187473
4.086589 0.979842 -0.215339
4.072300 0.979017 -0.235019
4.049015 0.976665 -0.204746
4.071323 0.978350 -0.187720
4.069649 0.998258 -0.187468
4.047341 0.996573 -0.204494
4.022704 0.994113 -0.172491
4.054172 0.996683 -0.156583
4.071344 0.978351 -0.187664
4.049036 0.976666 -0.204690
4.024399 0.974206 -0.172687
4.055867 0.976776 -0.156779
4.054077 0.996675 -0.156745
4.022610 0.994105 -0.172653
4.000659 0.991839 -0.144114
4.038565 0.996056 -0.123186
4.055923 0.976781 -0.156555
4.024455 0.974211 -0.172463
4.002504 0.971946 -0.143924
4.040411 0.976163 -0.122996
3.916420 0.760865 -0.254609
3.913434 0.798971 -0.249406
3.950143 0.802401 -0.251063
3.950834 0.764008 -0.255506
3.917358 0.758412 -0.234803
3.914372 0.796519 -0.229599
3.951081 0.799949 -0.231256
3.951772 0.761556 -0.235699
3.913260 0.800190 -0.249170
3.909842 0.833872 -0.240637
3.946455 0.837562 -0.242061
3.949969 0.803620 -0.250827
3.914541 0.795372 -0.229822
3.911123 0.829053 -0.221289
3.947736 0.832743 -0.222713
3.951250 0.798802 -0.231479
3.909772 0.834859 -0.240333
3.906866 0.867510 -0.228397
3.942522 0.871406 -0.229698
3.946386 0.838549 -0.241757
3.911185 0.828133 -0.221572
3.908280 0.860785 -0.209636
3.943935 0.864680 -0.210937
3.947799 0.831823 -0.222996
3.906747 0.868490 -0.227977
3.904337 0.899741 -0.212648
3.938311 0.903114 -0.214240
3.942403 0.872386 -0.229278
3.908393 0.859869 -0.210028
3.905983 0.891119 -0.194700
3.939957 0.894492 -0.196291
3.944048 0.863764 -0.211330
3.904251 0.900843 -0.212023
3.902274 0.930054 -0.193098
3.933805 0.932775 -0.194674
3.938225 0.904217 -0.213615
3.906062 0.890076 -0.195290
3.904084 0.919287 -0.176365
3.935615 0.922007 -0.177941
3.940036 0.893449 -0.196882
3.902233 0.931148 -0.192281
3.900710 0.957572 -0.169542
3.929058 0.959720 -0.171277
3.933764 0.933869 -0.193857
3.904119 0.918248 -0.177141
3.902596 0.944672 -0.154402
3.930944 0.946819 -0.156137
3.935650 0.920968 -0.178717
3.900543 0.958462 -0.168661
3.898544 0.981588 -0.142528
3.932431 0.984799 -0.145230
3.928892 0.960609 -0.170396
3.902760 0.943833 -0.155234
3.900761 0.966959 -0.129101
3.934648 0.970170 -0.131803
3.931109 0.945980 -0.156970
3.950651 0.764040 -0.255491
3.949961 0.802433 -0.251048
3.986825 0.806622 -0.252605
3.990419 0.767669 -0.258278
3.952028 0.761531 -0.235717
3.951338 0.799924 -0.231275
3.988202 0.804113 -0.232831
3.991796 0.765159 -0.238504
3.949987 0.803673 -0.250815
3.946473 0.837615 -0.242048
3.982794 0.842745 -0.243112
3.986851 0.807862 -0.252372
3.951305 0.798757 -0.231494
3.947791 0.832699 -0.222727
3.984112 0.837830 -0.223791
3.988169 0.802946 -0.233051
3.946384 0.838551 -0.241756
3.942521 0.871408 -0.229697
3.977910 0.876201 -0.230766
3.982705 0.843681 -0.242819
3.947872 0.831830 -0.222999
3.944009 0.864687 -0.210941
3.979398 0.869480 -0.212009
3.984193 0.836961 -0.224063
3.942377 0.872324 -0.229306
3.938286 0.903052 -0.214267
3.972524 0.905828 -0.216461
3.977767 0.877117 -0.230374
3.944143 0.863833 -0.211306
3.940052 0.894562 -0.196267
3.974291 0.897337 -0.198461
3.979533 0.868627 -0.212374
3.938195 0.904230 -0.213602
3.933774 0.932788 -0.194662
3.965795 0.934700 -0.197124
3.972434 0.907006 -0.215796
3.940132 0.893441 -0.196898
3.935711 0.921999 -0.177957
3.967732 0.923911 -0.180419
3.974371 0.896217 -0.199092
3.933775 0.933866 -0.193861
3.929070 0.959717 -0.171281
3.957980 0.961377 -0.173519
3.965796 0.935777 -0.196323
3.935699 0.920976 -0.178717
3.930993 0.946827 -0.156137
3.959904 0.948487 -0.158375
3.967719 0.922887 -0.181178
3.929007 0.960487 -0.170545
3.932547 0.984677 -0.145378
3.966488 0.987185 -0.148153
3.957918 0.962148 -0.172783
3.931055 0.946106 -0.156826
3.934594 0.970296 -0.131660
3.968536 0.972804 -0.134435
3.959966 0.947767 -0.159064
3.990552 0.767874 -0.258258
3.986958 0.806828 -0.252586
4.032098 0.810053 -0.254546
4.036765 0.772150 -0.260722
3.991747 0.764961 -0.238528
3.988152 0.803915 -0.232855
4.033293 0.807140 -0.234815
4.037960 0.769237 -0.240991
3.987004 0.807974 -0.252352
3.982946 0.842857 -0.243092
4.026089 0.844673 -0.244799
4.032144 0.811199 -0.254312
3.988097 0.802841 -0.233074
3.984040 0.837725 -0.223814
4.027183 0.839540 -0.225521
4.033238 0.806067 -0.235034
3.983007 0.843771 -0.242807
3.978213 0.876291 -0.230753
4.018468 0.877758 -0.232117
4.026150 0.845587 -0.244513
3.983968 0.836878 -0.224078
3.979174 0.869397 -0.212024
4.019429 0.870865 -0.213388
4.027111 0.838693 -0.225785
3.978287 0.877241 -0.230352
3.973044 0.905952 -0.216438
4.009373 0.909100 -0.216240
4.018542 0.878708 -0.231715
3.979086 0.868509 -0.212399
3.973844 0.897219 -0.198485
4.010173 0.900368 -0.198287
4.019341 0.869976 -0.213762
3.972956 0.907065 -0.215804
3.966317 0.934758 -0.197131
3.998809 0.938294 -0.196925
4.009285 0.910213 -0.215605
3.973917 0.896164 -0.199087
3.967277 0.923858 -0.180414
3.999769 0.927394 -0.180208
4.010245 0.899312 -0.198888
3.966013 0.935735 -0.196383
3.958198 0.961335 -0.173580
3.986890 0.964505 -0.174372
3.998505 0.939271 -0.196177
3.967563 0.922934 -0.181121
3.959747 0.948534 -0.158317
3.988439 0.951704 -0.159110
4.000054 0.926470 -0.180915
4.016359 0.987367 -0.178755
4.029473 0.961203 -0.203365
4.006568 0.963964 -0.179613
3.994409 0.985102 -0.150216
4.030683 0.980921 -0.166407
4.043796 0.954757 -0.191017
4.020892 0.957519 -0.167265
4.008732 0.978656 -0.137868
3.999954 0.989161 -0.150676
4.012114 0.968024 -0.180074
3.986089 0.965414 -0.173370
3.965967 0.987281 -0.147948
4.003134 0.974595 -0.137376
4.015294 0.953457 -0.166773
3.989269 0.950848 -0.160070
3.969147 0.972714 -0.134648
4.029878 0.960429 -0.204133
4.043439 0.932954 -0.226886
4.019943 0.938442 -0.202276
4.006973 0.963191 -0.180381
4.043417 0.955481 -0.190299
4.056978 0.928005 -0.213051
4.033483 0.933493 -0.188442
4.020513 0.958242 -0.166546
4.011134 0.966317 -0.181307
4.024104 0.941568 -0.203202
3.996724 0.938474 -0.196408
3.985109 0.963708 -0.174604
4.016303 0.955117 -0.165589
4.029272 0.930368 -0.187485
4.001893 0.927274 -0.180691
3.990278 0.952508 -0.158886
4.043430 0.932458 -0.227036
4.055577 0.898565 -0.247995
4.030947 0.910056 -0.221383
4.019934 0.937945 -0.202426
4.057013 0.928445 -0.212943
4.069160 0.894552 -0.233903
4.044530 0.906043 -0.207291
4.033517 0.933932 -0.188334
4.024048 0.940594 -0.203797
4.035061 0.912705 -0.222754
4.007145 0.909419 -0.215683
3.996669 0.937500 -0.197003
4.029351 0.931288 -0.186931
4.040364 0.903399 -0.205888
4.012447 0.900113 -0.198817
4.001971 0.928194 -0.180137
4.055751 0.897766 -0.248337
4.059816 0.870329 -0.254049
4.040155 0.878804 -0.237501
4.031121 0.909257 -0.221725
4.069004 0.895292 -0.233592
4.073070 0.867854 -0.239304
4.053408 0.876330 -0.222756
4.044374 0.906782 -0.206980
4.034991 0.911754 -0.223193
4.044024 0.881301 -0.238969
4.016242 0.878076 -0.231598
4.007074 0.908468 -0.216123
4.040455 0.904292 -0.205483
4.049488 0.873839 -0.221259
4.021707 0.870614 -0.213888
4.012538 0.901006 -0.198412
4.060684 0.870737 -0.254672
4.065811 0.838105 -0.264654
4.048116 0.846803 -0.250620
4.041022 0.879212 -0.238123
4.072215 0.867385 -0.238703
4.077343 0.834753 -0.248686
4.059647 0.843451 -0.234651
4.052553 0.875860 -0.222155
4.043969 0.880425 -0.239274
4.051063 0.848016 -0.251771
4.023870 0.845028 -0.244300
4.016187 0.877200 -0.231903
4.049560 0.874653 -0.220982
4.056654 0.842244 -0.233478
4.029461 0.839256 -0.226007
4.021778 0.871428 -0.213610
4.065489 0.838021 -0.264429
4.065321 0.814544 -0.270912
4.052859 0.812896 -0.259759
4.047793 0.846719 -0.250394
4.077674 0.834776 -0.248931
4.077506 0.811299 -0.255414
4.065044 0.809651 -0.244261
4.059978 0.843474 -0.234896
4.051050 0.847252 -0.251975
4.056116 0.813429 -0.261340
4.029912 0.810791 -0.254017
4.023857 0.844264 -0.244504
4.056679 0.842942 -0.233295
4.061745 0.809119 -0.242660
4.035541 0.806481 -0.235337
4.029486 0.839954 -0.225825
4.064733 0.813374 -0.270579
4.067913 0.774645 -0.275966
4.055875 0.773536 -0.265202
4.052271 0.811726 -0.259426
4.078099 0.812402 -0.255760
4.081279 0.773673 -0.261148
4.069241 0.772564 -0.250383
4.065638 0.810754 -0.244608
4.056176 0.812434 -0.261534
4.059780 0.774245 -0.267310
4.034639 0.771893 -0.260388
4.029972 0.809796 -0.254212
4.061695 0.810041 -0.242481
4.065298 0.771852 -0.248257
4.040157 0.769500 -0.241335
4.035491 0.807403 -0.235159
4.063835 0.837437 -0.262899
4.075956 0.839375 -0.280486
4.079164 0.809878 -0.286701
4.063667 0.813961 -0.269382
4.079356 0.835354 -0.250491
4.091477 0.837291 -0.268078
4.094685 0.807795 -0.274293
4.079188 0.811878 -0.256974
4.064006 0.813227 -0.269860
4.079503 0.809145 -0.287179
4.080396 0.775737 -0.289988
4.067186 0.774498 -0.275247
4.078853 0.812548 -0.256506
4.094350 0.808466 -0.273825
4.095242 0.775058 -0.276635
4.082032 0.773819 -0.261894
4.260208 1.035270 -0.193693
4.259759 1.035176 -0.234462
4.219320 1.031315 -0.232629
4.219686 1.031332 -0.192154
4.262124 1.015382 -0.193685
4.261675 1.015288 -0.234454
4.221236 1.011427 -0.232621
4.221602 1.011444 -0.192146
4.295327 1.038707 -0.195229
4.295092 1.038251 -0.236316
4.259833 1.035182 -0.234519
4.260281 1.035277 -0.193750
4.297171 1.018813 -0.195111
4.296937 1.018357 -0.236197
4.261677 1.015288 -0.234401
4.262126 1.015382 -0.193632
4.258306 1.035513 -0.316493
4.257762 1.036395 -0.357268
4.218074 1.031508 -0.354831
4.218434 1.031516 -0.314366
4.260509 1.015656 -0.316731
4.259966 1.016538 -0.357506
4.220277 1.011652 -0.355069
4.220638 1.011659 -0.314605
4.293266 1.040769 -0.318555
4.292983 1.040923 -0.359629
4.257532 1.036366 -0.357250
4.258075 1.035484 -0.316475
4.296005 1.020979 -0.318834
4.295722 1.021133 -0.359907
4.260271 1.016577 -0.357528
4.260815 1.015695 -0.316754
4.209526 1.021583 -0.314382
4.209166 1.021575 -0.354847
4.209112 1.006208 -0.354267
4.209585 1.006000 -0.312999
4.229505 1.021573 -0.314586
4.229145 1.021565 -0.355050
4.229091 1.006198 -0.354471
4.229564 1.005990 -0.313203
4.210635 1.021269 -0.192054
4.210269 1.021253 -0.232530
4.210448 1.005447 -0.230352
4.210850 1.005239 -0.189087
4.230613 1.021486 -0.192241
4.230247 1.021470 -0.232717
4.230426 1.005663 -0.230539
4.230828 1.005456 -0.189274
4.211394 1.021012 -0.110225
4.211016 1.021113 -0.151101
4.211299 1.004971 -0.147731
4.211725 1.004762 -0.106465
4.231370 1.021348 -0.110419
4.230992 1.021449 -0.151296
4.231275 1.005307 -0.147926
4.231702 1.005098 -0.106659
4.211015 1.021146 -0.151140
4.210636 1.021243 -0.192006
4.210850 1.005212 -0.189039
4.211298 1.005004 -0.147770
4.230992 1.021416 -0.151340
4.230613 1.021512 -0.192207
4.230828 1.005482 -0.189240
4.231275 1.005274 -0.147970
4.261347 1.035531 -0.111520
4.260666 1.035772 -0.152531
4.219938 1.031222 -0.151146
4.220316 1.031121 -0.110269
4.263520 1.015670 -0.111631
4.262839 1.015910 -0.152641
4.222111 1.011361 -0.151256
4.222489 1.011260 -0.110380
4.260713 1.035777 -0.152665
4.260127 1.035262 -0.193687
4.219605 1.031323 -0.192147
4.219985 1.031227 -0.151281
4.262792 1.015905 -0.152588
4.262206 1.015390 -0.193610
4.221684 1.011452 -0.192070
4.222063 1.011355 -0.151203
4.295965 1.040532 -0.112887
4.295578 1.039098 -0.154057
4.260598 1.035763 -0.152716
4.261279 1.035523 -0.111705
4.298350 1.020697 -0.112630
4.297963 1.019263 -0.153800
4.262983 1.015928 -0.152459
4.263664 1.015687 -0.111448
4.295805 1.039123 -0.154069
4.295285 1.038704 -0.195229
4.260240 1.035273 -0.193750
4.260825 1.035788 -0.152728
4.297735 1.019237 -0.153869
4.297214 1.018818 -0.195029
4.262169 1.015387 -0.193550
4.262755 1.015902 -0.152528
4.210268 1.021295 -0.232561
4.209896 1.021404 -0.273424
4.209968 1.005705 -0.271658
4.210447 1.005488 -0.230383
4.230247 1.021428 -0.232767
4.229874 1.021538 -0.273630
4.229947 1.005838 -0.271864
4.230425 1.005622 -0.230590
4.209895 1.021438 -0.273477
4.209527 1.021545 -0.314352
4.209586 1.005962 -0.312968
4.209968 1.005739 -0.271711
4.229874 1.021504 -0.273659
4.229506 1.021610 -0.314534
4.229565 1.006028 -0.313151
4.229947 1.005804 -0.271893
4.259744 1.035174 -0.234437
4.259076 1.035474 -0.275458
4.218932 1.031423 -0.273467
4.219305 1.031314 -0.232604
4.261690 1.015289 -0.234561
4.261022 1.015590 -0.275582
4.220878 1.011538 -0.273591
4.221251 1.011429 -0.232728
4.259050 1.035472 -0.275529
4.258410 1.035524 -0.316540
4.218538 1.031527 -0.314413
4.218906 1.031421 -0.273538
4.261047 1.015592 -0.275593
4.260406 1.015644 -0.316603
4.220534 1.011648 -0.314476
4.220903 1.011541 -0.273601
4.295107 1.038252 -0.236169
4.294500 1.038895 -0.277330
4.259180 1.035484 -0.275394
4.259848 1.035183 -0.234373
4.296920 1.018356 -0.236426
4.296313 1.018999 -0.277587
4.260993 1.015588 -0.275650
4.261661 1.015287 -0.234629
4.294198 1.038861 -0.277240
4.293428 1.040787 -0.318394
4.258238 1.035502 -0.316314
4.258878 1.035450 -0.275304
4.296614 1.019034 -0.277759
4.295844 1.020960 -0.318913
4.260653 1.015675 -0.316833
4.261294 1.015623 -0.275822
3.966556 0.987133 -0.148217
3.986678 0.965266 -0.173639
3.957986 0.962096 -0.172847
3.968516 0.972852 -0.134382
3.988638 0.950985 -0.159804
3.959946 0.947815 -0.159012
3.903943 0.796894 -0.239033
3.906929 0.758787 -0.244237
3.907837 0.759115 -0.224543
3.905075 0.793980 -0.219304
3.923829 0.798591 -0.239951
3.926815 0.760485 -0.245155
3.927724 0.760813 -0.225461
3.924962 0.795678 -0.220222
3.900545 0.830345 -0.230561
3.903963 0.796663 -0.239094
3.905095 0.793749 -0.219364
3.901856 0.825203 -0.211295
3.920385 0.832573 -0.231344
3.923803 0.798891 -0.239877
3.924935 0.795977 -0.220148
3.921696 0.827431 -0.212078
3.897626 0.863106 -0.218636
3.900532 0.830454 -0.230573
3.901844 0.825313 -0.211307
