4.194202 0.869574 -0.198798
4.197234 0.838363 -0.199112
4.197231 0.837755 -0.149529
4.194199 0.868965 -0.149201
4.214089 0.871505 -0.198773
4.217121 0.840295 -0.199087
4.217117 0.839687 -0.149504
4.214086 0.870897 -0.149176
4.240998 0.843452 -0.199285
4.237940 0.874717 -0.198970
4.238008 0.874109 -0.149318
4.241066 0.842844 -0.149647
4.221113 0.841507 -0.199282
4.218055 0.872771 -0.198967
4.218122 0.872163 -0.149315
4.221181 0.840899 -0.149644
4.237937 0.874748 -0.198970
4.234878 0.906012 -0.198654
4.234946 0.905404 -0.148989
4.238004 0.874140 -0.149318
4.218052 0.872803 -0.198967
4.214993 0.904067 -0.198651
4.215061 0.903459 -0.148986
4.218119 0.872194 -0.149314
4.191167 0.900816 -0.198484
4.194199 0.869605 -0.198798
4.194196 0.868997 -0.149201
4.191164 0.900207 -0.148873
4.211054 0.902747 -0.198459
4.214086 0.871537 -0.198773
4.214083 0.870928 -0.149176
4.211051 0.902139 -0.148848
4.234875 0.906044 -0.198654
4.231816 0.937308 -0.198339
4.231884 0.936700 -0.148660
4.234943 0.905435 -0.148989
4.214990 0.904098 -0.198651
4.211931 0.935363 -0.198336
4.211999 0.934754 -0.148656
4.215058 0.903490 -0.148985
4.188132 0.932057 -0.198170
4.191164 0.900847 -0.198484
4.191161 0.900238 -0.148873
4.188130 0.931449 -0.148545
4.208018 0.933989 -0.198145
4.211051 0.902778 -0.198459
4.211048 0.902170 -0.148848
4.208016 0.933380 -0.148520
4.185097 0.963299 -0.197856
4.188129 0.932089 -0.198169
4.188127 0.931480 -0.148545
4.185095 0.962691 -0.148217
4.204984 0.965231 -0.197831
4.208015 0.934020 -0.198145
4.208013 0.933412 -0.148520
4.204981 0.964622 -0.148192
4.231813 0.937340 -0.198339
4.228754 0.968604 -0.198023
4.228823 0.967995 -0.148331
4.231881 0.936731 -0.148659
4.211928 0.935394 -0.198335
4.208869 0.966658 -0.198019
4.208938 0.966050 -0.148327
4.211996 0.934785 -0.148656
4.224546 0.556548 -0.152433
4.227578 0.525337 -0.152760
4.227573 0.524731 -0.103316
4.224542 0.555941 -0.102974
4.244433 0.558479 -0.152407
4.247464 0.527268 -0.152734
4.247459 0.526662 -0.103290
4.244428 0.557872 -0.102948
4.271681 0.529888 -0.152891
4.268623 0.561152 -0.152561
4.268690 0.560545 -0.103046
4.271748 0.529282 -0.103388
4.251796 0.527943 -0.152888
4.248738 0.559207 -0.152558
4.248805 0.558601 -0.103043
4.251862 0.527337 -0.103386
4.221511 0.587789 -0.152104
4.224543 0.556579 -0.152432
4.224539 0.555972 -0.102974
4.221508 0.587183 -0.102632
4.241398 0.589721 -0.152079
4.244429 0.558510 -0.152407
4.244425 0.557903 -0.102948
4.241394 0.589114 -0.102607
4.268620 0.561184 -0.152561
4.265561 0.592448 -0.152232
4.265628 0.591841 -0.102703
4.268687 0.560577 -0.103046
4.248735 0.559238 -0.152558
4.245676 0.590502 -0.152229
4.245743 0.589896 -0.102700
4.248802 0.558632 -0.103043
4.218477 0.619031 -0.151776
4.221508 0.587821 -0.152104
4.221504 0.587214 -0.102632
4.218472 0.618424 -0.102290
4.238364 0.620963 -0.151751
4.241395 0.589752 -0.152078
4.241391 0.589145 -0.102607
4.238359 0.620355 -0.102265
4.265558 0.592479 -0.152232
4.262500 0.623744 -0.151903
4.262567 0.623136 -0.102360
4.265625 0.591872 -0.102703
4.245673 0.590534 -0.152229
4.242615 0.621799 -0.151900
4.242682 0.621191 -0.102357
4.245740 0.589927 -0.102700
4.262497 0.623775 -0.151902
4.259439 0.655039 -0.151574
4.259506 0.654432 -0.102017
4.262564 0.623168 -0.102360
4.242612 0.621830 -0.151899
4.239554 0.653094 -0.151571
4.239621 0.652487 -0.102014
4.242679 0.621223 -0.102357
4.215442 0.650273 -0.151448
4.218474 0.619062 -0.151776
4.218469 0.618455 -0.102290
4.215438 0.649666 -0.101948
4.235329 0.652204 -0.151422
4.238361 0.620994 -0.151751
4.238356 0.620387 -0.102264
4.235325 0.651597 -0.101923
4.212407 0.681515 -0.151120
4.215439 0.650304 -0.151447
4.215435 0.649697 -0.101948
4.212404 0.680907 -0.101606
4.232294 0.683446 -0.151095
4.235325 0.652235 -0.151422
4.235322 0.651628 -0.101923
4.232290 0.682839 -0.101581
4.259436 0.655070 -0.151573
4.256377 0.686335 -0.151244
4.256445 0.685727 -0.101674
4.259503 0.654463 -0.102017
4.239551 0.653125 -0.151570
4.236492 0.684389 -0.151241
4.236559 0.683782 -0.101671
4.239618 0.652518 -0.102014
4.209373 0.712756 -0.150792
4.212404 0.681546 -0.151120
4.212401 0.680939 -0.101606
4.209369 0.712149 -0.101264
4.229260 0.714688 -0.150767
4.232291 0.683477 -0.151095
4.232287 0.682870 -0.101581
4.229256 0.714080 -0.101239
4.256374 0.686366 -0.151244
4.253316 0.717630 -0.150915
4.253384 0.717023 -0.101331
4.256441 0.685759 -0.101674
4.236489 0.684421 -0.151240
4.233431 0.715685 -0.150912
4.233498 0.715078 -0.101328
4.236556 0.683814 -0.101671
4.206339 0.743998 -0.150464
4.209370 0.712788 -0.150791
4.209366 0.712180 -0.101264
4.206335 0.743390 -0.100922
4.226225 0.745929 -0.150439
4.229257 0.714719 -0.150766
4.229253 0.714111 -0.101239
4.226221 0.745322 -0.100897
4.253313 0.717661 -0.150915
4.250254 0.748926 -0.150586
4.250322 0.748318 -0.100989
4.253380 0.717054 -0.101331
4.233428 0.715716 -0.150911
4.230369 0.746981 -0.150582
4.230437 0.746373 -0.100985
4.233495 0.715109 -0.101328
4.203303 0.775240 -0.150136
4.206336 0.744029 -0.150464
4.206332 0.743422 -0.100922
4.203300 0.774632 -0.100580
4.223190 0.777171 -0.150110
4.226222 0.745961 -0.150438
4.226218 0.745353 -0.100897
4.223186 0.776564 -0.100555
4.250251 0.748957 -0.150585
4.247193 0.780221 -0.150257
4.247261 0.779614 -0.100645
4.250319 0.748350 -0.100988
4.230366 0.747012 -0.150582
4.227308 0.778276 -0.150253
4.227376 0.777668 -0.100642
4.230434 0.746404 -0.100985
4.247190 0.780253 -0.150256
4.244131 0.811517 -0.149927
4.244199 0.810909 -0.100303
4.247258 0.779645 -0.100645
4.227304 0.778307 -0.150253
4.224246 0.809572 -0.149924
4.224314 0.808964 -0.100299
4.227373 0.777700 -0.100642
4.200269 0.806482 -0.149808
4.203300 0.775271 -0.150135
4.203297 0.774663 -0.100580
4.200266 0.805874 -0.100238
4.220155 0.808413 -0.149783
4.223187 0.777202 -0.150110
4.223183 0.776595 -0.100555
4.220152 0.807805 -0.100213
4.197234 0.837723 -0.149479
4.200266 0.806513 -0.149807
4.200263 0.805905 -0.100238
4.197231 0.837115 -0.099896
4.217121 0.839655 -0.149454
4.220152 0.808444 -0.149782
4.220149 0.807836 -0.100213
4.217117 0.839047 -0.099872
4.244128 0.811548 -0.149927
4.241070 0.842812 -0.149598
4.241138 0.842205 -0.099960
4.244196 0.810941 -0.100302
4.224243 0.809603 -0.149923
4.221185 0.840867 -0.149594
4.221253 0.840259 -0.099956
4.224311 0.808995 -0.100299
4.241067 0.842844 -0.149598
4.238008 0.874108 -0.149269
4.238077 0.873500 -0.099617
4.241135 0.842236 -0.099959
4.221181 0.840898 -0.149594
4.218123 0.872163 -0.149265
4.218192 0.871555 -0.099613
4.221250 0.840291 -0.099956
4.194199 0.868965 -0.149152
4.197231 0.837755 -0.149479
4.197228 0.837146 -0.099896
4.194196 0.868357 -0.099554
4.214086 0.870896 -0.149127
4.217117 0.839686 -0.149454
4.217114 0.839078 -0.099871
4.214082 0.870288 -0.099529
4.238005 0.874139 -0.149268
4.234946 0.905404 -0.148940
4.235015 0.904795 -0.099274
4.238074 0.873531 -0.099617
4.218119 0.872194 -0.149264
4.215061 0.903458 -0.148936
4.215130 0.902850 -0.099270
4.218189 0.871586 -0.099613
4.191164 0.900207 -0.148823
4.194196 0.868996 -0.149151
4.194193 0.868388 -0.099554
4.191162 0.899598 -0.099213
4.211051 0.902138 -0.148798
4.214083 0.870928 -0.149126
4.214079 0.870319 -0.099529
4.211048 0.901530 -0.099188
4.188130 0.931448 -0.148495
4.191161 0.900238 -0.148823
4.191159 0.899629 -0.099212
4.188127 0.930840 -0.098870
4.208016 0.933380 -0.148471
4.211048 0.902169 -0.148798
4.211045 0.901561 -0.099187
4.208014 0.932771 -0.098846
4.234943 0.905435 -0.148939
4.231885 0.936699 -0.148610
4.231954 0.936091 -0.098931
4.235012 0.904826 -0.099273
4.215058 0.903490 -0.148935
4.211999 0.934754 -0.148606
4.212069 0.934145 -0.098927
4.215127 0.902881 -0.099270
4.231881 0.936730 -0.148610
4.228823 0.967995 -0.148281
4.228892 0.967386 -0.098588
4.231951 0.936122 -0.098931
4.211996 0.934785 -0.148606
4.208938 0.966049 -0.148277
4.209007 0.965441 -0.098584
4.212066 0.934177 -0.098927
4.185095 0.962690 -0.148167
4.188127 0.931480 -0.148495
4.188124 0.930871 -0.098870
4.185092 0.962081 -0.098529
4.204981 0.964622 -0.148142
4.208013 0.933411 -0.148470
4.208010 0.932803 -0.098845
4.204978 0.964013 -0.098504
4.224542 0.555940 -0.102925
4.227573 0.524730 -0.103267
4.227568 0.524123 -0.053822
4.224537 0.555334 -0.053467
4.244428 0.557872 -0.102899
4.247459 0.526661 -0.103241
4.247455 0.526055 -0.053796
4.244423 0.557265 -0.053441
4.271748 0.529281 -0.103339
4.268690 0.560545 -0.102997
4.268757 0.559939 -0.053481
4.271814 0.528674 -0.053838
4.251863 0.527336 -0.103336
4.248805 0.558600 -0.102994
4.248871 0.557994 -0.053478
4.251929 0.526730 -0.053835
4.221507 0.587182 -0.102583
4.224539 0.555972 -0.102924
4.224534 0.555365 -0.053467
4.221503 0.586575 -0.053111
4.241394 0.589113 -0.102557
4.244425 0.557903 -0.102899
4.244420 0.557296 -0.053441
4.241389 0.588506 -0.053085
4.268687 0.560576 -0.102996
4.265628 0.591841 -0.102653
4.265696 0.591234 -0.053125
4.268753 0.559970 -0.053481
4.248802 0.558631 -0.102993
4.245743 0.589895 -0.102650
4.245810 0.589288 -0.053122
4.248868 0.558025 -0.053478
4.265625 0.591872 -0.102653
4.262567 0.623136 -0.102311
4.262634 0.622529 -0.052768
4.265692 0.591265 -0.053125
4.245740 0.589927 -0.102650
4.242682 0.621191 -0.102308
4.242749 0.620584 -0.052765
4.245807 0.589320 -0.053121
4.218472 0.618423 -0.102241
4.221504 0.587213 -0.102583
4.221500 0.586606 -0.053110
4.218469 0.617816 -0.052755
4.238359 0.620355 -0.102215
4.241391 0.589145 -0.102557
4.241386 0.588538 -0.053085
4.238355 0.619748 -0.052730
4.262564 0.623167 -0.102311
4.259506 0.654431 -0.101968
4.259573 0.653824 -0.052412
4.262631 0.622560 -0.052768
4.242679 0.621222 -0.102307
4.239621 0.652486 -0.101964
4.239688 0.651879 -0.052408
4.242746 0.620615 -0.052764
4.215438 0.649665 -0.101899
4.218469 0.618455 -0.102240
4.218465 0.617848 -0.052755
4.215434 0.649058 -0.052399
4.235325 0.651596 -0.101874
4.238356 0.620386 -0.102215
4.238352 0.619779 -0.052729
4.235321 0.650989 -0.052373
4.212404 0.680907 -0.101557
4.215435 0.649696 -0.101898
4.215431 0.649089 -0.052398
4.212400 0.680299 -0.052043
4.232290 0.682838 -0.101531
4.235322 0.651628 -0.101873
4.235318 0.651020 -0.052373
4.232287 0.682231 -0.052018
4.259503 0.654463 -0.101967
4.256445 0.685727 -0.101625
4.256512 0.685120 -0.052055
4.259570 0.653856 -0.052411
4.239618 0.652518 -0.101964
4.236560 0.683782 -0.101622
4.236627 0.683175 -0.052051
4.239685 0.651911 -0.052408
4.209369 0.712148 -0.101215
4.212401 0.680938 -0.101556
4.212397 0.680331 -0.052043
4.209365 0.711541 -0.051687
4.229256 0.714080 -0.101190
4.232287 0.682869 -0.101531
4.232283 0.682262 -0.052018
4.229252 0.713472 -0.051662
4.256442 0.685758 -0.101625
4.253384 0.717022 -0.101282
4.253451 0.716415 -0.051698
4.256509 0.685151 -0.052054
4.236556 0.683813 -0.101621
4.233499 0.715077 -0.101278
4.233566 0.714470 -0.051695
4.236624 0.683206 -0.052051
4.206335 0.743390 -0.100873
4.209366 0.712180 -0.101214
4.209362 0.711572 -0.051687
4.206331 0.742782 -0.051331
4.226221 0.745321 -0.100847
4.229253 0.714111 -0.101189
4.229249 0.713503 -0.051661
4.226218 0.744713 -0.051306
4.253381 0.717054 -0.101281
4.250323 0.748318 -0.100939
4.250390 0.747710 -0.051341
4.253448 0.716446 -0.051698
4.233495 0.715108 -0.101278
4.230437 0.746373 -0.100936
4.230505 0.745765 -0.051338
4.233563 0.714501 -0.051695
4.250319 0.748349 -0.100939
4.247261 0.779613 -0.100596
4.247329 0.779006 -0.050985
4.250387 0.747742 -0.051341
4.230434 0.746404 -0.100935
4.227376 0.777668 -0.100592
4.227444 0.777060 -0.050982
4.230502 0.745796 -0.051338
4.203300 0.774631 -0.100531
4.206332 0.743421 -0.100872
4.206328 0.742813 -0.051331
4.203297 0.774024 -0.050975
4.223186 0.776563 -0.100506
4.226218 0.745352 -0.100847
4.226215 0.744745 -0.051306
4.223184 0.775955 -0.050950
4.200266 0.805873 -0.100189
4.203297 0.774663 -0.100530
4.203294 0.774055 -0.050975
4.200262 0.805265 -0.050619
4.220152 0.807804 -0.100164
4.223183 0.776594 -0.100505
4.223180 0.775986 -0.050950
4.220149 0.807196 -0.050595
4.247258 0.779644 -0.100595
4.244200 0.810909 -0.100253
4.244268 0.810301 -0.050628
4.247326 0.779037 -0.050985
4.227373 0.777699 -0.100592
4.224314 0.808963 -0.100250
4.224383 0.808356 -0.050625
4.227441 0.777092 -0.050981
4.244196 0.810940 -0.100253
4.241138 0.842204 -0.099910
4.241206 0.841596 -0.050272
4.244265 0.810332 -0.050628
4.224311 0.808995 -0.100249
4.221253 0.840259 -0.099906
4.221321 0.839651 -0.050268
4.224380 0.808387 -0.050624
4.197231 0.837115 -0.099847
4.200263 0.805904 -0.100188
4.200259 0.805296 -0.050619
4.197228 0.836506 -0.050263
4.217117 0.839046 -0.099822
4.220149 0.807836 -0.100163
4.220146 0.807228 -0.050594
4.217115 0.838438 -0.050238
4.241135 0.842235 -0.099910
4.238077 0.873499 -0.099567
4.238146 0.872891 -0.049915
4.241203 0.841627 -0.050272
4.221250 0.840290 -0.099906
4.218192 0.871554 -0.099564
4.218261 0.870946 -0.049911
4.221318 0.839682 -0.050268
4.194196 0.868356 -0.099504
4.197228 0.837146 -0.099846
4.197225 0.836538 -0.050263
4.194194 0.867748 -0.049908
4.214082 0.870287 -0.099480
4.217114 0.839077 -0.099822
4.217112 0.838469 -0.050238
4.214080 0.869679 -0.049883
4.191162 0.899598 -0.099163
4.194193 0.868387 -0.099504
4.194191 0.867779 -0.049907
4.191159 0.898989 -0.049551
4.211048 0.901529 -0.099138
4.214079 0.870319 -0.099479
4.214077 0.869710 -0.049883
4.211046 0.900921 -0.049527
4.238074 0.873531 -0.099567
4.235015 0.904795 -0.099224
4.235084 0.904187 -0.049559
4.238143 0.872923 -0.049915
4.218189 0.871585 -0.099563
4.215130 0.902849 -0.099220
4.215199 0.902241 -0.049555
4.218258 0.870977 -0.049911
4.235012 0.904826 -0.099224
4.231954 0.936090 -0.098881
4.232023 0.935482 -0.049202
4.235081 0.904218 -0.049558
4.215127 0.902881 -0.099220
4.212069 0.934145 -0.098877
4.212138 0.933537 -0.049198
4.215196 0.902273 -0.049555
4.188127 0.930839 -0.098820
4.191159 0.899629 -0.099162
4.191156 0.899021 -0.049551
4.188125 0.930231 -0.049196
4.208014 0.932771 -0.098796
4.211045 0.901560 -0.099138
4.211043 0.900952 -0.049526
4.208012 0.932162 -0.049171
4.185092 0.962081 -0.098479
4.188124 0.930870 -0.098820
4.188122 0.930262 -0.049195
4.185091 0.961472 -0.048840
4.204978 0.964012 -0.098454
4.208010 0.932802 -0.098796
4.208009 0.932193 -0.049171
4.204977 0.963404 -0.048815
4.231951 0.936121 -0.098881
4.228892 0.967386 -0.098538
4.228961 0.966777 -0.048845
4.232020 0.935513 -0.049201
4.212066 0.934176 -0.098877
4.209007 0.965440 -0.098534
4.209076 0.964832 -0.048842
4.212135 0.933568 -0.049198
4.224537 0.555333 -0.053417
4.227568 0.524123 -0.053772
4.227564 0.523516 -0.004329
4.224533 0.554726 -0.003959
4.244423 0.557264 -0.053392
4.247455 0.526054 -0.053747
4.247450 0.525447 -0.004303
4.244419 0.556657 -0.003933
4.271815 0.528674 -0.053788
4.268757 0.559938 -0.053432
4.268824 0.559331 -0.003917
4.271881 0.528068 -0.004286
4.251929 0.526729 -0.053785
4.248872 0.557993 -0.053428
4.248939 0.557386 -0.003914
4.251996 0.526123 -0.004283
4.221503 0.586574 -0.053061
4.224534 0.555364 -0.053417
4.224530 0.554758 -0.003958
4.221499 0.585968 -0.003589
4.241389 0.588506 -0.053036
4.244420 0.557295 -0.053392
4.244416 0.556689 -0.003933
4.241385 0.587899 -0.003564
4.268754 0.559969 -0.053431
4.265696 0.591233 -0.053075
4.265763 0.590627 -0.003546
4.268821 0.559363 -0.003916
4.248868 0.558024 -0.053428
4.245811 0.589288 -0.053072
4.245878 0.588682 -0.003543
4.248936 0.557418 -0.003913
4.265693 0.591264 -0.053075
4.262635 0.622529 -0.052718
4.262702 0.621922 -0.003176
4.265760 0.590658 -0.003546
4.245807 0.589319 -0.053072
4.242749 0.620584 -0.052715
4.242817 0.619977 -0.003173
4.245875 0.588713 -0.003543
4.218468 0.617816 -0.052705
4.221500 0.586606 -0.053061
4.221496 0.585999 -0.003589
4.218465 0.617209 -0.003219
4.238355 0.619747 -0.052680
4.241386 0.588537 -0.053035
4.241382 0.587930 -0.003564
4.238351 0.619140 -0.003194
4.215434 0.649057 -0.052349
4.218465 0.617847 -0.052705
4.218462 0.617240 -0.003219
4.215430 0.648450 -0.002850
4.235321 0.650989 -0.052324
4.238352 0.619778 -0.052680
4.238348 0.619171 -0.003194
4.235317 0.650381 -0.002825
4.262631 0.622560 -0.052718
4.259574 0.653824 -0.052362
4.259641 0.653217 -0.002806
4.262699 0.621953 -0.003176
4.242746 0.620615 -0.052715
4.239688 0.651879 -0.052359
4.239756 0.651272 -0.002802
4.242814 0.620008 -0.003172
4.259570 0.653855 -0.052362
4.256513 0.685119 -0.052005
4.256580 0.684512 -0.002436
4.259638 0.653248 -0.002805
4.239685 0.651910 -0.052358
4.236627 0.683174 -0.052002
4.236695 0.682567 -0.002432
4.239753 0.651303 -0.002802
4.212400 0.680299 -0.051994
4.215431 0.649089 -0.052349
4.215427 0.648482 -0.002849
4.212397 0.679692 -0.002480
4.232287 0.682230 -0.051968
4.235318 0.651020 -0.052324
4.235314 0.650412 -0.002824
4.232283 0.681623 -0.002454
4.209365 0.711540 -0.051637
4.212397 0.680330 -0.051993
4.212394 0.679723 -0.002479
4.209363 0.710933 -0.002110
4.229252 0.713471 -0.051612
4.232283 0.682261 -0.051968
4.232280 0.681654 -0.002454
4.229249 0.712864 -0.002085
4.256509 0.685150 -0.052005
4.253451 0.716414 -0.051649
4.253519 0.715807 -0.002065
4.256577 0.684543 -0.002435
4.236624 0.683205 -0.052001
4.233566 0.714469 -0.051645
4.233634 0.713862 -0.002061
4.236692 0.682598 -0.002432
4.206331 0.742782 -0.051282
4.209362 0.711572 -0.051637
4.209359 0.710964 -0.002110
4.206328 0.742174 -0.001740
4.226218 0.744713 -0.051257
4.229249 0.713503 -0.051612
4.229246 0.712895 -0.002085
4.226215 0.744105 -0.001715
4.253448 0.716445 -0.051649
4.250390 0.747709 -0.051292
4.250459 0.747102 -0.001695
4.253516 0.715838 -0.002065
4.233563 0.714501 -0.051645
4.230505 0.745765 -0.051288
4.230574 0.745157 -0.001691
4.233631 0.713893 -0.002061
4.250387 0.747741 -0.051292
4.247329 0.779005 -0.050936
4.247398 0.778397 -0.001324
4.250456 0.747133 -0.001695
4.230502 0.745796 -0.051288
4.227444 0.777060 -0.050932
4.227513 0.776452 -0.001321
4.230570 0.745188 -0.001691
4.203297 0.774023 -0.050925
4.206328 0.742813 -0.051281
4.206325 0.742205 -0.001739
4.203294 0.773415 -0.001370
4.223184 0.775954 -0.050901
4.226215 0.744744 -0.051256
4.226212 0.744136 -0.001715
4.223181 0.775346 -0.001345
4.200262 0.805265 -0.050570
4.203294 0.774054 -0.050925
4.203291 0.773447 -0.001370
4.200260 0.804657 -0.001000
4.220149 0.807196 -0.050545
4.223180 0.775986 -0.050900
4.223177 0.775378 -0.001345
4.220146 0.806588 -0.000975
4.247326 0.779036 -0.050935
4.244268 0.810300 -0.050579
4.244337 0.809692 -0.000954
4.247395 0.778429 -0.001324
4.227441 0.777091 -0.050932
4.224383 0.808355 -0.050575
4.224452 0.807747 -0.000951
4.227509 0.776484 -0.001320
4.197228 0.836506 -0.050214
4.200259 0.805296 -0.050569
4.200257 0.804688 -0.001000
4.197226 0.835898 -0.000631
4.217115 0.838437 -0.050189
4.220146 0.807227 -0.050545
4.220143 0.806619 -0.000975
4.217112 0.837829 -0.000606
4.244265 0.810332 -0.050578
4.241206 0.841596 -0.050222
4.241275 0.840988 -0.000584
4.244334 0.809724 -0.000954
4.224380 0.808386 -0.050575
4.221321 0.839650 -0.050219
4.221390 0.839042 -0.000580
4.224448 0.807779 -0.000950
4.241203 0.841627 -0.050222
4.238146 0.872890 -0.049865
4.238215 0.872282 -0.000214
4.241272 0.841019 -0.000583
4.221318 0.839682 -0.050218
4.218261 0.870946 -0.049862
4.218329 0.870338 -0.000210
4.221387 0.839074 -0.000580
4.194194 0.867747 -0.049858
4.197225 0.836537 -0.050213
4.197223 0.835929 -0.000630
4.194192 0.867139 -0.000261
4.214080 0.869679 -0.049833
4.217112 0.838468 -0.050189
4.217109 0.837860 -0.000606
4.214078 0.869070 -0.000236
4.191159 0.898989 -0.049502
4.194191 0.867779 -0.049858
4.194189 0.867170 -0.000260
4.191157 0.898380 0.000109
4.211046 0.900920 -0.049477
4.214077 0.869710 -0.049833
4.214075 0.869102 -0.000236
4.211044 0.900312 0.000134
4.238143 0.872922 -0.049865
4.235084 0.904186 -0.049509
4.235154 0.903578 0.000157
4.238211 0.872314 -0.000213
4.218258 0.870977 -0.049861
4.215199 0.902241 -0.049505
4.215268 0.901633 0.000161
4.218326 0.870369 -0.000210
4.188125 0.930230 -0.049146
4.191156 0.899020 -0.049501
4.191154 0.898412 0.000109
4.188123 0.929622 0.000479
4.208012 0.932161 -0.049122
4.211043 0.900951 -0.049477
4.211041 0.900343 0.000134
4.208010 0.931553 0.000504
4.235081 0.904217 -0.049509
4.232023 0.935481 -0.049152
4.232092 0.934873 0.000527
4.235150 0.903609 0.000157
4.215196 0.902272 -0.049505
4.212138 0.933536 -0.049148
4.212207 0.932928 0.000531
4.215265 0.901664 0.000161
4.232020 0.935513 -0.049152
4.228961 0.966776 -0.048796
4.229031 0.966168 0.000897
4.232089 0.934904 0.000527
4.212135 0.933567 -0.049148
4.209076 0.964831 -0.048792
4.209146 0.964223 0.000901
4.212204 0.932959 0.000531
4.185091 0.961472 -0.048790
4.188122 0.930261 -0.049146
4.188120 0.929653 0.000480
4.185089 0.960863 0.000849
4.204977 0.963403 -0.048765
4.208009 0.932193 -0.049121
4.208007 0.931584 0.000504
4.204975 0.962794 0.000873
4.271881 0.528067 -0.004237
4.268824 0.559331 -0.003867
4.268891 0.558724 0.045648
4.271949 0.527460 0.045264
4.251996 0.526122 -0.004234
4.248939 0.557386 -0.003864
4.249006 0.556779 0.045652
4.252064 0.525516 0.045268
4.224533 0.554726 -0.003909
4.227564 0.523516 -0.004279
4.227560 0.522909 0.045165
4.224529 0.554119 0.045548
4.244419 0.556657 -0.003884
4.247450 0.525447 -0.004254
4.247446 0.524840 0.045191
4.244415 0.556050 0.045574
4.221499 0.585967 -0.003540
4.224530 0.554757 -0.003909
4.224526 0.554150 0.045549
4.221495 0.585360 0.045933
4.241385 0.587898 -0.003515
4.244416 0.556688 -0.003884
4.244412 0.556081 0.045574
4.241382 0.587291 0.045958
4.268821 0.559362 -0.003867
4.265763 0.590626 -0.003497
4.265830 0.590019 0.046032
4.268888 0.558756 0.045649
4.248936 0.557417 -0.003864
4.245878 0.588681 -0.003493
4.245945 0.588074 0.046035
4.249003 0.556811 0.045652
4.218465 0.617208 -0.003170
4.221496 0.585998 -0.003539
4.221492 0.585392 0.045933
4.218461 0.616601 0.046316
4.238351 0.619139 -0.003144
4.241382 0.587929 -0.003514
4.241379 0.587323 0.045958
4.238348 0.618532 0.046341
4.265760 0.590657 -0.003496
4.262702 0.621921 -0.003127
4.262770 0.621314 0.046416
4.265827 0.590050 0.046032
4.245875 0.588712 -0.003493
4.242817 0.619976 -0.003123
4.242885 0.619370 0.046420
4.245942 0.588106 0.046036
4.215430 0.648450 -0.002800
4.218462 0.617240 -0.003169
4.218458 0.616633 0.046316
4.215427 0.647843 0.046700
4.235317 0.650381 -0.002775
4.238348 0.619171 -0.003144
4.238345 0.618564 0.046341
4.235314 0.649774 0.046725
4.262699 0.621952 -0.003126
4.259641 0.653216 -0.002756
4.259709 0.652609 0.046800
4.262767 0.621346 0.046417
4.242814 0.620007 -0.003123
4.239756 0.651271 -0.002753
4.239824 0.650664 0.046803
4.242882 0.619401 0.046420
4.259638 0.653247 -0.002756
4.256580 0.684511 -0.002386
4.256649 0.683904 0.047184
4.259706 0.652640 0.046800
4.239753 0.651303 -0.002752
4.236695 0.682566 -0.002383
4.236764 0.681959 0.047188
4.239821 0.650696 0.046804
4.212397 0.679691 -0.002430
4.215427 0.648481 -0.002800
4.215424 0.647874 0.046700
4.212393 0.679084 0.047083
4.232283 0.681622 -0.002405
4.235314 0.650412 -0.002775
4.235311 0.649805 0.046725
4.232280 0.681015 0.047108
4.209362 0.710932 -0.002060
4.212394 0.679722 -0.002430
4.212390 0.679115 0.047084
4.209360 0.710325 0.047468
4.229249 0.712863 -0.002035
4.232280 0.681653 -0.002405
4.232277 0.681046 0.047109
4.229246 0.712256 0.047492
4.256577 0.684542 -0.002386
4.253519 0.715806 -0.002015
4.253588 0.715199 0.047568
4.256646 0.683935 0.047185
4.236692 0.682598 -0.002382
4.233634 0.713862 -0.002012
4.233703 0.713254 0.047572
4.236760 0.681991 0.047188
4.253516 0.715838 -0.002015
4.250459 0.747102 -0.001645
4.250527 0.746494 0.047952
4.253585 0.715230 0.047568
4.233631 0.713893 -0.002011
4.230574 0.745157 -0.001642
4.230642 0.744549 0.047956
4.233700 0.713286 0.047572
4.206328 0.742173 -0.001690
4.209359 0.710963 -0.002060
4.209357 0.710356 0.047468
4.206325 0.741566 0.047851
4.226215 0.744105 -0.001665
4.229246 0.712895 -0.002035
4.229243 0.712287 0.047493
4.226212 0.743497 0.047876
4.250456 0.747133 -0.001645
4.247398 0.778397 -0.001275
4.247467 0.777789 0.048336
4.250524 0.746525 0.047953
4.230571 0.745188 -0.001641
4.227513 0.776452 -0.001271
4.227581 0.775844 0.048340
4.230639 0.744581 0.047956
4.203294 0.773415 -0.001321
4.206325 0.742205 -0.001690
4.206322 0.741597 0.047851
4.203292 0.772807 0.048235
4.223181 0.775346 -0.001296
4.226212 0.744136 -0.001665
4.226209 0.743528 0.047876
4.223178 0.774738 0.048260
4.200260 0.804656 -0.000951
4.203291 0.773446 -0.001320
4.203289 0.772838 0.048235
4.200257 0.804048 0.048619
4.220146 0.806587 -0.000926
4.223178 0.775377 -0.001296
4.223175 0.774769 0.048260
4.220144 0.805979 0.048643
4.247395 0.778428 -0.001274
4.244337 0.809692 -0.000905
4.244405 0.809084 0.048720
4.247463 0.777820 0.048336
4.227510 0.776483 -0.001271
4.224452 0.807747 -0.000901
4.224520 0.807139 0.048724
4.227578 0.775875 0.048340
4.244334 0.809723 -0.000904
4.241275 0.840987 -0.000534
4.241344 0.840379 0.049104
4.244402 0.809115 0.048720
4.224449 0.807778 -0.000901
4.221390 0.839042 -0.000530
4.221459 0.838434 0.049108
4.224517 0.807170 0.048724
4.197226 0.835897 -0.000581
4.200257 0.804687 -0.000950
4.200254 0.804080 0.048619
4.197224 0.835289 0.049003
4.217112 0.837828 -0.000556
4.220143 0.806618 -0.000926
4.220141 0.806011 0.048644
4.217110 0.837220 0.049027
4.194192 0.867139 -0.000211
4.197223 0.835929 -0.000580
4.197221 0.835321 0.049003
4.194190 0.866530 0.049386
4.214078 0.869070 -0.000186
4.217109 0.837860 -0.000556
4.217107 0.837252 0.049027
4.214076 0.868462 0.049411
4.241272 0.841018 -0.000534
4.238215 0.872282 -0.000164
4.238284 0.871674 0.049488
4.241341 0.840410 0.049104
4.221387 0.839073 -0.000530
4.218330 0.870337 -0.000160
4.218399 0.869729 0.049492
4.221456 0.838466 0.049108
4.191157 0.898380 0.000159
4.194189 0.867170 -0.000210
4.194187 0.866562 0.049386
4.191155 0.897772 0.049770
4.211044 0.900311 0.000183
4.214075 0.869101 -0.000186
4.214073 0.868493 0.049411
4.211042 0.899703 0.049795
4.238212 0.872313 -0.000164
4.235154 0.903577 0.000206
4.235223 0.902969 0.049872
4.238281 0.871705 0.049488
4.218326 0.870368 -0.000160
4.215269 0.901632 0.000210
4.215338 0.901024 0.049876
4.218396 0.869760 0.049492
4.235151 0.903608 0.000207
4.232093 0.934872 0.000577
4.232162 0.934264 0.050256
4.235220 0.903000 0.049872
4.215265 0.901663 0.000211
4.212207 0.932927 0.000580
4.212277 0.932319 0.050260
4.215335 0.901055 0.049876
4.188123 0.929621 0.000529
4.191154 0.898411 0.000159
4.191152 0.897803 0.049770
4.188121 0.929013 0.050154
4.208010 0.931552 0.000553
4.211041 0.900342 0.000184
4.211039 0.899734 0.049795
4.208008 0.930944 0.050178
4.185089 0.960862 0.000898
4.188120 0.929652 0.000529
4.188118 0.929044 0.050154
4.185087 0.960254 0.050538
4.204975 0.962794 0.000923
4.208007 0.931584 0.000554
4.208005 0.930975 0.050178
4.204974 0.962185 0.050562
4.232089 0.934904 0.000577
4.229031 0.966167 0.000947
4.229101 0.965559 0.050640
4.232159 0.934295 0.050256
4.212204 0.932959 0.000581
4.209146 0.964222 0.000951
4.209216 0.963614 0.050644
4.212274 0.932350 0.050260
4.224529 0.554119 0.045598
4.227560 0.522909 0.045215
4.227556 0.522302 0.094659
4.224525 0.553512 0.095056
4.244415 0.556049 0.045623
4.247446 0.524839 0.045240
4.247443 0.524233 0.094684
4.244412 0.555443 0.095082
4.271949 0.527460 0.045314
4.268891 0.558724 0.045698
4.268959 0.558117 0.095213
4.272017 0.526854 0.094816
4.252064 0.525515 0.045317
4.249006 0.556779 0.045701
4.249074 0.556172 0.095216
4.252132 0.524909 0.094819
4.221495 0.585360 0.045982
4.224526 0.554150 0.045598
4.224522 0.553543 0.095057
4.221491 0.584753 0.095454
4.241382 0.587291 0.046007
4.244412 0.556081 0.045624
4.244409 0.555474 0.095082
4.241378 0.586684 0.095479
4.268888 0.558755 0.045698
4.265830 0.590019 0.046081
4.265899 0.589412 0.095611
4.268956 0.558149 0.095213
4.249003 0.556810 0.045702
4.245945 0.588074 0.046085
4.246014 0.587467 0.095614
4.249071 0.556204 0.095217
4.218461 0.616601 0.046366
4.221492 0.585391 0.045983
4.221488 0.584784 0.095454
4.218458 0.615994 0.095852
4.238348 0.618532 0.046391
4.241379 0.587322 0.046008
4.241375 0.586715 0.095479
4.238345 0.617925 0.095877
4.265827 0.590050 0.046082
4.262770 0.621313 0.046466
4.262839 0.620707 0.096008
4.265896 0.589443 0.095611
4.245942 0.588105 0.046085
4.242885 0.619369 0.046469
4.242953 0.618762 0.096012
4.246010 0.587499 0.095615
4.215427 0.647842 0.046750
4.218458 0.616632 0.046366
4.218455 0.616025 0.095852
4.215424 0.647235 0.096249
4.235314 0.649773 0.046775
4.238345 0.618563 0.046391
4.238342 0.617956 0.095877
4.235311 0.649166 0.096274
4.262767 0.621345 0.046466
4.259709 0.652609 0.046849
4.259778 0.652002 0.096406
4.262835 0.620738 0.096008
4.242882 0.619400 0.046470
4.239824 0.650664 0.046853
4.239892 0.650057 0.096410
4.242950 0.618793 0.096012
4.259706 0.652640 0.046850
4.256649 0.683904 0.047234
4.256717 0.683296 0.096803
4.259774 0.652033 0.096406
4.239821 0.650695 0.046853
4.236764 0.681959 0.047237
4.236832 0.681352 0.096807
4.239889 0.650088 0.096410
4.212393 0.679083 0.047133
4.215424 0.647873 0.046750
4.215421 0.647266 0.096250
4.212390 0.678476 0.096647
4.232280 0.681014 0.047158
4.235311 0.649804 0.046775
4.235308 0.649197 0.096274
4.232277 0.680407 0.096672
4.209360 0.710324 0.047517
4.212390 0.679115 0.047133
4.212387 0.678507 0.096647
4.209357 0.709717 0.097044
4.229246 0.712255 0.047542
4.232277 0.681045 0.047158
4.232274 0.680438 0.096672
4.229243 0.711648 0.097069
4.256646 0.683935 0.047234
4.253588 0.715198 0.047618
4.253656 0.714591 0.097201
4.256714 0.683328 0.096804
4.236761 0.681990 0.047238
4.233703 0.713254 0.047621
4.233771 0.712647 0.097205
4.236829 0.681383 0.096807
4.206325 0.741565 0.047901
4.209357 0.710356 0.047518
4.209354 0.709748 0.097045
4.206323 0.740958 0.097442
4.226212 0.743496 0.047925
4.229243 0.712286 0.047542
4.229240 0.711679 0.097070
4.226209 0.742889 0.097467
4.253585 0.715230 0.047618
4.250527 0.746494 0.048002
4.250596 0.745886 0.097599
4.253653 0.714623 0.097202
4.233700 0.713285 0.047622
4.230642 0.744549 0.048005
4.230711 0.743941 0.097602
4.233768 0.712678 0.097205
4.203292 0.772807 0.048285
4.206322 0.741597 0.047901
4.206320 0.740989 0.097443
4.203289 0.772199 0.097840
4.223178 0.774737 0.048309
4.226209 0.743528 0.047926
4.226206 0.742920 0.097468
4.223176 0.774130 0.097864
4.250524 0.746525 0.048002
4.247467 0.777788 0.048385
4.247535 0.777181 0.097997
4.250593 0.745917 0.097599
4.230639 0.744580 0.048006
4.227582 0.775844 0.048389
4.227650 0.775236 0.098000
4.230708 0.743973 0.097603
4.200257 0.804048 0.048668
4.203289 0.772838 0.048285
4.203286 0.772230 0.097840
4.200256 0.803440 0.098238
4.220144 0.805979 0.048693
4.223175 0.774769 0.048310
4.223173 0.774161 0.097865
4.220142 0.805371 0.098262
4.247464 0.777820 0.048386
4.244406 0.809083 0.048770
4.244475 0.808476 0.098394
4.247532 0.777212 0.097997
4.227578 0.775875 0.048390
4.224520 0.807139 0.048774
4.224590 0.806531 0.098398
4.227647 0.775267 0.098001
4.244402 0.809115 0.048770
4.241345 0.840379 0.049153
4.241414 0.839771 0.098792
4.244472 0.808507 0.098394
4.224517 0.807170 0.048774
4.221459 0.838433 0.049157
4.221529 0.837826 0.098796
4.224587 0.806562 0.098398
4.197224 0.835289 0.049052
4.200254 0.804079 0.048669
4.200253 0.803471 0.098238
4.197222 0.834681 0.098635
4.217110 0.837220 0.049077
4.220141 0.806010 0.048693
4.220139 0.805402 0.098263
4.217108 0.836612 0.098660
4.194190 0.866530 0.049436
4.197221 0.835320 0.049053
4.197219 0.834712 0.098636
4.194188 0.865922 0.099033
4.214076 0.868461 0.049460
4.217107 0.837251 0.049077
4.217105 0.836643 0.098660
4.214075 0.867853 0.099058
4.241341 0.840410 0.049154
4.238284 0.871673 0.049538
4.238354 0.871065 0.099189
4.241411 0.839802 0.098792
4.221456 0.838465 0.049158
4.218399 0.869729 0.049542
4.218469 0.869121 0.099193
4.221526 0.837857 0.098796
4.238281 0.871705 0.049538
4.235223 0.902968 0.049921
4.235293 0.902360 0.099587
4.238351 0.871097 0.099190
4.218396 0.869760 0.049542
4.215338 0.901023 0.049926
4.215408 0.900415 0.099591
4.218466 0.869152 0.099194
4.191156 0.897771 0.049820
4.194187 0.866561 0.049436
4.194185 0.865953 0.099034
4.191154 0.897163 0.099431
4.211042 0.899702 0.049844
4.214073 0.868492 0.049461
4.214072 0.867884 0.099058
4.211040 0.899094 0.099455
4.235220 0.903000 0.049922
4.232162 0.934263 0.050306
4.232232 0.933655 0.099985
4.235290 0.902392 0.099588
4.215335 0.901055 0.049926
4.212277 0.932318 0.050310
4.212347 0.931710 0.099989
4.215404 0.900447 0.099592
4.188121 0.929012 0.050203
4.191152 0.897802 0.049820
4.191150 0.897194 0.099431
4.188120 0.928404 0.099828
4.208008 0.930943 0.050228
4.211039 0.899733 0.049845
4.211037 0.899125 0.099455
4.208006 0.930335 0.099853
4.185087 0.960253 0.050587
4.188118 0.929043 0.050204
4.188117 0.928435 0.099829
4.185086 0.959645 0.100226
4.204974 0.962184 0.050612
4.208005 0.930974 0.050228
4.208003 0.930366 0.099853
4.204973 0.961576 0.100250
4.232159 0.934295 0.050306
4.229101 0.965558 0.050689
4.229172 0.964950 0.100383
4.232229 0.933686 0.099985
4.212274 0.932350 0.050310
4.209216 0.963613 0.050694
4.209286 0.963005 0.100387
4.212344 0.931742 0.099989
4.224525 0.553511 0.095106
4.227556 0.522302 0.094708
4.227552 0.521695 0.144153
4.224522 0.552905 0.144564
4.244412 0.555442 0.095131
4.247443 0.524232 0.094733
4.247439 0.523626 0.144178
4.244409 0.554836 0.144589
4.272017 0.526853 0.094865
4.268959 0.558117 0.095262
4.269027 0.557510 0.144778
4.272085 0.526247 0.144366
4.252132 0.524908 0.094869
4.249074 0.556172 0.095266
4.249142 0.555565 0.144781
4.252199 0.524302 0.144370
4.221491 0.584752 0.095503
4.224522 0.553543 0.095106
4.224519 0.552936 0.144564
4.221488 0.584146 0.144976
4.241378 0.586683 0.095528
4.244409 0.555473 0.095131
4.244406 0.554867 0.144589
4.241375 0.586076 0.145000
4.268956 0.558148 0.095263
4.265899 0.589411 0.095660
4.265967 0.588805 0.145189
4.269024 0.557541 0.144778
4.249071 0.556203 0.095266
4.246014 0.587467 0.095664
4.246081 0.586860 0.145192
4.249139 0.555597 0.144782
4.218458 0.615993 0.095901
4.221488 0.584784 0.095504
4.221485 0.584177 0.144976
4.218455 0.615387 0.145387
4.238345 0.617924 0.095926
4.241375 0.586714 0.095529
4.241372 0.586108 0.145001
4.238341 0.617317 0.145412
4.265896 0.589443 0.095661
4.262839 0.620706 0.096058
4.262906 0.620099 0.145601
4.265964 0.588836 0.145189
4.246011 0.587498 0.095664
4.242953 0.618762 0.096061
4.243021 0.618155 0.145604
4.246078 0.586891 0.145193
4.262836 0.620737 0.096058
4.259778 0.652001 0.096456
4.259846 0.651394 0.146012
4.262903 0.620131 0.145601
4.242950 0.618793 0.096062
4.239893 0.650056 0.096459
4.239961 0.649449 0.146015
4.243018 0.618186 0.145604
4.215424 0.647234 0.096299
4.218455 0.616025 0.095902
4.218452 0.615418 0.145387
4.215421 0.646627 0.145799
4.235311 0.649165 0.096324
4.238342 0.617955 0.095927
4.238338 0.617348 0.145412
4.235308 0.648558 0.145824
4.212390 0.678475 0.096697
4.215421 0.647266 0.096299
4.215418 0.646659 0.145799
4.212388 0.677868 0.146210
4.232277 0.680406 0.096721
4.235308 0.649196 0.096324
4.235305 0.648589 0.145824
4.232274 0.679799 0.146235
4.259775 0.652032 0.096456
4.256717 0.683296 0.096853
4.256786 0.682689 0.146423
4.259843 0.651425 0.146012
4.239889 0.650088 0.096460
4.236832 0.681351 0.096857
4.236901 0.680744 0.146427
4.239958 0.649481 0.146016
4.209357 0.709716 0.097094
4.212387 0.678507 0.096697
4.212385 0.677899 0.146211
4.209354 0.709109 0.146622
4.229243 0.711647 0.097119
4.232274 0.680437 0.096722
4.232271 0.679830 0.146235
4.229241 0.711040 0.146647
4.256714 0.683327 0.096853
4.253657 0.714591 0.097251
4.253726 0.713984 0.146834
4.256783 0.682720 0.146423
4.236829 0.681382 0.096857
4.233771 0.712646 0.097255
4.233841 0.712039 0.146838
4.236898 0.680776 0.146427
4.206323 0.740957 0.097492
4.209354 0.709748 0.097095
4.209351 0.709140 0.146622
4.206321 0.740350 0.147033
4.226209 0.742888 0.097517
4.229240 0.711678 0.097119
4.229238 0.711071 0.146647
4.226207 0.742281 0.147058
4.253653 0.714622 0.097251
4.250596 0.745886 0.097648
4.250665 0.745278 0.147246
4.253723 0.714015 0.146834
4.233768 0.712677 0.097255
4.230711 0.743941 0.097652
4.230780 0.743334 0.147250
4.233838 0.712070 0.146838
4.203289 0.772198 0.097890
4.206320 0.740989 0.097493
4.206318 0.740381 0.147034
4.203287 0.771591 0.147445
4.223176 0.774129 0.097914
4.226206 0.742919 0.097517
4.226204 0.742312 0.147058
4.223174 0.773522 0.147470
4.250593 0.745917 0.097649
4.247535 0.777180 0.098046
4.247605 0.776573 0.147657
4.250662 0.745310 0.147246
4.230708 0.743972 0.097653
4.227650 0.775236 0.098050
4.227720 0.774628 0.147661
4.230777 0.743365 0.147250
4.247532 0.777212 0.098047
4.244475 0.808475 0.098444
4.244545 0.807868 0.148068
4.247602 0.776604 0.147657
4.227647 0.775267 0.098051
4.224590 0.806531 0.098448
4.224660 0.805923 0.148072
4.227716 0.774660 0.147661
4.200256 0.803439 0.098287
4.203286 0.772230 0.097890
4.203284 0.771622 0.147446
4.200253 0.802831 0.147856
4.220142 0.805370 0.098312
4.223173 0.774160 0.097914
4.223171 0.773553 0.147470
4.220140 0.804762 0.147881
4.197222 0.834680 0.098685
4.200253 0.803471 0.098288
4.200250 0.802863 0.147857
4.197219 0.834072 0.148268
4.217108 0.836611 0.098709
4.220139 0.805401 0.098312
4.220137 0.804794 0.147882
4.217106 0.836003 0.148293
4.244472 0.808507 0.098444
4.241414 0.839770 0.098842
4.241484 0.839163 0.148480
4.244542 0.807899 0.148069
4.224587 0.806562 0.098448
4.221529 0.837825 0.098846
4.221599 0.837217 0.148484
4.224656 0.805954 0.148073
4.241411 0.839801 0.098842
4.238354 0.871065 0.099239
4.238423 0.870457 0.148891
4.241481 0.839194 0.148480
4.221526 0.837857 0.098846
4.218469 0.869120 0.099243
4.218538 0.868512 0.148895
4.221595 0.837249 0.148484
4.194188 0.865921 0.099083
4.197219 0.834712 0.098685
4.197216 0.834104 0.148269
4.194186 0.865313 0.148680
4.214075 0.867852 0.099107
4.217105 0.836642 0.098710
4.217103 0.836034 0.148293
4.214073 0.867244 0.148704
4.238351 0.871096 0.099239
4.235293 0.902360 0.099637
4.235363 0.901752 0.149302
4.238420 0.870488 0.148892
4.218466 0.869151 0.099243
4.215408 0.900415 0.099641
4.215477 0.899807 0.149306
4.218535 0.868543 0.148896
4.191153 0.897162 0.099480
4.194185 0.865952 0.099083
4.194183 0.865344 0.148680
4.191152 0.896554 0.149092
4.211040 0.899093 0.099505
4.214072 0.867884 0.099108
4.214070 0.867275 0.148704
4.211039 0.898485 0.149116
4.188120 0.928403 0.099878
4.191150 0.897194 0.099481
4.191149 0.896585 0.149092
4.188119 0.927795 0.149503
4.208006 0.930334 0.099902
4.211037 0.899124 0.099505
4.211036 0.898516 0.149116
4.208005 0.929726 0.149527
4.235290 0.902391 0.099637
4.232232 0.933654 0.100034
4.232302 0.933046 0.149714
4.235360 0.901783 0.149303
4.215405 0.900446 0.099641
4.212347 0.931710 0.100039
4.212417 0.931102 0.149718
4.215474 0.899838 0.149307
4.232229 0.933686 0.100035
4.229172 0.964949 0.100432
4.229242 0.964341 0.150125
4.232299 0.933078 0.149714
4.212344 0.931741 0.100039
4.209287 0.963005 0.100437
4.209357 0.962396 0.150129
4.212414 0.931133 0.149718
4.185086 0.959644 0.100276
4.188117 0.928434 0.099879
4.188116 0.927826 0.149503
4.185085 0.959036 0.149915
4.204973 0.961575 0.100300
4.208003 0.930365 0.099903
4.208002 0.929757 0.149527
4.204971 0.960967 0.149939
4.224522 0.552904 0.144613
4.227552 0.521695 0.144202
4.227549 0.521088 0.193646
4.224519 0.552298 0.194072
4.244409 0.554835 0.144638
4.247439 0.523625 0.144227
4.247436 0.523019 0.193671
4.244405 0.554228 0.194097
4.272085 0.526246 0.144416
4.269027 0.557510 0.144827
4.269095 0.556903 0.194342
4.272152 0.525640 0.193918
4.252200 0.524301 0.144419
4.249142 0.555565 0.144831
4.249210 0.554958 0.194346
4.252267 0.523695 0.193921
4.221488 0.584145 0.145025
4.224519 0.552935 0.144614
4.224516 0.552329 0.194072
4.221485 0.583538 0.194497
4.241375 0.586076 0.145050
4.244406 0.554866 0.144639
4.244402 0.554259 0.194097
4.241372 0.585469 0.194522
4.269024 0.557541 0.144828
4.265967 0.588804 0.145238
4.266035 0.588197 0.194767
4.269092 0.556934 0.194343
4.249139 0.555596 0.144831
4.246081 0.586859 0.145242
4.246150 0.586253 0.194771
4.249207 0.554990 0.194346
4.265964 0.588835 0.145239
4.262907 0.620099 0.145650
4.262975 0.619492 0.195192
4.266032 0.588229 0.194768
4.246078 0.586891 0.145242
4.243021 0.618154 0.145654
4.243090 0.617548 0.195196
4.246147 0.586284 0.194772
4.218455 0.615386 0.145436
4.221485 0.584176 0.145026
4.221482 0.583569 0.194497
4.218452 0.614779 0.194923
4.238341 0.617317 0.145461
4.241372 0.586107 0.145050
4.241369 0.585500 0.194522
4.238338 0.616710 0.194947
4.215421 0.646627 0.145848
4.218452 0.615417 0.145437
4.218449 0.614810 0.194923
4.215419 0.646020 0.195348
4.235308 0.648557 0.145873
4.238338 0.617348 0.145462
4.238335 0.616741 0.194948
4.235305 0.647950 0.195373
4.262903 0.620130 0.145650
4.259846 0.651393 0.146061
4.259915 0.650787 0.195618
4.262972 0.619523 0.195193
4.243018 0.618186 0.145654
4.239961 0.649449 0.146065
4.240030 0.648842 0.195621
4.243087 0.617579 0.195196
4.212388 0.677868 0.146260
4.215418 0.646658 0.145849
4.215416 0.646051 0.195348
4.212385 0.677261 0.195774
4.232274 0.679798 0.146284
4.235305 0.648589 0.145873
4.235302 0.647982 0.195373
4.232272 0.679191 0.195798
4.259843 0.651425 0.146061
4.256786 0.682688 0.146473
4.256855 0.682081 0.196042
4.259912 0.650818 0.195618
4.239958 0.649480 0.146065
4.236901 0.680744 0.146476
4.236970 0.680136 0.196046
4.240027 0.648873 0.195622
4.256783 0.682719 0.146473
4.253726 0.713983 0.146884
4.253795 0.713376 0.196468
4.256852 0.682112 0.196043
4.236898 0.680775 0.146477
4.233841 0.712038 0.146888
4.233910 0.711431 0.196471
4.236966 0.680168 0.196047
4.209354 0.709108 0.146672
4.212385 0.677899 0.146260
4.212382 0.677292 0.195774
4.209352 0.708501 0.196199
4.229241 0.711039 0.146696
4.232271 0.679830 0.146285
4.232269 0.679222 0.195799
4.229239 0.710432 0.196223
4.206321 0.740349 0.147083
4.209351 0.709140 0.146672
4.209349 0.708532 0.196199
4.206318 0.739742 0.196625
4.226207 0.742280 0.147108
4.229238 0.711070 0.146697
4.229236 0.710463 0.196224
4.226205 0.741672 0.196649
4.253723 0.714014 0.146884
4.250665 0.745278 0.147295
4.250735 0.744670 0.196892
4.253792 0.713407 0.196468
4.233838 0.712070 0.146888
4.230780 0.743333 0.147299
4.230849 0.742726 0.196896
4.233906 0.711462 0.196472
4.203287 0.771590 0.147495
4.206318 0.740381 0.147083
4.206315 0.739773 0.196625
4.203285 0.770983 0.197050
4.223174 0.773521 0.147519
4.226204 0.742311 0.147108
4.226202 0.741704 0.196650
4.223171 0.772913 0.197075
4.250662 0.745309 0.147296
4.247605 0.776572 0.147707
4.247674 0.775965 0.197318
4.250731 0.744702 0.196893
4.230777 0.743364 0.147300
4.227720 0.774627 0.147710
4.227789 0.774020 0.197322
4.230846 0.742757 0.196897
4.247602 0.776603 0.147707
4.244545 0.807867 0.148118
4.244614 0.807259 0.197742
4.247671 0.775996 0.197318
4.227717 0.774659 0.147711
4.224660 0.805922 0.148122
4.224729 0.805315 0.197746
4.227786 0.774052 0.197322
4.200253 0.802831 0.147906
4.203284 0.771621 0.147495
4.203282 0.771014 0.197050
4.200252 0.802223 0.197476
4.220140 0.804762 0.147931
4.223171 0.773552 0.147520
4.223168 0.772944 0.197075
4.220138 0.804154 0.197500
4.197219 0.834072 0.148318
4.200250 0.802862 0.147907
4.200249 0.802254 0.197476
4.197218 0.833464 0.197901
4.217106 0.836003 0.148342
4.220137 0.804793 0.147931
4.220135 0.804185 0.197500
4.217104 0.835395 0.197925
4.244542 0.807898 0.148119
4.241484 0.839162 0.148529
4.241553 0.838554 0.198168
4.244611 0.807291 0.197743
4.224657 0.805954 0.148123
4.221599 0.837217 0.148533
4.221668 0.836609 0.198172
4.224726 0.805346 0.197747
4.194186 0.865313 0.148729
4.197216 0.834103 0.148318
4.197215 0.833495 0.197901
4.194185 0.864705 0.198327
4.214073 0.867243 0.148754
4.217103 0.836034 0.148343
4.217101 0.835426 0.197926
4.214071 0.866635 0.198351
4.241481 0.839193 0.148530
4.238423 0.870456 0.148941
4.238493 0.869848 0.198592
4.241550 0.838585 0.198168
4.221596 0.837248 0.148534
4.218538 0.868512 0.148945
4.218608 0.867904 0.198597
4.221665 0.836640 0.198172
4.238420 0.870488 0.148941
4.235363 0.901751 0.149352
4.235433 0.901143 0.199018
4.238490 0.869880 0.198593
4.218535 0.868543 0.148946
4.215477 0.899806 0.149356
4.215548 0.899198 0.199022
4.218605 0.867935 0.198597
4.191152 0.896554 0.149141
4.194183 0.865344 0.148730
4.194182 0.864736 0.198327
4.191151 0.895945 0.198752
4.211039 0.898484 0.149165
4.214070 0.867275 0.148754
4.214068 0.866666 0.198351
4.211038 0.897876 0.198776
4.188119 0.927794 0.149553
4.191149 0.896585 0.149142
4.191148 0.895977 0.198752
4.188118 0.927186 0.199178
4.208005 0.929725 0.149577
4.211036 0.898515 0.149166
4.211035 0.897907 0.198777
4.208004 0.929117 0.199202
4.235360 0.901782 0.149352
4.232303 0.933046 0.149763
4.232373 0.932437 0.199442
4.235430 0.901174 0.199018
4.215474 0.899838 0.149357
4.212417 0.931101 0.149768
4.212488 0.930493 0.199447
4.215545 0.899230 0.199022
4.185085 0.959033 0.149964
4.188116 0.927824 0.149552
4.188115 0.927215 0.199177
4.185078 0.958339 0.200959
4.204971 0.960968 0.149990
4.208002 0.929758 0.149579
4.208001 0.929150 0.199204
4.204965 0.960274 0.200985
4.232286 0.933201 0.149845
4.229229 0.964464 0.150256
4.228509 0.963766 0.200710
4.232356 0.932593 0.199524
4.212427 0.931008 0.149688
4.209370 0.962272 0.150098
4.208650 0.961574 0.200553
4.212498 0.930400 0.199367
4.224519 0.552297 0.194121
4.227549 0.521087 0.193696
4.227546 0.520481 0.243140
4.224516 0.551690 0.243579
4.244405 0.554228 0.194146
4.247436 0.523018 0.193721
4.247432 0.522412 0.243165
4.244402 0.553621 0.243604
4.272152 0.525639 0.193967
4.269095 0.556902 0.194392
4.269164 0.556296 0.243907
4.272221 0.525033 0.243468
4.252267 0.523695 0.193971
4.249210 0.554958 0.194395
4.249279 0.554351 0.243911
4.252336 0.523088 0.243472
4.221485 0.583538 0.194546
4.224516 0.552328 0.194122
4.224513 0.551722 0.243579
4.221483 0.582931 0.244018
4.241372 0.585468 0.194571
4.244402 0.554259 0.194146
4.244399 0.553652 0.243604
4.241369 0.584861 0.244043
4.269092 0.556934 0.194392
4.266035 0.588197 0.194817
4.266104 0.587590 0.244346
4.269161 0.556327 0.243908
4.249207 0.554989 0.194396
4.246150 0.586252 0.194821
4.246219 0.585646 0.244349
4.249276 0.554383 0.243911
4.218452 0.614778 0.194972
4.221482 0.583569 0.194547
4.221480 0.582962 0.244019
4.218450 0.614172 0.244458
4.238338 0.616709 0.194997
4.241369 0.585499 0.194571
4.241366 0.584893 0.244044
4.238336 0.616102 0.244482
4.266032 0.588228 0.194817
4.262975 0.619491 0.195242
4.263044 0.618885 0.244785
4.266101 0.587622 0.244346
4.246147 0.586284 0.194821
4.243090 0.617547 0.195245
4.243159 0.616940 0.244788
4.246216 0.585677 0.244350
4.215419 0.646019 0.195397
4.218449 0.614810 0.194973
4.218447 0.614203 0.244458
4.215417 0.645412 0.244897
4.235305 0.647950 0.195422
4.238335 0.616740 0.194997
4.238333 0.616133 0.244483
4.235303 0.647343 0.244922
4.262972 0.619523 0.195242
4.259915 0.650786 0.195667
4.259984 0.650179 0.245223
4.263041 0.618916 0.244785
4.243087 0.617578 0.195246
4.240030 0.648842 0.195671
4.240099 0.648235 0.245227
4.243155 0.616972 0.244789
4.212385 0.677260 0.195823
4.215416 0.646050 0.195398
4.215414 0.645443 0.244898
4.212383 0.676653 0.245337
4.232272 0.679190 0.195848
4.235302 0.647981 0.195422
4.235300 0.647374 0.244922
4.232270 0.678583 0.245361
4.259912 0.650817 0.195668
4.256855 0.682081 0.196092
4.256924 0.681474 0.245662
4.259981 0.650211 0.245223
4.240027 0.648873 0.195671
4.236970 0.680136 0.196096
4.237039 0.679529 0.245666
4.240096 0.648266 0.245227
4.256852 0.682112 0.196092
4.253795 0.713375 0.196517
4.253864 0.712768 0.246100
4.256921 0.681505 0.245662
4.236967 0.680167 0.196096
4.233910 0.711431 0.196521
4.233979 0.710823 0.246104
4.237036 0.679560 0.245666
4.209352 0.708501 0.196249
4.212382 0.677291 0.195824
4.212380 0.676684 0.245337
4.209350 0.707893 0.245776
4.229239 0.710431 0.196273
4.232269 0.679222 0.195848
4.232267 0.678614 0.245362
4.229237 0.709824 0.245801
4.206318 0.739741 0.196674
4.209349 0.708532 0.196249
4.209347 0.707924 0.245777
4.206317 0.739134 0.246216
4.226205 0.741672 0.196699
4.229236 0.710462 0.196273
4.229234 0.709855 0.245801
4.226203 0.741064 0.246240
4.253792 0.713406 0.196518
4.250735 0.744670 0.196942
4.250804 0.744062 0.246539
4.253861 0.712799 0.246101
4.233907 0.711462 0.196522
4.230849 0.742725 0.196946
4.230919 0.742118 0.246543
4.233976 0.710855 0.246105
4.250732 0.744701 0.196942
4.247674 0.775964 0.197367
4.247743 0.775357 0.246978
