3.776884 0.646598 -0.432852
3.760076 0.641315 -0.427248
3.760122 0.619709 -0.401048
3.778456 0.638751 -0.415077
3.795321 0.587432 -0.473157
3.778512 0.582149 -0.467553
3.778558 0.560543 -0.441353
3.796892 0.579585 -0.455382
3.764054 0.690924 -0.414672
3.773210 0.682415 -0.397157
3.766595 0.684836 -0.418460
3.701248 0.655116 -0.399241
3.710403 0.646606 -0.381725
3.703788 0.649028 -0.403028
3.750225 0.618251 -0.444244
3.750581 0.627976 -0.443881
3.737573 0.621197 -0.496241
3.737902 0.606827 -0.492632
3.821984 0.615799 -0.461843
3.822340 0.625524 -0.461480
3.809332 0.618744 -0.513840
3.809661 0.604375 -0.510231
3.739679 0.608176 -0.487418
3.739350 0.622545 -0.491026
3.718376 0.604200 -0.538323
3.720046 0.591654 -0.532133
3.807850 0.603000 -0.515542
3.807521 0.617369 -0.519151
3.786547 0.599024 -0.566448
3.788217 0.586478 -0.560257
3.722086 0.595897 -0.529095
3.720415 0.608443 -0.535285
3.693869 0.588158 -0.578707
3.695522 0.578323 -0.569749
3.786130 0.582199 -0.563383
3.784460 0.594744 -0.569574
3.757914 0.574459 -0.612995
3.759567 0.564624 -0.604037
3.760520 0.647324 -0.452212
3.777329 0.652607 -0.457816
3.765005 0.641183 -0.506204
3.749279 0.640197 -0.498795
3.778056 0.576146 -0.442659
3.794864 0.581429 -0.448263
3.782541 0.570004 -0.496651
3.766814 0.569019 -0.489242
3.750143 0.639359 -0.503835
3.765870 0.640345 -0.511244
3.746237 0.623824 -0.555959
3.734436 0.623080 -0.547296
3.765920 0.569830 -0.484294
3.781647 0.570816 -0.491703
3.762013 0.554294 -0.536418
3.750213 0.553551 -0.527755
3.734161 0.623097 -0.547006
3.745961 0.623840 -0.555669
3.719398 0.606266 -0.596323
3.706174 0.606940 -0.583655
3.750443 0.553501 -0.528128
3.762244 0.554244 -0.536791
3.735680 0.536670 -0.577444
3.722456 0.537345 -0.564776
3.763174 0.680171 -0.482418
3.771675 0.652598 -0.498743
3.754269 0.642063 -0.528966
3.746535 0.670837 -0.507289
3.718816 0.638854 -0.440106
3.727317 0.611281 -0.456431
3.709911 0.600746 -0.486653
3.702177 0.629520 -0.464977
3.773230 0.653400 -0.496090
3.781746 0.626098 -0.512531
3.766038 0.609819 -0.555992
3.755824 0.642864 -0.526313
3.725779 0.610422 -0.459126
3.734295 0.583120 -0.475566
3.718587 0.566841 -0.519028
3.708373 0.599886 -0.489348
3.739561 0.673877 -0.510083
3.747294 0.645103 -0.531760
3.724907 0.629082 -0.563803
3.718712 0.663953 -0.531266
3.709113 0.626457 -0.462236
3.716847 0.597683 -0.483913
3.694459 0.581662 -0.515957
3.688264 0.616533 -0.483420
3.746873 0.646548 -0.530514
3.757087 0.613503 -0.560194
3.729100 0.597347 -0.596842
3.724485 0.630528 -0.562558
3.717283 0.596173 -0.485218
3.727497 0.563128 -0.514898
3.699510 0.546971 -0.551546
3.694896 0.580152 -0.517261
3.778990 0.707057 -0.422495
3.773802 0.689588 -0.449397
3.761194 0.685677 -0.477814
3.756365 0.690021 -0.469925
3.738614 0.654779 -0.389301
3.733426 0.637310 -0.416203
3.720818 0.633399 -0.444620
3.715989 0.637743 -0.436732
3.742756 0.696528 -0.469372
3.747585 0.692184 -0.477260
3.730946 0.682850 -0.502131
3.726130 0.689063 -0.492464
3.729563 0.631218 -0.437347
3.734392 0.626874 -0.445236
3.717753 0.617540 -0.470107
3.712937 0.623753 -0.460440
3.726138 0.687095 -0.495973
3.730955 0.680882 -0.505639
3.710106 0.670959 -0.526822
3.707438 0.678692 -0.517075
3.712892 0.625703 -0.456977
3.717708 0.619491 -0.466644
3.696859 0.609567 -0.487827
3.694191 0.617301 -0.478079
3.722250 0.701445 -0.413535
3.745850 0.715432 -0.408653
3.723224 0.698396 -0.456084
3.706967 0.699256 -0.428526
3.748135 0.632421 -0.407996
3.771735 0.646408 -0.403114
3.749110 0.629372 -0.450544
3.732853 0.630232 -0.422987
3.714106 0.700767 -0.431660
3.730363 0.699907 -0.459218
3.713736 0.692443 -0.482311
3.696503 0.697039 -0.443474
3.725678 0.628706 -0.419901
3.741935 0.627846 -0.447459
3.725309 0.620381 -0.470552
3.708075 0.624977 -0.431715
3.695977 0.696629 -0.445184
3.713211 0.692033 -0.484020
3.694510 0.683631 -0.505123
3.677425 0.691866 -0.455063
3.708565 0.625375 -0.430039
3.725798 0.620778 -0.468876
3.707098 0.612376 -0.489978
3.690013 0.620611 -0.439918
3.752477 0.694274 -0.429799
3.755017 0.688186 -0.433586
3.739735 0.685997 -0.448577
3.736380 0.693413 -0.444914
3.712804 0.651769 -0.384143
3.715344 0.645681 -0.387930
3.700062 0.643492 -0.402921
3.696708 0.650908 -0.399258
3.732077 0.690896 -0.449908
3.735432 0.683479 -0.453571
3.717829 0.679751 -0.465386
3.714577 0.687130 -0.462773
3.700977 0.653420 -0.394290
3.704332 0.646003 -0.397953
3.686728 0.642275 -0.409768
3.683477 0.649654 -0.407155
3.711391 0.684533 -0.465834
3.714643 0.677154 -0.468447
3.696091 0.672391 -0.478326
3.692329 0.679964 -0.475931
3.686626 0.652243 -0.404116
3.689878 0.644864 -0.406729
3.671326 0.640100 -0.416608
3.667564 0.647673 -0.414213
3.555319 0.547892 -0.570365
3.513453 0.559541 -0.522472
3.514361 0.543642 -0.520980
3.557468 0.536699 -0.567815
3.499908 0.534613 -0.617464
3.458042 0.546262 -0.569571
3.458950 0.530363 -0.568079
3.502057 0.523420 -0.614914
3.515815 0.564029 -0.527635
3.477307 0.572469 -0.476183
3.484854 0.555307 -0.471509
3.516723 0.548130 -0.526143
3.455602 0.541791 -0.564307
3.417093 0.550231 -0.512855
3.424640 0.533069 -0.508182
3.456510 0.525892 -0.562815
3.537048 0.571544 -0.588265
3.526284 0.566243 -0.598025
3.483177 0.573187 -0.551190
3.489163 0.572222 -0.546164
3.544016 0.499165 -0.574934
3.533251 0.493864 -0.584694
3.490144 0.500807 -0.537860
3.496130 0.499842 -0.532834
3.492713 0.572526 -0.545358
3.486727 0.573491 -0.550384
3.454858 0.580668 -0.495750
3.461711 0.583174 -0.491030
3.492502 0.499551 -0.533541
3.486516 0.500516 -0.538567
3.454647 0.507693 -0.483933
3.461500 0.510199 -0.479213
3.516458 0.624901 -0.542045
3.519899 0.589296 -0.573487
3.478894 0.593065 -0.539946
3.481935 0.622222 -0.520054
3.552995 0.585118 -0.491572
3.556435 0.549514 -0.523014
3.515430 0.553283 -0.489473
3.518471 0.582440 -0.469581
3.475422 0.617929 -0.517382
3.472381 0.588772 -0.537274
3.441295 0.590338 -0.499053
3.446174 0.617657 -0.488634
3.524916 0.586734 -0.472191
3.521875 0.557577 -0.492083
3.490789 0.559142 -0.453861
3.495668 0.586462 -0.443442
3.518710 0.589598 -0.572332
3.521080 0.555601 -0.605635
3.473194 0.556278 -0.563534
3.477705 0.593367 -0.538790
3.557624 0.549144 -0.524225
3.559993 0.515146 -0.557528
3.512108 0.515823 -0.515427
3.516618 0.552912 -0.490683
3.469669 0.587317 -0.534983
3.465159 0.550228 -0.559727
3.434157 0.560877 -0.505399
3.438583 0.588883 -0.496762
3.524578 0.558970 -0.494406
3.520068 0.521881 -0.519150
3.489066 0.532530 -0.464822
3.493492 0.560536 -0.456184
3.520425 0.639633 -0.526772
3.520160 0.632818 -0.536333
3.485636 0.630139 -0.514342
3.487364 0.636807 -0.506212
3.549559 0.584057 -0.487689
3.549294 0.577241 -0.497250
3.514770 0.574562 -0.475258
3.516497 0.581231 -0.467129
3.484141 0.636312 -0.504136
3.482413 0.629644 -0.512265
3.453166 0.629371 -0.483516
3.457285 0.636531 -0.476001
3.519658 0.581723 -0.469156
3.517931 0.575054 -0.477285
3.488683 0.574782 -0.448536
3.492802 0.581942 -0.441022
3.537463 0.661554 -0.460507
3.527276 0.647096 -0.515248
3.494214 0.644270 -0.494688
3.513168 0.659110 -0.449092
3.552911 0.591074 -0.444414
3.542724 0.576616 -0.499154
3.509662 0.573790 -0.478594
3.528616 0.588630 -0.432998
3.512440 0.659091 -0.448416
3.493486 0.644251 -0.494012
3.466630 0.644470 -0.465878
3.489504 0.655744 -0.434684
3.529291 0.588645 -0.433637
3.510337 0.573804 -0.479233
3.483481 0.574023 -0.451099
3.506355 0.585298 -0.419906
3.527219 0.646556 -0.480185
3.528903 0.636662 -0.483962
3.504608 0.634218 -0.472547
3.504711 0.643751 -0.469138
3.559801 0.625884 -0.417128
3.561485 0.615990 -0.420905
3.537190 0.613547 -0.409490
3.537293 0.623080 -0.406081
3.501409 0.645093 -0.466698
3.501307 0.635560 -0.470107
3.478371 0.632213 -0.456375
3.480218 0.642747 -0.453040
3.540548 0.621732 -0.408496
3.540446 0.612199 -0.411905
3.517510 0.608852 -0.398173
3.519357 0.619386 -0.394838
3.578243 0.551603 -0.601915
3.552898 0.558148 -0.572904
3.555047 0.546955 -0.570354
3.580212 0.547596 -0.597199
3.527742 0.517800 -0.644011
3.502397 0.524345 -0.615000
3.504546 0.513152 -0.612450
3.529711 0.513793 -0.639295
3.595265 0.638250 -0.557161
3.610676 0.602061 -0.588095
3.571017 0.597323 -0.584893
3.561729 0.632654 -0.553973
3.606677 0.592766 -0.500012
3.622088 0.556577 -0.530946
3.582429 0.551838 -0.527744
3.573141 0.587170 -0.496824
3.611595 0.603474 -0.587085
3.625382 0.568338 -0.619904
3.580368 0.565399 -0.615095
3.571936 0.598736 -0.583883
3.621192 0.555094 -0.532019
3.634980 0.519958 -0.564838
3.589966 0.517019 -0.560029
3.581534 0.550355 -0.528816
3.557751 0.632474 -0.553031
3.567039 0.597142 -0.583951
3.528556 0.591974 -0.575908
3.525115 0.627579 -0.544466
3.577047 0.587340 -0.497753
3.586335 0.552008 -0.528673
3.547852 0.546840 -0.520630
3.544411 0.582445 -0.489188
3.568965 0.598894 -0.583055
3.577396 0.565557 -0.614267
3.532851 0.559728 -0.608314
3.530482 0.593725 -0.575011
3.584422 0.550188 -0.529633
3.592853 0.516851 -0.560846
3.548308 0.511022 -0.554893
3.545938 0.545019 -0.521590
3.591809 0.649141 -0.544860
3.593931 0.642926 -0.552362
3.560395 0.637330 -0.549173
3.558953 0.643537 -0.541320
3.605875 0.594346 -0.497270
3.607996 0.588131 -0.504773
3.574461 0.582535 -0.501584
3.573019 0.588742 -0.493731
3.555477 0.644179 -0.539200
3.556920 0.637972 -0.547053
3.524284 0.633077 -0.538487
3.524549 0.639893 -0.528927
3.576429 0.588090 -0.495839
3.577871 0.581884 -0.503692
3.545236 0.576989 -0.495126
3.545501 0.583805 -0.485565
3.590737 0.670606 -0.471633
3.591812 0.657068 -0.529381
3.558956 0.651465 -0.525841
3.564101 0.666048 -0.468057
3.604797 0.599975 -0.454937
3.605872 0.586438 -0.512684
3.573016 0.580835 -0.509145
3.578161 0.595418 -0.451361
3.563241 0.665945 -0.467721
3.558096 0.651361 -0.525505
3.527167 0.647075 -0.515232
3.537355 0.661534 -0.460491
3.578963 0.595513 -0.451685
3.573818 0.580929 -0.509469
3.542889 0.576643 -0.499196
3.553077 0.591101 -0.444455
3.588280 0.657475 -0.493029
3.590920 0.648665 -0.497030
3.564284 0.644108 -0.493454
3.562256 0.653108 -0.489462
3.601972 0.630748 -0.425477
3.604613 0.621939 -0.429478
3.577977 0.617382 -0.425902
3.575949 0.626382 -0.421910
3.558062 0.651287 -0.489022
3.560090 0.642287 -0.493014
3.534204 0.637875 -0.485784
3.532520 0.647769 -0.482007
3.580091 0.628195 -0.422339
3.582120 0.619195 -0.426331
3.556233 0.614784 -0.419102
3.554550 0.624677 -0.415325
3.690109 0.670288 -0.481057
3.648284 0.659040 -0.493826
3.645023 0.667316 -0.490934
3.686346 0.677861 -0.478661
3.677248 0.642187 -0.413900
3.635423 0.630939 -0.426669
3.632162 0.639215 -0.423778
3.673486 0.649760 -0.411505
3.640823 0.658508 -0.494639
3.596814 0.648837 -0.497639
3.594174 0.657647 -0.493638
3.637563 0.666784 -0.491748
3.642798 0.631451 -0.425871
3.598789 0.621781 -0.428870
3.596149 0.630590 -0.424870
3.639538 0.639727 -0.422980
3.705778 0.665048 -0.534658
3.711974 0.630177 -0.567195
3.667985 0.615717 -0.582735
3.656319 0.651766 -0.552304
3.701129 0.615412 -0.480071
3.707324 0.580541 -0.512608
3.663336 0.566080 -0.528148
3.651669 0.602129 -0.497717
3.709285 0.630989 -0.566531
3.713900 0.597809 -0.600816
3.675191 0.578337 -0.616865
3.665297 0.616529 -0.582071
3.710029 0.579657 -0.513338
3.714644 0.546477 -0.547623
3.675934 0.527005 -0.563671
3.666040 0.565197 -0.528878
3.650872 0.650107 -0.553654
3.662538 0.614058 -0.584085
3.613352 0.602499 -0.588154
3.597941 0.638688 -0.557220
3.657018 0.603763 -0.496387
3.668685 0.567714 -0.526818
3.619499 0.556156 -0.530887
3.604088 0.592344 -0.499953
3.662253 0.615207 -0.583081
3.672147 0.577014 -0.617875
3.626854 0.568512 -0.619969
3.613067 0.603648 -0.587150
3.668996 0.566492 -0.527886
3.678890 0.528300 -0.562680
3.633598 0.519797 -0.564774
3.619810 0.554934 -0.531955
3.701118 0.677030 -0.520457
3.703786 0.669296 -0.530204
3.654326 0.656013 -0.547850
3.652382 0.662689 -0.539357
3.700442 0.618941 -0.474737
3.703110 0.611207 -0.484485
3.653651 0.597925 -0.502131
3.651707 0.604600 -0.493638
3.647649 0.661665 -0.540205
3.649593 0.654990 -0.548698
3.596662 0.643571 -0.552263
3.594541 0.649785 -0.544761
3.656338 0.605599 -0.492812
3.658282 0.598923 -0.501305
3.605351 0.587504 -0.504870
3.603230 0.593718 -0.497368
3.693702 0.683308 -0.505882
3.644966 0.668968 -0.524782
3.634792 0.680295 -0.468591
3.676617 0.691543 -0.455822
3.707842 0.612679 -0.489250
3.659107 0.598339 -0.508150
3.648932 0.609666 -0.451959
3.690757 0.620914 -0.439190
3.644816 0.668914 -0.524882
3.591708 0.657034 -0.529438
3.590633 0.670571 -0.471690
3.634642 0.680242 -0.468691
3.659163 0.598369 -0.508070
3.606055 0.586489 -0.512626
3.604979 0.600026 -0.454879
3.648988 0.609697 -0.451879
3.625050 0.578948 -0.686966
3.625295 0.576697 -0.695302
3.592442 0.573317 -0.682903
3.595004 0.574877 -0.672636
3.638994 0.507504 -0.674065
3.639240 0.505253 -0.682402
3.606387 0.501873 -0.670002
3.608949 0.503434 -0.659735
3.593474 0.575115 -0.667197
3.590912 0.573554 -0.677464
3.565496 0.568932 -0.652882
3.571711 0.570054 -0.641710
3.610424 0.503188 -0.665135
3.607862 0.501627 -0.675402
3.582446 0.497005 -0.650820
3.588661 0.498127 -0.639649
3.584006 0.570556 -0.636012
3.577791 0.569434 -0.647184
3.556861 0.571169 -0.618348
3.558829 0.567162 -0.613632
3.576319 0.497619 -0.645296
3.570104 0.496497 -0.656467
3.549174 0.498232 -0.627631
3.551142 0.494225 -0.622915
3.703111 0.605273 -0.586188
3.716334 0.604598 -0.598856
3.704276 0.589033 -0.632377
3.695659 0.589902 -0.620289
3.725483 0.538980 -0.562316
3.738707 0.538306 -0.574984
3.726649 0.522741 -0.608504
3.718031 0.523610 -0.596417
3.697362 0.591745 -0.615555
3.705980 0.590876 -0.627643
3.688928 0.580349 -0.660057
3.684283 0.580575 -0.649277
3.716303 0.521740 -0.601218
3.724921 0.520871 -0.613305
3.707869 0.510344 -0.645719
3.703224 0.510570 -0.634939
3.693872 0.582306 -0.646188
3.698516 0.582080 -0.656968
3.668997 0.578573 -0.680902
3.667199 0.580531 -0.672094
3.693592 0.508826 -0.638087
3.698237 0.508600 -0.648867
3.668718 0.505093 -0.672801
3.666920 0.507051 -0.663993
3.669238 0.579683 -0.676610
3.671036 0.577725 -0.685417
3.634512 0.576870 -0.697400
3.634266 0.579121 -0.689064
3.664817 0.507896 -0.659514
3.666615 0.505939 -0.668322
3.630090 0.505084 -0.680305
3.629845 0.507335 -0.671968
3.579778 0.572182 -0.670359
3.578054 0.562833 -0.681471
3.556291 0.557772 -0.655984
3.559131 0.566792 -0.645823
3.627575 0.524830 -0.639727
3.625851 0.515481 -0.650840
3.604088 0.510420 -0.625353
3.606928 0.519440 -0.615192
3.564372 0.572177 -0.643681
3.561532 0.563157 -0.653842
3.536355 0.559763 -0.631461
3.543646 0.567507 -0.619007
3.601642 0.514045 -0.617286
3.598802 0.505025 -0.627447
3.573625 0.501631 -0.605066
3.580916 0.509375 -0.592611
3.549508 0.571871 -0.615056
3.542218 0.564127 -0.627511
3.517053 0.563486 -0.600666
3.527818 0.568787 -0.590906
3.575006 0.505005 -0.596513
3.567716 0.497261 -0.608968
3.542551 0.496620 -0.582123
3.553315 0.501920 -0.572363
3.627903 0.580845 -0.588763
3.628647 0.584910 -0.628224
3.607260 0.583073 -0.624163
3.609709 0.581359 -0.604414
3.632496 0.507423 -0.596062
3.633239 0.511489 -0.635523
3.611853 0.509652 -0.631463
3.614301 0.507938 -0.611714
3.628060 0.580875 -0.588979
3.609865 0.581389 -0.604631
3.594295 0.580000 -0.600574
3.583046 0.577936 -0.584170
3.632310 0.507388 -0.595811
3.614115 0.507902 -0.611463
3.598545 0.506513 -0.607406
3.587295 0.504449 -0.591002
3.609284 0.581363 -0.604767
3.606836 0.583077 -0.624516
3.589388 0.580643 -0.613056
3.593714 0.579975 -0.600710
3.614689 0.507930 -0.611359
3.612241 0.509645 -0.631108
3.594793 0.507210 -0.619648
3.599119 0.506542 -0.607302
3.604771 0.582902 -0.624927
3.598920 0.585050 -0.652124
3.578272 0.579660 -0.627589
3.587323 0.580467 -0.613467
3.614295 0.509822 -0.630734
3.608444 0.511970 -0.657931
3.587796 0.506580 -0.633395
3.596847 0.507388 -0.619274
3.592724 0.579943 -0.601393
3.588398 0.580612 -0.613740
3.576114 0.578224 -0.600622
3.581475 0.577879 -0.584989
3.600081 0.506569 -0.606596
3.595754 0.507237 -0.618942
3.583470 0.504849 -0.605825
3.588831 0.504504 -0.590192
3.585857 0.580335 -0.614976
3.576807 0.579528 -0.629097
3.556080 0.574858 -0.604423
3.573573 0.577947 -0.601859
3.598277 0.507512 -0.617728
3.589226 0.506705 -0.631850
3.568500 0.502035 -0.607175
3.585993 0.505124 -0.604611
3.574567 0.578114 -0.602198
3.557074 0.575025 -0.604762
3.535383 0.571940 -0.580612
3.579929 0.577769 -0.586565
3.584973 0.504952 -0.604233
3.567480 0.501863 -0.606797
3.545790 0.498778 -0.582647
3.590335 0.504607 -0.588600
3.684267 0.571008 -0.686188
3.678752 0.580869 -0.678680
3.701408 0.581109 -0.654793
3.710939 0.572782 -0.660282
3.649842 0.516585 -0.649882
3.644326 0.526447 -0.642374
3.666982 0.526686 -0.618488
3.676514 0.518360 -0.623976
3.709607 0.575056 -0.657773
3.700076 0.583382 -0.652285
3.714960 0.589976 -0.624290
3.722687 0.586226 -0.624051
3.677884 0.516096 -0.626429
3.668353 0.524423 -0.620941
3.683237 0.531016 -0.592946
3.690964 0.527266 -0.592707
3.628387 0.584885 -0.628144
3.627643 0.580819 -0.588683
3.648083 0.584009 -0.605918
3.652122 0.586362 -0.626280
3.633542 0.511517 -0.635604
3.632798 0.507452 -0.596143
3.653238 0.510641 -0.613378
3.657277 0.512994 -0.633740
3.656800 0.590250 -0.658248
3.649995 0.586272 -0.627766
3.668081 0.589127 -0.616515
3.679455 0.590490 -0.634361
3.666262 0.517072 -0.662776
3.659457 0.513094 -0.632294
3.677543 0.515949 -0.621043
3.688918 0.517312 -0.638889
3.647249 0.585795 -0.627508
3.643210 0.583442 -0.607147
3.658935 0.586567 -0.603766
3.665336 0.588649 -0.616257
3.662188 0.513567 -0.632512
3.658149 0.511214 -0.612150
3.673874 0.514339 -0.608770
3.680275 0.516422 -0.621260
3.643865 0.583636 -0.610856
3.623425 0.580447 -0.593621
3.668718 0.588949 -0.591527
3.659590 0.586761 -0.607476
3.657484 0.511017 -0.608408
3.637044 0.507827 -0.591173
3.682336 0.516329 -0.589079
3.673208 0.514142 -0.605028
3.673859 0.589374 -0.637649
3.662484 0.588011 -0.619802
3.672940 0.590051 -0.605505
3.688743 0.595968 -0.609654
3.694548 0.518433 -0.635563
3.683173 0.517070 -0.617717
3.693629 0.519110 -0.603419
3.709432 0.525026 -0.607569
3.663967 0.588418 -0.618031
3.657566 0.586336 -0.605541
3.666695 0.588523 -0.589592
3.674423 0.590458 -0.603733
3.681670 0.516658 -0.619464
3.675269 0.514575 -0.606973
3.684397 0.516763 -0.591024
3.692125 0.518697 -0.605166
3.684409 0.594127 -0.613050
3.668606 0.588210 -0.608900
3.660878 0.586276 -0.594758
3.699587 0.605748 -0.578710
3.713783 0.526876 -0.604128
3.697979 0.520960 -0.599978
3.690251 0.519025 -0.585836
3.728960 0.538497 -0.569788
3.729131 0.601654 -0.590804
3.721679 0.586284 -0.624905
3.713953 0.590033 -0.625144
3.699444 0.542597 -0.557698
3.691992 0.527226 -0.591800
3.684266 0.530976 -0.592038
3.690747 0.585231 -0.585075
3.680342 0.559832 -0.609637
3.692400 0.575396 -0.576116
3.761002 0.577353 -0.606689
3.750597 0.551953 -0.631251
3.762655 0.567518 -0.597730
3.429026 0.608910 -0.467120
3.438163 0.610645 -0.480870
3.433284 0.583325 -0.491289
3.426461 0.582204 -0.471518
3.494503 0.591738 -0.437407
3.503640 0.593473 -0.451156
3.498761 0.566154 -0.461575
3.491938 0.565033 -0.441804
3.418082 0.598788 -0.447706
3.426092 0.599794 -0.461938
3.423527 0.573089 -0.466335
3.420851 0.581670 -0.441660
3.489413 0.599851 -0.428321
3.497423 0.600856 -0.442553
3.494858 0.574151 -0.446950
3.492182 0.582732 -0.422275
3.414789 0.589988 -0.424520
3.418504 0.588486 -0.440646
3.421274 0.571367 -0.434601
3.419414 0.580906 -0.421745
3.485266 0.611665 -0.419221
3.488982 0.610162 -0.435347
3.491752 0.593043 -0.429301
3.489892 0.602583 -0.416446
3.419655 0.566555 -0.432703
3.418724 0.563699 -0.415973
3.426302 0.576111 -0.417772
3.426774 0.579898 -0.431006
3.483700 0.529988 -0.437810
3.482769 0.527131 -0.421080
3.490347 0.539544 -0.422878
3.490820 0.543331 -0.436113
3.421526 0.571095 -0.452925
3.420573 0.568221 -0.436196
3.427693 0.581564 -0.434498
3.428770 0.580463 -0.447843
3.483736 0.531200 -0.451078
3.482783 0.528326 -0.434348
3.489903 0.541669 -0.432651
3.490980 0.540568 -0.445996
3.431869 0.583434 -0.487576
3.427443 0.555428 -0.496213
3.422672 0.557839 -0.479417
3.425046 0.582313 -0.467805
3.500169 0.565992 -0.465305
3.495743 0.537985 -0.473943
3.490972 0.540396 -0.457147
3.493346 0.564871 -0.445534
3.419852 0.578310 -0.434599
3.422528 0.569729 -0.459273
3.423212 0.556658 -0.449553
3.422135 0.557760 -0.436208
3.493183 0.586052 -0.429332
3.495859 0.577471 -0.454007
3.496543 0.564401 -0.444287
3.495466 0.565502 -0.430942
3.487211 0.560158 -0.482316
3.479664 0.577320 -0.486990
3.475499 0.579051 -0.471796
3.481883 0.562526 -0.465096
3.422243 0.528229 -0.497305
3.414696 0.545390 -0.501978
3.410531 0.547121 -0.486785
3.416915 0.530597 -0.480085
3.481845 0.562465 -0.464805
3.475461 0.578990 -0.471505
3.470924 0.580646 -0.456402
3.476822 0.564479 -0.447490
3.416944 0.530662 -0.480344
3.410560 0.547186 -0.487044
3.406023 0.548843 -0.471941
3.411921 0.532676 -0.463029
3.477148 0.564680 -0.449549
3.471250 0.580848 -0.458461
3.468788 0.579357 -0.442924
3.474260 0.565221 -0.431598
3.411587 0.532476 -0.460938
3.405689 0.548643 -0.469850
3.403227 0.547152 -0.454312
3.408699 0.533016 -0.442986
3.474410 0.565249 -0.432641
3.468938 0.579386 -0.443967
3.467534 0.578024 -0.428244
3.471506 0.565734 -0.414699
3.408544 0.532986 -0.441909
3.403072 0.547123 -0.453236
3.401668 0.545761 -0.437512
3.405641 0.533471 -0.423967
3.453681 0.582051 -0.492400
3.446828 0.579545 -0.497120
3.441500 0.581913 -0.479900
3.448910 0.584462 -0.475604
3.469494 0.511334 -0.477771
3.462641 0.508827 -0.482491
3.457313 0.511196 -0.465271
3.464723 0.513744 -0.460975
3.448405 0.584494 -0.474848
3.440995 0.581945 -0.479144
3.435972 0.583959 -0.461830
3.444220 0.586529 -0.458597
3.465218 0.513716 -0.461696
3.457808 0.511168 -0.465992
3.452785 0.513182 -0.448678
3.461033 0.515752 -0.445446
3.448610 0.587830 -0.449980
3.440362 0.585260 -0.453213
3.437474 0.585800 -0.435262
3.447657 0.584956 -0.433251
3.456636 0.514452 -0.454029
3.448388 0.511882 -0.457261
3.445500 0.512422 -0.439310
3.455683 0.511579 -0.437299
3.459355 0.584269 -0.431944
3.449172 0.585113 -0.433955
3.446268 0.585597 -0.416013
3.458424 0.581413 -0.415214
3.443982 0.512264 -0.438571
3.433799 0.513107 -0.440582
3.430895 0.513591 -0.422639
3.443051 0.509407 -0.421840
3.451670 0.634242 -0.472473
3.447551 0.627083 -0.479988
3.438414 0.625347 -0.466239
3.442871 0.633995 -0.459809
3.498380 0.584230 -0.444508
3.494260 0.577070 -0.452023
3.485123 0.575335 -0.438274
3.489580 0.583983 -0.431844
3.440206 0.630971 -0.460181
3.435749 0.622323 -0.466611
3.427738 0.621318 -0.452379
3.432098 0.630682 -0.447212
3.492229 0.587005 -0.431445
3.487771 0.578358 -0.437875
3.479761 0.577352 -0.423643
3.484120 0.586717 -0.418476
3.426773 0.624298 -0.444723
3.422414 0.614933 -0.449890
3.418698 0.616436 -0.433763
3.419939 0.632588 -0.420226
3.489431 0.593105 -0.420931
3.485072 0.583741 -0.426098
3.481356 0.585243 -0.409972
3.482597 0.601396 -0.396435
3.487972 0.655778 -0.432212
3.465099 0.644503 -0.463406
3.456299 0.644256 -0.450742
3.478813 0.653790 -0.424660
3.507852 0.585262 -0.422346
3.484978 0.573987 -0.453540
3.476179 0.573740 -0.440876
3.498693 0.583274 -0.414794
3.479138 0.653985 -0.423843
3.456624 0.644451 -0.449924
3.448516 0.644162 -0.436955
3.470102 0.652033 -0.416148
3.498350 0.583078 -0.415591
3.475837 0.573543 -0.441673
3.467729 0.573255 -0.428704
3.489315 0.581126 -0.407897
3.479295 0.652825 -0.419250
3.457709 0.644954 -0.440057
3.450875 0.653244 -0.415560
3.471881 0.651139 -0.409889
3.480106 0.580336 -0.404768
3.458520 0.572465 -0.425575
3.451686 0.580755 -0.401078
3.472692 0.578650 -0.395407
3.476311 0.642937 -0.449908
3.474464 0.632403 -0.453242
3.465305 0.630416 -0.445690
3.466903 0.641414 -0.442296
3.523232 0.619191 -0.397949
3.521385 0.608657 -0.401284
3.512225 0.606670 -0.393732
3.513824 0.617669 -0.390338
3.466612 0.640340 -0.442499
3.465013 0.629341 -0.445893
3.455977 0.627389 -0.438199
3.457211 0.638796 -0.434922
3.514097 0.618740 -0.390120
3.512499 0.607741 -0.393514
3.503463 0.605790 -0.385819
3.504697 0.617196 -0.382542
3.451995 0.637367 -0.429706
3.450761 0.625961 -0.432983
3.443347 0.624275 -0.423622
3.444528 0.634667 -0.420493
3.509897 0.618620 -0.387742
3.508663 0.607214 -0.391018
3.501249 0.605528 -0.381658
3.502429 0.615920 -0.378529
3.444654 0.635018 -0.420507
3.443473 0.624626 -0.423636
3.436063 0.623006 -0.414283
3.437110 0.632366 -0.411323
3.502288 0.615564 -0.378496
3.501107 0.605172 -0.381625
3.493697 0.603552 -0.372273
3.494745 0.612912 -0.369312
3.467799 0.653952 -0.393165
3.466819 0.653978 -0.378371
3.482812 0.645573 -0.392139
3.431906 0.589364 -0.395428
3.430926 0.589390 -0.380635
3.446919 0.580985 -0.394402
3.445593 0.624731 -0.422654
3.429600 0.633136 -0.408887
3.446640 0.634090 -0.419694
3.484149 0.601828 -0.363884
3.468156 0.610233 -0.350116
3.485196 0.611187 -0.360924
3.763715 0.694014 -0.379024
3.759443 0.697863 -0.398038
3.748266 0.701455 -0.408895
3.754881 0.699033 -0.387592
3.737579 0.624960 -0.382708
3.733308 0.628810 -0.401722
3.722130 0.632401 -0.412579
3.728745 0.629979 -0.391276
3.728056 0.677374 -0.354992
3.727586 0.692180 -0.371536
3.715999 0.680034 -0.387056
3.720270 0.676184 -0.368043
3.788830 0.643982 -0.380615
3.788360 0.658787 -0.397159
3.776772 0.646641 -0.412679
3.781044 0.642792 -0.393666
3.728743 0.697669 -0.379892
3.729578 0.703102 -0.401388
3.717155 0.685523 -0.395412
3.787205 0.653315 -0.388830
3.788041 0.658747 -0.410325
3.775618 0.641169 -0.404350
3.717666 0.687811 -0.385789
3.728843 0.684220 -0.374932
3.741266 0.701799 -0.380907
3.752737 0.646058 -0.435705
3.763915 0.642466 -0.424848
3.776338 0.660045 -0.430824
3.749362 0.618231 -0.449232
3.750933 0.610384 -0.431456
3.749718 0.627956 -0.448868
3.822861 0.615820 -0.456794
3.824432 0.607973 -0.439018
3.823217 0.625545 -0.456430
3.425040 0.543000 -0.392063
3.434910 0.529603 -0.383688
3.432553 0.549953 -0.384128
3.476456 0.547811 -0.444962
3.486326 0.534414 -0.436587
3.483970 0.554764 -0.437027
3.428796 0.571915 -0.399812
3.428860 0.577374 -0.409546
3.421283 0.564962 -0.407747
3.487725 0.532819 -0.421350
3.487790 0.538278 -0.431083
3.480212 0.525865 -0.429285
3.431335 0.574070 -0.477956
3.427149 0.576105 -0.461705
3.434393 0.585473 -0.456624
3.482300 0.524150 -0.458576
3.478115 0.526186 -0.442325
3.485358 0.535554 -0.437243
3.423217 0.561945 -0.442441
3.422532 0.575015 -0.452161
3.420159 0.550541 -0.463773
3.496539 0.559098 -0.451429
3.495855 0.572169 -0.461150
3.493481 0.547694 -0.472762
