3.081169 1.118561 -0.891373
3.079036 1.118610 -0.896114
3.063291 1.118576 -0.881008
3.063399 1.118801 -0.862780
3.081608 0.990693 -0.890437
3.079475 0.990742 -0.895178
3.063730 0.990708 -0.880072
3.063838 0.990933 -0.861844
3.062815 1.118790 -0.863278
3.062707 1.118566 -0.881506
3.046964 1.118547 -0.866401
3.045044 1.119072 -0.834685
3.064388 0.990943 -0.861303
3.064280 0.990718 -0.879531
3.048537 0.990700 -0.864426
3.046617 0.991224 -0.832710
3.078220 1.118603 -0.896043
3.076086 1.118669 -0.900783
3.062369 1.118328 -0.899165
3.062476 1.118568 -0.880937
3.080288 0.990750 -0.895272
3.078153 0.990816 -0.900012
3.064437 0.990475 -0.898394
3.064543 0.990715 -0.880167
3.062217 1.118557 -0.881569
3.062111 1.118316 -0.899797
3.048392 1.118014 -0.898179
3.046474 1.118538 -0.866464
3.064772 0.990727 -0.879518
3.064666 0.990486 -0.897746
3.050947 0.990184 -0.896129
3.049028 0.990708 -0.864413
2.970074 0.954696 -0.848628
2.969870 0.958446 -0.843684
2.974636 0.972203 -0.872965
2.974525 0.952518 -0.875030
3.096293 0.949286 -0.828861
3.096089 0.953036 -0.823917
3.100855 0.966794 -0.853198
3.100744 0.947109 -0.855263
2.974539 0.950663 -0.875443
2.974650 0.970348 -0.873378
2.979415 0.984106 -0.902660
2.978990 0.948485 -0.901845
3.100739 0.948976 -0.854906
3.100850 0.968661 -0.852841
3.105616 0.982418 -0.882123
3.105191 0.946798 -0.881308
2.969025 0.931970 -0.863693
2.970069 0.931812 -0.838805
2.969251 0.952747 -0.838815
2.970189 0.938801 -0.871737
3.096888 0.930421 -0.863558
3.097932 0.930263 -0.838670
3.097113 0.951198 -0.838679
3.098051 0.937252 -0.871601
3.062517 0.888414 -0.912638
3.060633 0.881578 -0.904440
3.046470 0.881879 -0.904567
3.047511 0.888732 -0.912766
3.063877 0.986448 -0.830548
3.061993 0.979612 -0.822350
3.047830 0.979912 -0.822477
3.048871 0.986766 -0.830676
3.047308 0.888916 -0.912981
3.046268 0.882063 -0.904782
3.032095 0.882358 -0.904900
3.033258 0.889189 -0.912943
3.049045 0.986583 -0.830462
3.048005 0.979729 -0.822262
3.033832 0.980025 -0.822380
3.034995 0.986856 -0.830423
3.063603 0.865300 -0.860687
3.061336 0.865273 -0.853987
3.043526 0.867382 -0.869933
3.057689 0.867082 -0.869807
3.070863 0.992318 -0.847843
3.068595 0.992291 -0.841143
3.050785 0.994400 -0.857089
3.064948 0.994100 -0.856963
3.062194 0.865034 -0.851601
3.059936 0.865034 -0.844912
3.030211 0.867439 -0.867666
3.044384 0.867143 -0.867548
3.067721 0.992531 -0.843522
3.065463 0.992531 -0.836833
3.035738 0.994935 -0.859587
3.049911 0.994640 -0.859469
3.042888 0.890470 -0.920230
3.057378 0.888329 -0.914586
3.048974 0.880606 -0.900385
3.034925 0.880879 -0.900347
3.041302 1.004773 -0.862928
3.055792 1.002632 -0.857283
3.047388 0.994909 -0.843083
3.033339 0.995182 -0.843045
3.059623 0.890390 -0.918240
3.074103 0.888928 -0.912575
3.066226 0.882348 -0.903910
3.051220 0.882667 -0.904039
3.053575 1.000569 -0.853623
3.068054 0.999107 -0.847958
3.060178 0.992527 -0.839294
3.045172 0.992846 -0.839423
3.043562 0.883638 -0.922284
3.079073 0.882114 -0.919754
3.052329 0.881739 -0.888427
3.037839 0.883880 -0.894072
3.052099 1.011129 -0.917345
3.087610 1.009605 -0.914815
3.060866 1.009230 -0.883488
3.046376 1.011371 -0.889133
3.080138 0.882144 -0.921514
3.115653 0.880527 -0.918979
3.067872 0.880308 -0.884522
3.053393 0.881769 -0.890187
3.086596 1.009572 -0.913047
3.122111 1.007954 -0.910512
3.074330 1.007735 -0.876055
3.059851 1.009197 -0.881720
3.057684 0.865044 -0.841061
3.029003 0.867290 -0.838927
3.027959 0.867448 -0.863815
3.067698 0.992522 -0.840672
3.039017 0.994769 -0.838538
3.037973 0.994927 -0.863425
2.975050 0.975853 -0.850521
2.979501 0.973675 -0.876923
2.975988 0.961907 -0.883443
3.091316 0.928109 -0.826984
3.095767 0.925932 -0.853386
3.092254 0.914163 -0.859905
2.975992 0.961906 -0.883461
2.979504 0.973674 -0.876942
2.983955 0.971496 -0.903344
3.092257 0.914161 -0.859922
3.095770 0.925930 -0.853403
3.100221 0.923752 -0.879805
2.974264 1.045922 -0.840289
2.980500 1.052010 -0.874015
2.979083 1.032406 -0.873937
2.973215 1.024401 -0.841323
3.100101 1.037886 -0.819038
3.106337 1.043973 -0.852763
3.104921 1.024369 -0.852686
3.099053 1.016364 -0.820071
2.973236 1.025298 -0.841065
2.979104 1.033303 -0.873680
2.977689 1.013699 -0.873602
2.972007 1.003860 -0.844638
3.099029 1.015426 -0.820331
3.104897 1.023431 -0.852945
3.103482 1.003827 -0.852868
3.097800 0.993988 -0.823903
2.980797 1.049905 -0.876149
2.987032 1.055992 -0.909875
2.986957 1.038042 -0.908239
2.979381 1.030301 -0.876071
3.106052 1.046092 -0.850696
3.112287 1.052180 -0.884422
3.112212 1.034230 -0.882786
3.104636 1.026488 -0.850618
2.979486 1.035868 -0.874424
2.987062 1.043609 -0.906592
2.983875 1.026139 -0.905770
2.978070 1.016264 -0.874346
3.104528 1.020884 -0.852264
3.112104 1.028625 -0.884432
3.108918 1.011155 -0.883609
3.103113 1.001280 -0.852186
2.977567 1.014404 -0.872432
2.983372 1.024279 -0.903855
2.981280 1.006640 -0.902747
2.976147 0.994800 -0.872354
3.103612 1.003103 -0.854099
3.109417 1.012978 -0.885523
3.107325 0.995340 -0.884415
3.102193 0.983500 -0.854022
2.975979 0.994276 -0.871462
2.981112 1.006116 -0.901854
2.979327 0.988430 -0.900665
2.974562 0.974673 -0.871384
3.102358 0.983986 -0.854913
3.107490 0.995826 -0.885306
3.105705 0.978140 -0.884117
3.100940 0.964382 -0.854836
2.971972 1.002805 -0.844876
2.977655 1.012644 -0.873840
2.976235 0.993041 -0.873763
2.970948 0.981273 -0.845583
3.097831 0.995001 -0.823667
3.103514 1.004841 -0.852631
3.102094 0.985237 -0.852554
3.096807 0.973469 -0.824373
2.970748 0.980602 -0.844578
2.976036 0.992370 -0.872758
2.974619 0.972766 -0.872681
2.969853 0.959009 -0.843399
3.097003 0.974099 -0.825378
3.102291 0.985867 -0.853558
3.100873 0.966263 -0.853480
3.096108 0.952506 -0.824199
2.993773 1.088688 -0.869256
2.995692 1.088164 -0.900972
2.989457 1.082076 -0.867246
3.101710 1.020554 -0.861600
3.103629 1.020029 -0.893316
3.097394 1.013942 -0.859590
2.991850 1.089210 -0.837515
2.993770 1.088685 -0.869230
2.989454 1.082073 -0.867220
2.983218 1.075986 -0.833494
3.099788 1.021076 -0.829855
3.101707 1.020552 -0.861571
3.097391 1.013940 -0.859561
3.091155 1.007853 -0.825835
