2.888672 1.220222 -0.865272
2.890922 1.337451 -0.837202
2.912966 1.336986 -0.837036
2.912178 1.219733 -0.865107
2.888433 1.215573 -0.845842
2.890684 1.332801 -0.817772
2.912727 1.332337 -0.817606
2.911940 1.215084 -0.845677
2.922032 1.217171 -0.854679
2.922820 1.334424 -0.826608
2.921636 1.330649 -0.811203
2.920856 1.213396 -0.839273
2.902108 1.217642 -0.856089
2.902895 1.334895 -0.828018
2.901712 1.331120 -0.812613
2.900932 1.213867 -0.840684
2.910762 1.211305 -0.830256
2.911542 1.328558 -0.802185
2.888036 1.329053 -0.802362
2.887255 1.211791 -0.830422
2.911001 1.215954 -0.849686
2.911781 1.333207 -0.821616
2.888274 1.333702 -0.821793
2.887494 1.216440 -0.849852
2.885289 1.044558 -0.901816
2.888657 1.219784 -0.865370
2.912164 1.219295 -0.865205
2.908796 1.044078 -0.901667
2.885075 1.040492 -0.882255
2.888443 1.215718 -0.845809
2.911949 1.215229 -0.845644
2.908581 1.040013 -0.882106
2.918661 1.041712 -0.891204
2.922029 1.216928 -0.854742
2.920854 1.213153 -0.839336
2.917498 1.037932 -0.875799
2.898738 1.042375 -0.892554
2.902106 1.217591 -0.856091
2.900930 1.213816 -0.840686
2.897575 1.038595 -0.877148
2.907417 1.036229 -0.866685
2.910772 1.211450 -0.830223
2.887266 1.211936 -0.830389
2.883910 1.036709 -0.866834
2.907632 1.040295 -0.886246
2.910987 1.215516 -0.849784
2.887480 1.216002 -0.849950
2.884125 1.040774 -0.886395
1.951820 0.689164 -0.934108
1.975263 0.688608 -0.933967
1.989292 0.570023 -0.925154
1.965722 0.570468 -0.925169
1.951786 0.690651 -0.914183
1.975229 0.690094 -0.914042
1.989258 0.571510 -0.905230
1.965687 0.571954 -0.905244
1.945509 1.570988 -0.780449
1.954863 1.684408 -0.734103
1.978435 1.684011 -0.734141
1.968954 1.570509 -0.780397
1.945363 1.563450 -0.761946
1.954718 1.676869 -0.715600
1.978289 1.676472 -0.715638
1.968808 1.562971 -0.761894
1.936191 1.555518 -0.755638
1.945638 1.668983 -0.709289
1.944840 1.681093 -0.723953
1.935485 1.567673 -0.770299
1.956070 1.554598 -0.757419
1.965517 1.668063 -0.711071
1.964719 1.680173 -0.725735
1.955364 1.566753 -0.772081
1.969639 1.550852 -0.747210
1.978967 1.664316 -0.700968
1.955518 1.664748 -0.700921
1.946071 1.551283 -0.747270
1.969782 1.558390 -0.765713
1.979111 1.671853 -0.719471
1.955662 1.672286 -0.719424
1.946215 1.558821 -0.765773
1.933193 1.381558 -0.844920
1.945509 1.570281 -0.780712
1.968954 1.569802 -0.780660
1.955301 1.381161 -0.844863
1.933024 1.375133 -0.826003
1.945340 1.563855 -0.761794
1.968785 1.563376 -0.761742
1.955133 1.374735 -0.825946
1.923890 1.366625 -0.819970
1.936169 1.555282 -0.755782
1.935463 1.567438 -0.770443
1.923147 1.378715 -0.834652
1.943792 1.365874 -0.821574
1.956071 1.554531 -0.757386
1.955364 1.566686 -0.772047
1.943048 1.377964 -0.836256
1.957219 1.362540 -0.811267
1.969617 1.551257 -0.747058
1.946050 1.551688 -0.747117
1.933771 1.363030 -0.811305
1.957384 1.368966 -0.830185
1.969782 1.557682 -0.765976
1.946215 1.558113 -0.766035
1.933936 1.369456 -0.830223
1.929568 1.263469 -0.873665
1.933191 1.380544 -0.845216
1.955299 1.380147 -0.845160
1.953012 1.262952 -0.873521
1.929388 1.258765 -0.854248
1.933011 1.375840 -0.825799
1.955119 1.375443 -0.825742
1.952832 1.258248 -0.854103
1.920101 1.249130 -0.848681
1.923862 1.366265 -0.820221
1.923119 1.378356 -0.834903
1.919497 1.261280 -0.863352
1.940042 1.248791 -0.849876
1.943804 1.365927 -0.821415
1.943061 1.378017 -0.836098
1.939438 1.260942 -0.864547
1.953555 1.246140 -0.839370
1.957198 1.363250 -0.811063
1.933750 1.363740 -0.811101
1.929988 1.246604 -0.839562
1.953746 1.250839 -0.858788
1.957389 1.367950 -0.830482
1.933940 1.368440 -0.830520
1.930179 1.251304 -0.858980
1.926183 1.087867 -0.910698
1.929596 1.263027 -0.873765
1.953040 1.262511 -0.873620
1.949752 1.087405 -0.910466
1.925941 1.083754 -0.891147
1.929354 1.258914 -0.854214
1.952798 1.258397 -0.854069
1.949510 1.083291 -0.890916
1.916711 1.073816 -0.885722
1.920090 1.248903 -0.848816
1.919486 1.261054 -0.863487
1.916073 1.085894 -0.900420
1.936666 1.073638 -0.886713
1.940045 1.248725 -0.849807
1.939441 1.260876 -0.864477
1.936028 1.085716 -0.901411
1.950031 1.071129 -0.876277
1.953530 1.246285 -0.839337
1.929963 1.246749 -0.839529
1.926584 1.071662 -0.876435
1.950264 1.075247 -0.895827
1.953763 1.250402 -0.858887
1.930196 1.250867 -0.859079
1.926817 1.075779 -0.895985
1.940855 0.697423 -0.903411
1.929225 0.818473 -0.904096
1.931204 0.796106 -0.925534
1.941836 0.689058 -0.924131
1.960741 0.699364 -0.903430
1.949110 0.820414 -0.904115
1.951090 0.798047 -0.925553
1.961721 0.690999 -0.924149
1.929189 0.818927 -0.904273
1.920181 0.958909 -0.899083
1.921051 0.948129 -0.918543
1.931169 0.796560 -0.925711
1.949125 0.820220 -0.903933
1.940116 0.960202 -0.898743
1.940986 0.949422 -0.918203
1.951104 0.797853 -0.925371
1.920157 0.959366 -0.898983
1.916704 1.073251 -0.886324
1.916067 1.085329 -0.901022
1.921027 0.948586 -0.918443
1.940126 0.960017 -0.898822
1.936673 1.073902 -0.886164
1.936035 1.085980 -0.900861
1.940996 0.949237 -0.918282
1.950753 0.698452 -0.893420
1.974320 0.698020 -0.893289
1.962568 0.818962 -0.893968
1.939122 0.819502 -0.894105
1.950865 0.698350 -0.913400
1.974432 0.697918 -0.913268
1.962681 0.818860 -0.913947
1.939234 0.819400 -0.914085
1.939075 0.819201 -0.894110
1.962521 0.818661 -0.893973
1.953632 0.958726 -0.888655
1.930066 0.959183 -0.888921
1.939262 0.819962 -0.914075
1.962708 0.819422 -0.913938
1.953819 0.959487 -0.908620
1.930253 0.959944 -0.908885
1.930041 0.958588 -0.888966
1.953607 0.958130 -0.888700
1.950035 1.071941 -0.876149
1.926588 1.072473 -0.876307
1.930266 0.960793 -0.908822
1.953832 0.960336 -0.908557
1.950260 1.074146 -0.896005
1.926813 1.074679 -0.896163
1.941219 0.796944 -0.935543
1.964789 0.796494 -0.935393
1.975293 0.689339 -0.933998
1.951850 0.689896 -0.934140
1.941100 0.797193 -0.915565
1.964670 0.796743 -0.915414
1.975174 0.689588 -0.914020
1.951732 0.690145 -0.914161
1.931115 0.949246 -0.928361
1.954558 0.948702 -0.928163
1.964803 0.797227 -0.935379
1.941233 0.797677 -0.935529
1.930947 0.948288 -0.908405
1.954390 0.947744 -0.908207
1.964635 0.796269 -0.915422
1.941065 0.796719 -0.915573
1.966716 0.567784 -0.884502
1.990163 0.567224 -0.884499
1.974376 0.698515 -0.893306
1.950808 0.698947 -0.893438
1.966745 0.566440 -0.904437
1.990192 0.565880 -0.904434
1.974404 0.697171 -0.913241
1.950837 0.697603 -0.913373
1.956799 0.565937 -0.894348
1.940891 0.697100 -0.903284
1.941871 0.688735 -0.924003
1.955773 0.570038 -0.915064
1.976639 0.568285 -0.894612
1.960731 0.699448 -0.903547
1.961711 0.691083 -0.924267
1.975613 0.572387 -0.915328
1.949749 1.086459 -0.910627
1.954584 0.949634 -0.928081
1.931141 0.950179 -0.928280
1.926181 1.086922 -0.910858
1.949514 1.083924 -0.890810
1.954349 0.947100 -0.908264
1.930905 0.947644 -0.908462
1.925945 1.084387 -0.891041
