1.750809 0.477847 -0.879106
1.724230 0.664671 -0.881909
1.724867 0.626177 -0.884139
1.721494 0.627818 -0.844647
1.720540 0.664754 -0.843787
1.746115 0.665051 -0.879926
1.746753 0.626558 -0.882156
1.743379 0.628199 -0.842664
1.742425 0.665134 -0.841804
1.724872 0.626368 -0.884206
1.725382 0.587677 -0.886361
1.720999 0.591076 -0.845400
1.721499 0.628009 -0.844714
1.746748 0.626291 -0.882092
1.747258 0.587600 -0.884247
1.742875 0.590999 -0.843286
1.743375 0.627932 -0.842600
1.725397 0.587353 -0.886477
1.726311 0.550145 -0.886264
1.721782 0.553765 -0.845687
1.721014 0.590752 -0.845517
1.747244 0.587849 -0.884132
1.748158 0.550642 -0.883919
1.743629 0.554262 -0.843342
1.742861 0.591248 -0.843172
1.726317 0.549890 -0.886241
1.727754 0.512672 -0.885776
1.723537 0.516714 -0.846383
1.721788 0.553511 -0.845664
1.748154 0.550823 -0.883942
1.749592 0.513605 -0.883477
1.745374 0.517646 -0.844084
1.743626 0.554443 -0.843365
1.727756 0.512526 -0.885729
1.729391 0.475288 -0.882747
1.725623 0.479664 -0.847478
1.723539 0.516568 -0.846336
1.749593 0.513676 -0.883523
1.751228 0.476438 -0.880541
1.747460 0.480814 -0.845272
1.745376 0.517718 -0.844130
1.729402 0.474882 -0.882554
1.730993 0.439691 -0.870380
1.729051 0.442660 -0.845052
1.725633 0.479258 -0.847285
1.751222 0.476771 -0.880727
1.752814 0.441580 -0.868553
1.750872 0.444550 -0.843225
1.747454 0.481148 -0.845457
1.852336 0.685437 -0.970762
1.854406 0.666963 -0.981041
1.816246 0.668341 -0.978489
1.816207 0.686100 -0.967796
1.853448 0.674490 -0.951737
1.855518 0.656016 -0.962016
1.817359 0.657394 -0.959464
1.817320 0.675153 -0.948771
1.816199 0.686474 -0.967570
1.816238 0.668715 -0.978263
1.778039 0.670095 -0.975712
1.780118 0.687156 -0.964608
1.817254 0.674781 -0.948991
1.817293 0.657022 -0.959684
1.779093 0.658402 -0.957133
1.781172 0.675463 -0.946028
1.778370 0.686776 -0.964579
1.776290 0.669715 -0.975684
1.742967 0.670441 -0.965656
1.743842 0.686979 -0.957658
1.782850 0.675845 -0.946046
1.780770 0.658784 -0.957150
1.747447 0.659510 -0.947122
1.748322 0.676049 -0.939124
1.735328 0.682607 -0.950459
1.734454 0.666068 -0.958457
1.727929 0.665901 -0.921199
1.727992 0.683000 -0.916434
1.756794 0.680422 -0.946279
1.755919 0.663883 -0.954276
1.749394 0.663716 -0.917019
1.749458 0.680815 -0.912253
1.727783 0.682146 -0.915348
1.727719 0.665046 -0.920114
1.724238 0.665126 -0.881995
1.724221 0.682901 -0.879287
1.749657 0.681671 -0.913266
1.749593 0.664571 -0.918031
1.746112 0.664651 -0.879912
1.746095 0.682426 -0.877205
1.724216 0.682844 -0.879253
1.724234 0.665069 -0.881961
1.720545 0.665152 -0.843838
1.720838 0.683610 -0.843191
1.746092 0.682484 -0.877165
1.746110 0.664709 -0.879872
1.742420 0.664792 -0.841749
1.742713 0.683250 -0.841103
1.854819 0.714443 -0.975193
1.851983 0.679125 -0.972163
1.815855 0.679787 -0.969197
1.817977 0.715664 -0.972228
1.856638 0.716175 -0.953359
1.853802 0.680857 -0.950329
1.817674 0.681519 -0.947363
1.819796 0.717396 -0.950394
1.817948 0.715651 -0.972225
1.815825 0.679774 -0.969193
1.779744 0.680457 -0.966230
1.781060 0.716838 -0.969306
1.819753 0.717411 -0.950392
1.817630 0.681534 -0.947360
1.781549 0.682216 -0.944397
1.782865 0.718598 -0.947473
1.779717 0.716941 -0.969121
1.778401 0.680560 -0.966045
1.743873 0.680764 -0.959124
1.744774 0.718508 -0.961873
1.784136 0.718496 -0.947648
1.782821 0.682115 -0.944573
1.748293 0.682319 -0.937651
1.749193 0.720063 -0.940400
1.736248 0.719243 -0.953559
1.735348 0.681498 -0.950811
1.728012 0.681892 -0.916785
1.727930 0.720189 -0.918981
1.757676 0.719330 -0.948672
1.756775 0.681585 -0.945923
1.749439 0.681979 -0.911898
1.749358 0.720277 -0.914094
1.727703 0.720142 -0.917586
1.727785 0.681845 -0.915390
1.724223 0.682600 -0.879330
1.724029 0.720624 -0.880780
1.749573 0.720325 -0.915418
1.749655 0.682027 -0.913222
1.746092 0.682783 -0.877161
1.745899 0.720807 -0.878612
1.724022 0.720600 -0.880704
1.724215 0.682576 -0.879253
1.720837 0.683342 -0.843191
1.720429 0.721065 -0.843875
1.745899 0.720832 -0.878615
1.746093 0.682808 -0.877165
1.742714 0.683574 -0.841103
1.742306 0.721298 -0.841787
1.854795 0.720265 -0.978689
1.855009 0.709998 -0.973861
1.818167 0.711219 -0.970896
1.816568 0.721232 -0.977224
1.856237 0.730933 -0.959527
1.856450 0.720666 -0.954700
1.819608 0.721887 -0.951735
1.818010 0.731900 -0.958063
1.816559 0.720077 -0.976481
1.818157 0.710063 -0.970154
1.781269 0.711250 -0.967235
1.778370 0.721028 -0.975086
1.817945 0.733058 -0.958801
1.819543 0.723045 -0.952473
1.782655 0.724232 -0.949554
1.779756 0.734009 -0.957406
1.776669 0.721017 -0.974780
1.779568 0.711240 -0.966928
1.744625 0.712807 -0.959680
1.742872 0.721011 -0.964237
1.781384 0.734022 -0.957701
1.784284 0.724244 -0.949850
1.749340 0.725811 -0.942602
1.747587 0.734016 -0.947158
1.734565 0.725776 -0.957783
1.736318 0.717571 -0.953226
1.728000 0.718518 -0.918648
1.728294 0.726940 -0.920436
1.755852 0.729253 -0.953567
1.757606 0.721048 -0.949011
1.749288 0.721995 -0.914432
1.749581 0.730417 -0.916220
1.727999 0.729032 -0.919343
1.727705 0.720610 -0.917555
1.724031 0.721092 -0.880749
1.724525 0.730210 -0.881264
1.749865 0.728327 -0.917240
1.749571 0.719904 -0.915452
1.745897 0.720386 -0.878646
1.746390 0.729505 -0.879161
1.724536 0.730558 -0.881207
1.724042 0.721439 -0.880692
1.720450 0.721905 -0.843864
1.721149 0.731731 -0.843127
1.746372 0.729159 -0.879142
1.745878 0.720040 -0.878627
1.742286 0.720505 -0.841799
1.742985 0.730332 -0.841062
1.861012 1.164968 -0.927418
1.860003 1.127496 -0.941842
1.826846 1.129233 -0.939917
1.829100 1.166077 -0.926086
1.861697 1.157135 -0.906895
1.860687 1.119663 -0.921319
1.827531 1.121400 -0.919393
1.829785 1.158244 -0.905563
1.859946 1.126705 -0.942110
1.859561 1.088143 -0.953547
1.825873 1.089919 -0.951888
1.826790 1.128443 -0.940184
1.860742 1.120378 -0.921077
1.860356 1.081816 -0.932515
1.826668 1.083592 -0.930856
1.827585 1.122115 -0.919152
1.859585 1.087494 -0.953723
1.859113 1.048187 -0.963045
1.824961 1.048098 -0.961935
1.825898 1.089270 -0.952064
1.860330 1.082386 -0.932360
1.859858 1.043080 -0.941682
1.825706 1.042990 -0.940572
1.826642 1.084162 -0.930701
1.859134 1.047580 -0.963174
1.858358 1.008147 -0.970383
1.824472 1.008242 -0.969283
1.824983 1.047491 -0.962064
1.859836 1.043607 -0.941570
1.859060 1.004174 -0.948778
1.825173 1.004269 -0.947678
1.825684 1.043518 -0.940460
1.858360 1.007639 -0.970465
1.857839 0.967836 -0.975999
1.823826 0.969721 -0.974649
1.824474 1.007734 -0.969365
1.859057 1.004604 -0.948709
1.858535 0.964801 -0.954243
1.824523 0.966686 -0.952892
1.825170 1.004699 -0.947609
1.857800 0.967399 -0.976051
1.857914 0.927382 -0.980204
1.823050 0.929743 -0.978681
1.823787 0.969284 -0.974700
1.858573 0.965159 -0.954201
1.858688 0.925142 -0.958355
1.823823 0.927502 -0.956832
1.824561 0.967044 -0.952850
1.857906 0.926935 -0.980242
1.857051 0.886823 -0.982705
1.822131 0.888288 -0.981466
1.823041 0.929295 -0.978719
1.858695 0.925509 -0.958324
1.857841 0.885398 -0.960788
1.822920 0.886863 -0.959549
1.823831 0.927870 -0.956801
1.857092 0.886356 -0.982728
1.856496 0.846123 -0.983680
1.821114 0.847479 -0.982584
1.822171 0.887821 -0.981489
1.857798 0.885784 -0.960769
1.857203 0.845550 -0.961721
1.821821 0.846907 -0.960624
1.822878 0.887249 -0.959530
1.856502 0.845630 -0.983683
1.856022 0.805663 -0.983065
1.819956 0.806690 -0.981939
1.821119 0.846987 -0.982586
1.857196 0.845962 -0.961719
1.856717 0.805995 -0.961100
1.820650 0.807022 -0.959975
1.821814 0.847319 -0.960622
1.856012 0.805561 -0.983063
1.855509 0.765376 -0.982235
1.818804 0.766111 -0.981035
1.819945 0.806587 -0.981937
1.856725 0.806017 -0.961101
1.856222 0.765832 -0.960273
1.819517 0.766567 -0.959073
1.820658 0.807044 -0.959975
1.855461 0.764949 -0.982217
1.855112 0.725010 -0.980076
1.816886 0.725977 -0.978611
1.818756 0.765684 -0.981017
1.856268 0.766179 -0.960288
1.855920 0.726239 -0.958148
1.817693 0.727206 -0.956683
1.819564 0.766914 -0.959088
1.829045 1.165998 -0.926114
1.826791 1.129153 -0.939945
1.794505 1.130931 -0.937956
1.797103 1.167069 -0.924762
1.829776 1.158327 -0.905531
1.827521 1.121483 -0.919362
1.795236 1.123260 -0.917373
1.797833 1.159399 -0.904179
1.826742 1.128525 -0.940157
1.825826 1.090002 -0.951861
1.792447 1.091728 -0.950190
1.794457 1.130302 -0.938168
1.827566 1.122036 -0.919175
1.826649 1.083513 -0.930879
1.793270 1.085240 -0.929208
1.795280 1.123814 -0.917186
1.825860 1.089304 -0.952055
1.824924 1.048132 -0.961926
1.790940 1.048074 -0.960816
1.792480 1.091031 -0.950384
1.826613 1.084130 -0.930708
1.825677 1.042958 -0.940579
1.791693 1.042900 -0.939469
1.793233 1.085857 -0.929037
1.824941 1.047494 -0.962062
1.824431 1.008245 -0.969281
1.790511 1.008313 -0.968139
1.790958 1.047436 -0.960953
1.825657 1.043515 -0.940459
1.825146 1.004266 -0.947678
1.791226 1.004334 -0.946536
1.791673 1.043456 -0.939350
1.824409 1.007721 -0.969364
1.823761 0.969709 -0.974648
1.789793 0.971625 -0.973148
1.790488 1.007790 -0.968222
1.825167 1.004713 -0.947606
1.824520 0.966700 -0.952890
1.790552 0.968616 -0.951390
1.791247 1.004781 -0.946465
1.823724 0.969277 -0.974699
1.822986 0.929736 -0.978680
1.788624 0.932064 -0.977146
1.789756 0.971193 -0.973198
1.824556 0.967055 -0.952849
1.823818 0.927514 -0.956830
1.789456 0.929842 -0.955297
1.790588 0.968971 -0.951349
1.822995 0.929353 -0.978713
1.822085 0.888346 -0.981461
1.787175 0.889983 -0.980148
1.788633 0.931682 -0.977179
1.823807 0.927815 -0.956804
1.822897 0.886809 -0.959552
1.787987 0.888446 -0.958239
1.789445 0.930144 -0.955270
1.822094 0.887847 -0.981486
1.821036 0.847505 -0.982580
1.785618 0.848853 -0.981273
1.787184 0.889484 -0.980173
1.822885 0.887226 -0.959531
1.821828 0.846884 -0.960625
1.786410 0.848232 -0.959318
1.787975 0.888863 -0.958218
1.821033 0.847000 -0.982584
1.819869 0.806704 -0.981936
1.783846 0.807725 -0.980686
1.785615 0.848348 -0.981277
1.821829 0.847307 -0.960622
1.820665 0.807011 -0.959975
1.784642 0.808032 -0.958725
1.786411 0.848655 -0.959315
1.819882 0.806587 -0.981935
1.818741 0.766110 -0.981033
1.782003 0.766859 -0.979781
1.783859 0.807608 -0.980685
1.820649 0.807047 -0.959975
1.819508 0.766570 -0.959073
1.782769 0.767319 -0.957821
1.784625 0.808068 -0.958725
1.818720 0.765641 -0.981013
1.816850 0.725933 -0.978608
1.778661 0.726884 -0.977212
1.781982 0.766390 -0.979761
1.819525 0.766959 -0.959089
1.817654 0.727251 -0.956684
1.779465 0.728203 -0.955289
1.782786 0.767708 -0.957837
1.796844 1.166863 -0.924824
1.794247 1.130724 -0.938019
1.761226 1.132229 -0.934921
1.764965 1.167929 -0.923315
1.798027 1.159608 -0.904112
1.795430 1.123470 -0.917306
1.762409 1.124975 -0.914208
1.766148 1.160674 -0.902602
1.793841 1.130241 -0.938146
1.791831 1.091667 -0.950168
1.757191 1.092903 -0.946012
1.760820 1.131746 -0.935048
1.795829 1.123878 -0.917203
1.793819 1.085304 -0.929225
1.759178 1.086540 -0.925069
1.762808 1.125383 -0.914105
1.791529 1.090979 -0.950321
1.789988 1.048023 -0.960754
1.754178 1.048190 -0.955989
1.756888 1.092215 -0.946165
1.794116 1.085909 -0.929093
1.792575 1.042953 -0.939525
1.756765 1.043120 -0.934761
1.759475 1.087145 -0.924937
1.789788 1.047362 -0.960865
1.789341 1.008240 -0.968051
1.752467 1.008069 -0.962694
1.753977 1.047530 -0.956101
1.792773 1.043530 -0.939431
1.792326 1.004407 -0.946617
1.755452 1.004237 -0.941259
1.756963 1.043697 -0.934667
1.789250 1.007773 -0.968112
1.788554 0.971608 -0.973038
1.751337 0.972193 -0.967453
1.752376 1.007602 -0.962755
1.792415 1.004799 -0.946568
1.791720 0.968634 -0.951493
1.754502 0.969219 -0.945909
1.755542 1.004629 -0.941210
1.788494 0.971186 -0.973079
1.787362 0.932057 -0.977027
1.750018 0.932027 -0.971228
1.751276 0.971770 -0.967495
1.791778 0.968981 -0.951460
1.790647 0.929852 -0.955408
1.753303 0.929822 -0.949609
1.754561 0.969566 -0.945876
1.787280 0.931708 -0.977045
1.785822 0.890009 -0.980014
1.748583 0.889764 -0.973962
1.749936 0.931678 -0.971245
1.790726 0.930120 -0.955397
1.789268 0.888422 -0.958366
1.752029 0.888176 -0.952314
1.753382 0.930090 -0.949597
1.785690 0.889455 -0.980020
1.784125 0.848824 -0.981120
1.747528 0.849092 -0.974537
1.748452 0.889209 -0.973967
1.789396 0.888893 -0.958364
1.787831 0.848262 -0.959464
1.751234 0.848530 -0.952881
1.752158 0.888647 -0.952311
1.783850 0.848271 -0.981070
1.782080 0.807647 -0.980480
1.745736 0.808555 -0.972694
1.747253 0.848539 -0.974488
1.788104 0.848735 -0.959513
1.786335 0.808111 -0.958923
1.749990 0.809020 -0.951136
1.751507 0.849003 -0.952931
1.781741 0.807567 -0.980405
1.779884 0.766818 -0.979502
1.743993 0.768497 -0.970720
1.745396 0.808475 -0.972619
1.786671 0.808111 -0.958995
1.784815 0.767363 -0.958091
1.748923 0.769042 -0.949309
1.750326 0.809019 -0.951208
1.779401 0.766318 -0.979355
1.776081 0.726813 -0.976807
1.742283 0.726807 -0.966264
1.743510 0.767998 -0.970574
1.785294 0.767782 -0.958232
1.781973 0.728276 -0.955684
1.748175 0.728270 -0.945141
1.749402 0.769461 -0.949451
1.757834 1.167311 -0.920190
1.754094 1.131611 -0.931796
1.735930 1.128070 -0.913224
1.736503 1.164421 -0.899464
1.773227 1.161290 -0.905705
1.769488 1.125591 -0.917311
1.751324 1.122049 -0.898739
1.751896 1.158400 -0.884979
1.753733 1.131123 -0.931588
1.750103 1.092279 -0.942552
1.735445 1.090219 -0.925514
1.735570 1.127581 -0.913016
1.769845 1.126005 -0.917543
1.766215 1.087161 -0.928507
1.751556 1.085101 -0.911469
1.751681 1.122463 -0.898971
1.749279 1.091184 -0.941838
1.746569 1.047159 -0.951662
1.733953 1.047205 -0.930740
1.734621 1.089123 -0.924800
1.767035 1.088175 -0.929241
1.764325 1.044150 -0.939065
1.751709 1.044196 -0.918142
1.752377 1.086115 -0.912202
1.745856 1.046593 -0.950647
1.744346 1.007132 -0.957240
1.732631 1.006244 -0.934102
1.733241 1.046639 -0.929724
1.765035 1.044634 -0.940094
1.763525 1.005174 -0.946686
1.751810 1.004285 -0.923548
1.752419 1.044680 -0.919171
1.744008 1.006806 -0.956631
1.742969 0.971396 -0.961330
1.731941 0.969340 -0.936492
1.732293 1.005917 -0.933493
1.763861 1.005424 -0.947304
1.762822 0.970015 -0.952003
1.751794 0.967959 -0.927165
1.752146 1.004536 -0.924166
1.742710 0.971135 -0.960770
1.741452 0.931391 -0.964503
1.731462 0.928344 -0.937721
1.731682 0.969079 -0.935932
1.763079 0.970199 -0.952569
1.761821 0.930455 -0.956302
1.751832 0.927408 -0.929520
1.752051 0.968143 -0.927731
1.741213 0.931197 -0.963871
1.739860 0.889283 -0.966587
1.731052 0.886643 -0.937356
1.731223 0.928150 -0.937088
1.762059 0.930568 -0.956938
1.760706 0.888654 -0.959654
1.751898 0.886014 -0.930424
1.752070 0.927521 -0.930156
1.739696 0.889044 -0.966068
1.738773 0.848927 -0.966638
1.730412 0.847798 -0.934350
1.730888 0.886405 -0.936838
1.760868 0.888811 -0.960174
1.759944 0.848694 -0.960744
1.751583 0.847565 -0.928456
1.752060 0.886172 -0.930943
1.738673 0.848902 -0.966254
1.737156 0.808918 -0.964460
1.729855 0.808672 -0.931567
1.730312 0.847773 -0.933966
1.760042 0.848640 -0.961125
1.758526 0.808657 -0.959330
1.751224 0.808411 -0.926437
1.751681 0.847511 -0.928837
1.737080 0.808888 -0.964120
1.735677 0.768910 -0.962221
1.729273 0.769417 -0.928870
1.729778 0.808642 -0.931227
1.758600 0.808608 -0.959666
1.757197 0.768631 -0.957767
1.750793 0.769138 -0.924417
1.751299 0.808362 -0.926773
1.735619 0.768738 -0.961929
1.734392 0.727547 -0.957619
1.728121 0.728711 -0.920272
1.729215 0.769245 -0.928579
1.757252 0.768722 -0.958051
1.756025 0.727531 -0.953741
1.749754 0.728695 -0.916393
1.750848 0.769230 -0.924700
1.733241 1.161853 -0.893041
1.732669 1.125501 -0.906801
1.729800 1.121815 -0.869604
1.730534 1.159311 -0.861427
1.755136 1.160962 -0.891347
1.754563 1.124611 -0.905108
1.751694 1.120925 -0.867910
1.752429 1.158420 -0.859734
1.732662 1.125338 -0.906786
1.732537 1.087976 -0.919284
1.729133 1.083558 -0.875998
1.729793 1.121652 -0.869589
1.754569 1.124699 -0.905143
1.754444 1.087336 -0.917640
1.751040 1.082918 -0.874355
1.751700 1.121013 -0.867946
1.732540 1.087951 -0.919332
1.731873 1.046032 -0.925272
1.728099 1.043348 -0.880252
1.729136 1.083532 -0.876047
1.754440 1.087283 -0.917606
1.753773 1.045365 -0.923546
1.749999 1.042681 -0.878525
1.751036 1.082865 -0.874320
1.731876 1.045949 -0.925337
1.731266 1.005555 -0.929715
1.727195 1.003689 -0.883198
1.728102 1.043265 -0.880316
1.753768 1.045366 -0.923490
1.753159 1.004972 -0.927868
1.749088 1.003107 -0.881351
1.749995 1.042683 -0.878469
1.731268 1.005435 -0.929763
1.730915 0.968857 -0.932762
1.726553 0.965866 -0.885096
1.727197 1.003569 -0.883247
1.753156 1.005015 -0.927825
1.752804 0.968437 -0.930824
1.748441 0.965445 -0.883157
1.749085 1.003149 -0.881309
1.730917 0.968726 -0.932802
1.730697 0.927991 -0.934590
1.726209 0.925915 -0.886642
1.726554 0.965735 -0.885135
1.752801 0.968491 -0.930788
1.752582 0.927756 -0.932577
1.748093 0.925679 -0.884628
1.748439 0.965499 -0.883122
1.730699 0.927898 -0.934617
1.730528 0.886391 -0.934885
1.725991 0.885836 -0.887349
1.726211 0.925821 -0.886668
1.752579 0.927769 -0.932552
1.752408 0.886262 -0.932820
1.747872 0.885707 -0.885284
1.748091 0.925692 -0.884604
1.730526 0.886319 -0.934865
1.730049 0.847712 -0.932377
1.725903 0.847044 -0.886163
1.725989 0.885764 -0.887329
1.752410 0.886255 -0.932839
1.751933 0.847649 -0.930351
1.747788 0.846981 -0.884138
1.747873 0.885700 -0.885303
1.730047 0.847724 -0.932356
1.729590 0.808624 -0.929957
1.725488 0.808207 -0.885449
1.725902 0.847057 -0.886143
1.751934 0.847559 -0.930368
1.751477 0.808458 -0.927969
1.747376 0.808042 -0.883462
1.747789 0.846891 -0.884155
1.729591 0.808592 -0.929978
1.729086 0.769368 -0.927621
1.725075 0.769175 -0.884842
1.725490 0.808176 -0.885470
1.751475 0.808412 -0.927945
1.750969 0.769188 -0.925589
1.746958 0.768995 -0.882809
1.747373 0.807996 -0.883438
1.729085 0.769313 -0.927615
1.727991 0.728779 -0.919308
1.724516 0.729957 -0.881230
1.725074 0.769121 -0.884836
1.750969 0.769163 -0.925587
1.749875 0.728629 -0.917281
1.746400 0.729807 -0.879202
1.746958 0.768971 -0.882808
1.730518 1.159245 -0.861232
1.729783 1.121749 -0.869409
1.727377 1.119345 -0.833265
1.728504 1.156778 -0.829413
1.752440 1.158480 -0.859861
1.751705 1.120985 -0.868038
1.749299 1.118581 -0.831894
1.750425 1.156014 -0.828042
1.729797 1.121803 -0.869576
1.729137 1.083709 -0.875984
1.725497 1.080817 -0.836948
1.727391 1.119399 -0.833432
1.751689 1.120855 -0.867882
1.751029 1.082760 -0.874290
1.747389 1.079869 -0.835254
1.749283 1.118451 -0.831738
1.729141 1.083550 -0.876105
1.728105 1.043366 -0.880311
1.724564 1.042030 -0.839403
1.725501 1.080658 -0.837069
1.751023 1.082842 -0.874177
1.749987 1.042658 -0.878382
1.746446 1.041322 -0.837475
1.747383 1.079950 -0.835141
1.728104 1.043327 -0.880316
1.727197 1.003750 -0.883198
1.723288 1.003288 -0.840505
1.724563 1.041991 -0.839409
1.749985 1.042618 -0.878382
1.749078 1.003042 -0.881263
1.745169 1.002580 -0.838570
1.746444 1.041283 -0.837474
1.727196 1.003594 -0.883232
1.726552 0.965890 -0.885081
1.722488 0.964377 -0.840959
1.723287 1.003132 -0.840538
1.749078 1.003121 -0.881233
1.748434 0.965418 -0.883082
1.744370 0.963905 -0.838960
1.745169 1.002659 -0.838540
1.726553 0.965780 -0.885113
1.726207 0.925960 -0.886619
1.721866 0.925591 -0.841780
1.722489 0.964267 -0.840991
1.748431 0.965450 -0.883052
1.748086 0.925630 -0.884559
1.743745 0.925261 -0.839720
1.744368 0.963937 -0.838931
1.726210 0.925845 -0.886657
1.725990 0.885860 -0.887338
1.721580 0.886715 -0.842487
1.721868 0.925475 -0.841819
1.748083 0.925667 -0.884522
1.747864 0.885683 -0.885203
1.743453 0.886537 -0.840352
1.743742 0.925298 -0.839683
1.725995 0.885772 -0.887388
1.725909 0.847053 -0.886223
1.721211 0.847876 -0.841968
1.721585 0.886627 -0.842538
1.747859 0.885693 -0.885152
1.747773 0.846973 -0.883986
1.743074 0.847796 -0.839732
1.743448 0.886547 -0.840301
1.725907 0.847002 -0.886205
1.725494 0.808153 -0.885512
1.721405 0.809068 -0.842464
1.721209 0.847825 -0.841951
1.747775 0.846946 -0.884003
1.747361 0.808097 -0.883310
1.743272 0.809012 -0.840261
1.743076 0.847769 -0.839748
1.725488 0.808178 -0.885446
1.725073 0.769178 -0.884817
1.721157 0.770337 -0.843040
1.721398 0.809093 -0.842397
1.747367 0.807993 -0.883376
1.746952 0.768993 -0.882748
1.743037 0.770152 -0.840970
1.743278 0.808908 -0.840328
1.725069 0.769084 -0.884783
1.724511 0.729920 -0.881177
1.721125 0.731093 -0.843097
1.721154 0.770243 -0.843006
1.746955 0.769010 -0.882780
1.746398 0.729846 -0.879174
1.743011 0.731019 -0.841093
1.743040 0.770169 -0.841002
1.863780 0.680992 -0.962498
1.868048 0.680144 -0.939456
1.868025 0.663067 -0.940531
1.865850 0.662518 -0.972777
1.842044 0.678935 -0.959976
1.846312 0.678087 -0.936934
1.846290 0.661009 -0.938009
1.844114 0.660460 -0.970255
1.866589 0.714559 -0.965901
1.869323 0.714799 -0.942240
1.868021 0.678393 -0.939829
1.863753 0.679241 -0.962870
1.844908 0.716058 -0.962631
1.847642 0.716298 -0.938970
1.846340 0.679892 -0.936559
1.842072 0.680740 -0.959600
1.866471 0.726170 -0.970026
1.868072 0.724523 -0.943578
1.869418 0.716144 -0.941538
1.866684 0.715903 -0.965199
1.844601 0.725026 -0.968167
1.846202 0.723380 -0.941718
1.847549 0.715000 -0.939678
1.844815 0.714759 -0.963339
1.872359 1.160952 -0.917255
1.872009 1.150572 -0.889841
1.872086 1.113993 -0.904504
1.871349 1.123480 -0.931680
1.850383 1.161140 -0.917031
1.850033 1.150760 -0.889617
1.850110 1.114182 -0.904280
1.849373 1.123668 -0.931456
1.871345 1.123558 -0.931916
1.872081 1.114071 -0.904741
1.871894 1.076598 -0.916898
1.870959 1.084996 -0.943354
1.849377 1.123515 -0.931246
1.850114 1.114028 -0.904070
1.849927 1.076556 -0.916227
1.848992 1.084953 -0.942683
1.870950 1.085076 -0.943582
1.871885 1.076679 -0.917126
1.872340 1.038750 -0.927715
1.870478 1.045769 -0.952904
1.849001 1.084796 -0.942477
1.849936 1.076399 -0.916021
1.850391 1.038470 -0.926610
1.848529 1.045489 -0.951799
1.870472 1.045291 -0.952953
1.872334 1.038271 -0.927765
1.870294 0.999445 -0.933113
1.869695 1.005858 -0.960162
1.848534 1.045890 -0.951766
1.850396 1.038870 -0.926577
1.848357 1.000043 -0.931926
1.847758 1.006457 -0.958974
1.869709 1.006087 -0.959920
1.870308 0.999674 -0.932871
1.870325 0.960481 -0.936385
1.869188 0.966285 -0.965454
1.847742 1.006148 -0.959227
1.848341 0.999735 -0.932178
1.848358 0.960542 -0.935692
1.847221 0.966346 -0.964761
1.869189 0.966253 -0.965427
1.870326 0.960449 -0.936357
1.869831 0.921081 -0.939808
1.869303 0.926236 -0.969580
1.847220 0.966298 -0.964797
1.848357 0.960494 -0.935728
1.847862 0.921126 -0.939178
1.847334 0.926281 -0.968951
1.869302 0.926089 -0.969599
1.869829 0.920934 -0.939826
1.869571 0.881723 -0.943195
1.868447 0.885977 -0.972063
1.847335 0.926349 -0.968939
1.847863 0.921194 -0.939166
1.847604 0.881983 -0.942535
1.846480 0.886237 -0.971402
1.868442 0.885914 -0.972183
1.869566 0.881660 -0.943316
1.868946 0.842323 -0.944990
1.867846 0.845681 -0.973136
1.846484 0.886220 -0.971286
1.847608 0.881966 -0.942419
1.846989 0.842628 -0.944093
1.845889 0.845987 -0.972239
1.867845 0.845692 -0.973182
1.868944 0.842334 -0.945036
1.868713 0.802916 -0.945055
1.867365 0.805725 -0.972563
1.845890 0.845896 -0.972194
1.846990 0.842538 -0.944048
1.846758 0.803120 -0.944067
1.845411 0.805929 -0.971575
1.867361 0.805655 -0.972645
1.868708 0.802846 -0.945137
1.868316 0.763470 -0.944762
1.866858 0.765470 -0.971817
1.845414 0.805919 -0.971493
1.846762 0.803110 -0.943984
1.846370 0.763735 -0.943610
1.844911 0.765735 -0.970665
1.866854 0.765457 -0.971874
1.868313 0.763457 -0.944819
1.868107 0.723870 -0.943285
1.866506 0.725517 -0.969734
1.844914 0.765668 -0.970605
1.846373 0.763668 -0.943550
1.846167 0.724082 -0.942016
1.844566 0.725729 -0.968465
1.872585 1.181208 -0.910714
1.873430 1.172097 -0.884964
1.872002 1.150329 -0.889955
1.872352 1.160709 -0.917370
1.850624 1.181941 -0.910241
1.851469 1.172830 -0.884491
1.850041 1.151061 -0.889482
1.850391 1.161441 -0.916897
1.918280 1.757586 -0.678101
1.921008 1.753103 -0.669932
1.916352 1.717678 -0.685492
1.915106 1.728300 -0.703589
1.896588 1.757984 -0.674590
1.899316 1.753500 -0.666421
1.894660 1.718075 -0.681981
1.893414 1.728698 -0.700078
1.915174 1.727722 -0.702852
1.916421 1.717099 -0.684755
1.912332 1.681302 -0.699330
1.911294 1.695537 -0.724704
1.893338 1.729210 -0.700853
1.894584 1.718588 -0.682756
1.890496 1.682791 -0.697331
1.889458 1.697026 -0.722705
1.911287 1.695487 -0.724742
1.912325 1.681252 -0.699368
1.908727 1.646085 -0.715344
1.906862 1.660872 -0.742658
1.889457 1.697007 -0.722702
1.890495 1.682772 -0.697328
1.886896 1.647605 -0.713305
1.885032 1.662391 -0.740619
1.906847 1.660910 -0.742835
1.908711 1.646124 -0.715521
1.904724 1.612073 -0.734020
1.902597 1.625975 -0.760338
1.885039 1.662284 -0.740477
1.886903 1.647497 -0.713163
1.882916 1.613446 -0.731663
1.880789 1.627349 -0.757980
1.902587 1.626061 -0.760466
1.904715 1.612159 -0.734148
1.901191 1.577089 -0.750772
1.898532 1.590627 -0.776954
1.880790 1.627193 -0.757887
1.882918 1.613291 -0.731569
1.879395 1.578221 -0.748193
1.876735 1.591759 -0.774375
1.898522 1.590721 -0.777073
1.901181 1.577183 -0.750892
1.897861 1.541865 -0.766937
1.894923 1.554943 -0.792862
1.876738 1.591594 -0.774288
1.879398 1.578056 -0.748106
1.876077 1.542738 -0.764151
1.873139 1.555815 -0.790076
1.894928 1.555009 -0.792838
1.897866 1.541931 -0.766914
1.894759 1.506195 -0.782147
1.892114 1.518651 -0.807460
1.873128 1.555678 -0.790130
1.876066 1.542600 -0.764205
1.872959 1.506864 -0.779438
1.870314 1.519319 -0.804751
1.892123 1.518510 -0.807345
1.894768 1.506055 -0.782033
1.891457 1.469849 -0.795868
1.889364 1.481966 -0.821532
1.870299 1.519387 -0.804894
1.872945 1.506931 -0.779582
1.869633 1.470726 -0.793417
1.867541 1.482842 -0.819081
1.889378 1.481950 -0.821392
1.891471 1.469833 -0.795728
1.888689 1.433467 -0.809517
1.886651 1.445351 -0.835342
1.867521 1.482785 -0.819249
1.869614 1.470669 -0.793585
1.866831 1.434303 -0.807374
1.864794 1.446186 -0.833199
1.886660 1.445174 -0.835158
1.888697 1.433290 -0.809333
1.885247 1.396529 -0.821790
1.884330 1.408064 -0.847874
1.864780 1.446290 -0.833409
1.866817 1.434406 -0.807584
1.863367 1.397645 -0.820042
1.862450 1.409180 -0.846125
1.884349 1.408101 -0.847620
1.885266 1.396566 -0.821536
1.882954 1.359847 -0.834353
1.881985 1.370991 -0.860342
1.862426 1.409069 -0.846405
1.863343 1.397534 -0.820321
1.861031 1.360815 -0.833137
1.860062 1.371959 -0.859127
1.881983 1.371014 -0.860396
1.882952 1.359869 -0.834407
1.880950 1.322807 -0.846328
1.879702 1.333456 -0.872003
1.860060 1.371863 -0.859097
1.861028 1.360718 -0.833108
1.859027 1.323656 -0.845030
1.857779 1.334304 -0.870704
1.879693 1.333472 -0.872148
1.880941 1.322823 -0.846473
1.879154 1.285316 -0.856874
1.877394 1.295871 -0.883372
1.857783 1.334213 -0.870583
1.859032 1.323565 -0.844908
1.857245 1.286057 -0.855309
1.855484 1.296613 -0.881807
1.877388 1.295958 -0.883483
1.879148 1.285402 -0.856986
1.877656 1.247678 -0.866686
1.875593 1.257950 -0.893367
1.855486 1.296451 -0.881716
1.857247 1.285896 -0.855218
1.855754 1.248172 -0.864918
1.853692 1.258444 -0.891599
1.875582 1.258020 -0.893505
1.877645 1.247748 -0.866824
1.876579 1.209946 -0.876130
1.873971 1.219815 -0.902717
1.853699 1.258298 -0.891481
1.855762 1.248026 -0.864800
1.854696 1.210224 -0.874106
1.852088 1.220093 -0.900693
1.873972 1.219466 -0.902600
1.876580 1.209596 -0.876013
1.873395 1.172043 -0.885605
1.872550 1.181154 -0.911355
1.852084 1.220366 -0.900829
1.854692 1.210497 -0.874242
1.851507 1.172944 -0.883834
1.850662 1.182055 -0.909585
1.861235 1.185030 -0.920918
1.861002 1.164530 -0.927573
1.829090 1.165639 -0.926241
1.830316 1.186426 -0.919289
1.861942 1.178131 -0.900063
1.861709 1.157631 -0.906718
1.829798 1.158740 -0.905386
1.831024 1.179527 -0.898434
1.830293 1.186512 -0.919259
1.829067 1.165726 -0.926212
1.797125 1.166797 -0.924859
1.799411 1.187945 -0.917675
1.830984 1.179443 -0.898461
1.829758 1.158656 -0.905413
1.797815 1.159728 -0.904061
1.800101 1.180876 -0.896876
1.799341 1.187997 -0.917655
1.797055 1.166849 -0.924839
1.765176 1.167916 -0.923329
1.768427 1.189384 -0.915999
1.800108 1.180826 -0.896894
1.797822 1.159679 -0.904078
1.765943 1.160745 -0.902568
1.769194 1.182213 -0.895238
1.761434 1.189108 -0.913076
1.758183 1.167640 -0.920406
1.736852 1.164750 -0.899679
1.739297 1.186014 -0.893672
1.776134 1.182487 -0.898140
1.772883 1.161019 -0.905470
1.751553 1.158128 -0.884744
1.753998 1.179392 -0.878736
1.735765 1.183942 -0.887211
1.733320 1.162678 -0.893219
1.730613 1.160136 -0.861605
1.731959 1.180906 -0.856969
1.757505 1.181458 -0.885146
1.755059 1.160194 -0.891153
1.752352 1.157653 -0.859540
1.753699 1.178422 -0.854904
1.731886 1.180444 -0.856588
1.730540 1.159675 -0.861224
1.728526 1.157208 -0.829406
1.729613 1.177590 -0.825830
1.753766 1.178878 -0.855222
1.752420 1.158109 -0.859858
1.750405 1.155642 -0.828040
1.751492 1.176023 -0.824464
1.906825 1.765110 -0.684525
1.903651 1.735824 -0.710012
1.878294 1.732822 -0.711378
1.881040 1.763765 -0.683332
1.908015 1.750466 -0.668180
1.904841 1.721180 -0.693667
1.879483 1.718177 -0.695033
1.882229 1.749121 -0.666987
1.903894 1.734609 -0.710972
1.900014 1.702424 -0.732824
1.875267 1.701444 -0.732223
1.878536 1.731606 -0.712338
1.904592 1.722334 -0.692755
1.900712 1.690149 -0.714607
1.875965 1.689169 -0.714006
1.879234 1.719331 -0.694121
1.899923 1.701346 -0.733463
1.895498 1.666731 -0.751379
1.870695 1.664656 -0.751361
1.875176 1.700366 -0.732862
1.900794 1.691161 -0.714007
1.896369 1.656546 -0.731923
1.871566 1.654471 -0.731905
1.876047 1.690181 -0.713406
1.895515 1.666567 -0.751465
1.891264 1.631632 -0.768968
1.866202 1.629958 -0.768773
1.870711 1.664492 -0.751447
1.896344 1.656640 -0.731874
1.892094 1.621705 -0.749377
1.867031 1.620031 -0.749182
1.871541 1.654565 -0.731856
1.891266 1.631292 -0.769133
1.887211 1.595858 -0.785621
1.862069 1.594043 -0.785386
1.866203 1.629619 -0.768939
1.892084 1.621974 -0.749245
1.888029 1.586540 -0.765733
1.862886 1.584724 -0.765498
1.867021 1.620300 -0.749051
1.887201 1.595632 -0.785724
1.883602 1.559854 -0.801512
1.858343 1.558222 -0.801199
1.862059 1.593817 -0.785489
1.888031 1.586694 -0.765663
1.884432 1.550916 -0.781451
1.859172 1.549284 -0.781138
1.862888 1.584879 -0.765428
1.883676 1.559504 -0.801665
1.880862 1.523145 -0.816286
1.855449 1.523063 -0.815615
1.858416 1.557872 -0.801351
1.884352 1.551195 -0.781329
1.881538 1.514836 -0.795950
1.856125 1.514755 -0.795279
1.859092 1.549563 -0.781016
1.880927 1.522956 -0.816363
1.878168 1.486411 -0.830550
1.852085 1.485337 -0.830316
1.855514 1.522874 -0.815693
1.881466 1.514953 -0.795901
1.878708 1.478408 -0.810088
1.852624 1.477334 -0.809854
1.856053 1.514871 -0.795230
1.878171 1.486296 -0.830595
1.875444 1.449697 -0.844544
1.848794 1.448149 -0.844425
1.852088 1.485222 -0.830361
1.878699 1.478449 -0.810072
1.875972 1.441850 -0.824022
1.849322 1.440302 -0.823902
1.852615 1.477375 -0.809838
1.875442 1.449307 -0.844686
1.873113 1.412197 -0.857402
1.845800 1.411621 -0.856884
1.848792 1.447759 -0.844566
1.875969 1.442167 -0.823907
1.873639 1.405057 -0.836623
1.846326 1.404481 -0.836105
1.849319 1.440619 -0.823787
1.873091 1.412163 -0.857413
1.870727 1.375053 -0.870135
1.842835 1.375599 -0.869164
1.845778 1.411586 -0.856895
1.873656 1.405019 -0.836636
1.871292 1.367909 -0.849359
1.843399 1.368454 -0.848388
1.846342 1.404442 -0.836119
1.870655 1.374673 -0.870257
1.868373 1.337115 -0.881864
1.839776 1.338224 -0.880432
1.842762 1.375218 -0.869286
1.871359 1.368215 -0.849261
1.869078 1.330657 -0.860868
1.840480 1.331767 -0.859436
1.843467 1.368761 -0.848290
1.868306 1.337004 -0.881895
1.866007 1.299403 -0.893119
1.836699 1.300263 -0.891666
1.839708 1.338114 -0.880463
1.869140 1.330693 -0.860860
1.866841 1.293092 -0.872084
1.837533 1.293952 -0.870630
1.840542 1.331802 -0.859427
1.865975 1.298992 -0.893234
1.864181 1.260985 -0.903117
1.834060 1.261920 -0.901606
1.836668 1.299852 -0.891780
1.866867 1.293427 -0.871991
1.865072 1.255420 -0.881874
1.834952 1.256355 -0.880363
1.837560 1.294287 -0.870537
1.864169 1.260756 -0.903175
1.862557 1.222551 -0.912387
1.831950 1.223755 -0.910785
1.834049 1.261691 -0.901663
1.865080 1.255573 -0.881836
1.863469 1.217368 -0.891048
1.832861 1.218573 -0.889446
1.834960 1.256508 -0.880324
1.862554 1.222388 -0.912426
1.861132 1.184076 -0.921181
1.830214 1.185472 -0.919552
1.831946 1.223592 -0.910823
1.863469 1.217455 -0.891028
1.862047 1.179143 -0.899783
1.831129 1.180539 -0.898155
1.832862 1.218660 -0.889426
1.880938 1.763992 -0.683115
1.878192 1.733049 -0.711161
1.853020 1.730782 -0.712286
1.855192 1.762011 -0.681728
1.882280 1.748889 -0.667205
1.879534 1.717946 -0.695251
1.854361 1.715679 -0.696376
1.856533 1.746908 -0.665818
1.878566 1.731437 -0.712451
1.875296 1.701274 -0.732336
1.850646 1.700136 -0.731824
1.853394 1.729170 -0.713577
1.879155 1.719497 -0.694009
1.875885 1.689334 -0.713893
1.851234 1.688196 -0.713382
1.853982 1.717230 -0.695134
1.875146 1.700364 -0.732861
1.870665 1.664654 -0.751361
1.845786 1.662585 -0.751308
1.850496 1.699226 -0.732350
1.876027 1.690179 -0.713406
1.871546 1.654469 -0.731905
1.846667 1.652400 -0.731853
1.851377 1.689041 -0.712894
1.870654 1.664489 -0.751445
1.866144 1.629956 -0.768772
1.841104 1.628212 -0.768479
1.845775 1.662420 -0.751393
1.871548 1.654564 -0.731857
1.867038 1.620030 -0.749183
1.841998 1.618286 -0.748890
1.846669 1.652495 -0.731804
1.866146 1.629607 -0.768942
1.862011 1.594031 -0.785389
1.836822 1.592155 -0.785147
1.841106 1.627864 -0.768648
1.867028 1.620308 -0.749047
1.862893 1.584732 -0.765495
1.837704 1.582856 -0.765253
1.841988 1.618565 -0.748754
1.862023 1.593820 -0.785486
1.858307 1.558225 -0.801196
1.833042 1.556712 -0.800809
1.836833 1.591943 -0.785245
1.862874 1.584873 -0.765430
1.859157 1.549278 -0.781140
1.833893 1.547765 -0.780753
1.837684 1.582997 -0.765188
1.858374 1.557940 -0.801322
1.855407 1.523132 -0.815585
1.829893 1.522827 -0.814955
1.833110 1.556427 -0.800935
1.859083 1.549493 -0.781044
1.856116 1.514684 -0.795308
1.830602 1.514379 -0.794677
1.833818 1.547980 -0.780657
1.855470 1.522890 -0.815685
1.852041 1.485353 -0.830309
1.825905 1.484151 -0.830079
1.829956 1.522585 -0.815054
1.856045 1.514854 -0.795237
1.852616 1.477317 -0.809861
1.826479 1.476114 -0.809632
1.830531 1.514549 -0.794607
1.852040 1.485207 -0.830365
1.848747 1.448134 -0.844429
1.821980 1.446718 -0.844187
1.825903 1.484004 -0.830136
1.852610 1.477388 -0.809833
1.849317 1.440315 -0.823897
1.822550 1.438899 -0.823655
1.826473 1.476186 -0.809604
1.848732 1.447744 -0.844570
1.845739 1.411606 -0.856887
1.818371 1.411151 -0.856223
1.821964 1.446328 -0.844327
1.849325 1.440632 -0.823783
1.846333 1.404493 -0.836101
1.818964 1.404039 -0.835436
1.822558 1.439216 -0.823540
1.845704 1.411571 -0.856898
1.842761 1.375583 -0.869168
1.814751 1.376232 -0.868012
1.818335 1.411116 -0.856234
1.846362 1.404458 -0.836114
1.843418 1.368470 -0.848383
1.815409 1.369119 -0.847228
1.818993 1.404003 -0.835449
1.842697 1.375167 -0.869299
1.839710 1.338173 -0.880445
1.811082 1.339215 -0.878990
1.814687 1.375816 -0.868144
1.843476 1.368814 -0.848274
1.840489 1.331820 -0.859420
1.811861 1.332863 -0.857965
1.815466 1.369463 -0.847119
1.839659 1.338096 -0.880467
1.836650 1.300245 -0.891669
1.807267 1.301035 -0.890169
1.811031 1.339138 -0.879012
1.840533 1.331822 -0.859421
1.837524 1.293972 -0.870624
1.808140 1.294762 -0.869124
1.811905 1.332865 -0.857966
1.836624 1.299859 -0.891776
1.834017 1.261926 -0.901602
1.803895 1.262876 -0.900068
1.807240 1.300649 -0.890277
1.837544 1.294283 -0.870537
1.834936 1.256350 -0.880363
1.804815 1.257300 -0.878829
1.808160 1.295073 -0.869038
1.834022 1.261698 -0.901660
1.831923 1.223763 -0.910782
1.801269 1.224948 -0.909222
1.803900 1.262648 -0.900126
1.834926 1.256503 -0.880324
1.832827 1.218567 -0.889446
1.802172 1.219753 -0.887886
1.804804 1.257453 -0.878790
1.831932 1.223603 -0.910820
1.830199 1.185483 -0.919549
1.799317 1.186915 -0.917965
1.801277 1.224788 -0.909260
1.832814 1.218652 -0.889425
1.831082 1.180531 -0.898155
1.800199 1.181964 -0.896570
1.802160 1.219837 -0.887865
1.854484 1.762325 -0.681323
1.852312 1.731096 -0.711882
1.826871 1.726780 -0.713414
1.829355 1.758779 -0.678920
1.857191 1.746589 -0.666221
1.855019 1.715359 -0.696780
1.829577 1.711043 -0.698312
1.832062 1.743042 -0.663818
1.852957 1.728889 -0.713730
1.850209 1.699855 -0.731978
1.825166 1.696511 -0.731295
1.827516 1.724573 -0.715262
1.854368 1.717506 -0.694982
1.851621 1.688472 -0.713230
1.826577 1.685129 -0.712547
1.828927 1.713190 -0.696514
1.849969 1.699261 -0.732294
1.845260 1.662620 -0.751252
1.819860 1.658423 -0.751021
1.824925 1.695917 -0.731611
1.851853 1.689001 -0.712950
1.847144 1.652360 -0.731908
1.821744 1.648163 -0.731676
1.826810 1.685657 -0.712267
1.845263 1.662436 -0.751349
1.840592 1.628228 -0.768435
1.815041 1.624565 -0.767800
1.819863 1.658239 -0.751117
1.847131 1.652473 -0.731848
1.842460 1.618265 -0.748933
1.816909 1.614602 -0.748299
1.821731 1.648277 -0.731616
1.840589 1.627886 -0.768602
1.836305 1.592178 -0.785101
1.810393 1.588648 -0.784284
1.815037 1.624224 -0.767967
1.842454 1.618537 -0.748799
1.838170 1.582828 -0.765299
1.812259 1.579299 -0.764481
1.816903 1.614874 -0.748165
1.836308 1.591978 -0.785194
1.832516 1.556746 -0.800758
1.806370 1.554057 -0.799558
1.810396 1.588449 -0.784377
1.838159 1.582957 -0.765238
1.834367 1.547726 -0.780803
1.808221 1.545036 -0.779602
1.812247 1.579428 -0.764421
1.832573 1.556518 -0.800864
1.829356 1.522917 -0.814884
1.802856 1.520756 -0.813638
1.806426 1.553828 -0.799663
1.834304 1.547886 -0.780726
1.831087 1.514286 -0.794746
1.804587 1.512124 -0.793500
1.808157 1.545196 -0.779526
1.829427 1.522640 -0.815005
1.825375 1.484206 -0.830030
1.798256 1.481860 -0.828915
1.802927 1.520479 -0.813759
1.831008 1.514490 -0.794655
1.826956 1.476056 -0.809680
1.799836 1.473710 -0.808566
1.804508 1.512329 -0.793409
1.825396 1.484026 -0.830102
1.821472 1.446740 -0.844152
1.793891 1.444658 -0.842877
1.798276 1.481680 -0.828988
1.826927 1.476160 -0.809637
1.823003 1.438874 -0.823687
1.795422 1.436792 -0.822412
1.799807 1.473814 -0.808523
1.821501 1.446363 -0.844292
1.817907 1.411186 -0.856188
1.789913 1.410102 -0.854629
1.793919 1.444281 -0.843017
1.822967 1.439179 -0.823573
1.819373 1.404002 -0.835469
1.791379 1.402919 -0.833910
1.795385 1.437098 -0.822298
1.817940 1.411146 -0.856204
1.814356 1.376262 -0.867982
1.785992 1.376367 -0.866095
1.789946 1.410063 -0.854645
1.819332 1.403973 -0.835477
1.815748 1.369089 -0.847255
1.787384 1.369194 -0.845367
1.791339 1.402889 -0.833917
1.814359 1.375817 -0.868127
1.810753 1.339216 -0.878973
1.781885 1.339667 -0.876934
1.785995 1.375922 -0.866239
1.815738 1.369463 -0.847133
1.812132 1.332863 -0.857979
1.783263 1.333314 -0.855940
1.787374 1.369568 -0.845245
1.810764 1.339158 -0.878991
1.806999 1.301055 -0.890149
1.777569 1.301426 -0.888196
1.781895 1.339609 -0.876952
1.812114 1.332846 -0.857983
1.808349 1.294743 -0.869140
1.778918 1.295113 -0.867188
1.783245 1.333297 -0.855944
1.807044 1.300696 -0.890254
1.803698 1.262924 -0.900046
1.773598 1.263637 -0.898188
1.777613 1.301066 -0.888301
1.808297 1.295027 -0.869057
1.804952 1.257254 -0.878849
1.774851 1.257967 -0.876991
1.778867 1.295397 -0.867104
1.803768 1.262693 -0.900109
1.801136 1.224993 -0.909205
1.770587 1.226088 -0.907460
1.773667 1.263406 -0.898251
1.804876 1.257410 -0.878804
1.802244 1.219710 -0.887900
1.771695 1.220805 -0.886155
1.774775 1.258123 -0.876946
1.801197 1.224820 -0.909249
1.799237 1.186948 -0.917954
1.768323 1.188334 -0.916299
1.770648 1.225915 -0.907504
1.802178 1.219807 -0.887873
1.800217 1.181934 -0.896578
1.769303 1.183321 -0.894923
1.771629 1.220902 -0.886128
1.823001 1.756979 -0.676339
1.820517 1.724980 -0.710833
1.797418 1.702337 -0.703607
1.805225 1.741535 -0.666973
1.838370 1.744819 -0.666391
1.835885 1.712820 -0.700885
1.812787 1.690177 -0.693659
1.820593 1.729375 -0.657025
1.821474 1.723813 -0.713034
1.819124 1.695752 -0.729067
1.794343 1.672586 -0.722953
1.798375 1.701170 -0.705808
1.834920 1.713923 -0.698736
1.832569 1.685862 -0.714769
1.807788 1.662696 -0.708654
1.811821 1.691280 -0.691510
1.819491 1.695553 -0.729524
1.814425 1.658059 -0.748933
1.788760 1.636008 -0.741300
1.794710 1.672387 -0.723410
1.832193 1.685996 -0.714347
1.827128 1.648502 -0.733756
1.801463 1.626451 -0.726123
1.807412 1.662830 -0.708233
1.814332 1.657758 -0.749038
1.809510 1.624084 -0.765721
1.783445 1.603065 -0.755282
1.788667 1.635707 -0.741405
1.827211 1.648732 -0.733685
1.822388 1.615058 -0.750368
1.796323 1.594039 -0.739929
1.801545 1.626681 -0.726052
1.809281 1.623776 -0.765701
1.804637 1.588201 -0.782018
1.777713 1.568295 -0.768957
1.783216 1.602757 -0.755262
1.822607 1.615297 -0.750419
1.817963 1.579722 -0.766735
1.791039 1.559816 -0.753675
1.796542 1.594278 -0.739980
1.804488 1.587996 -0.781998
1.800461 1.553604 -0.797179
1.773213 1.535743 -0.781958
1.777563 1.568090 -0.768937
1.818103 1.579859 -0.766784
1.814077 1.545467 -0.781966
1.786829 1.527605 -0.766745
1.791179 1.559953 -0.753724
1.800371 1.553397 -0.797206
1.796801 1.520325 -0.811181
1.768863 1.501483 -0.795236
1.773123 1.535535 -0.781986
1.814159 1.545607 -0.781966
1.810588 1.512535 -0.795941
1.782650 1.493694 -0.779996
1.786911 1.527746 -0.766746
1.796719 1.520164 -0.811187
1.792048 1.481545 -0.826344
1.764488 1.464883 -0.809048
1.768781 1.501323 -0.795242
1.810662 1.512624 -0.795963
1.805990 1.474005 -0.811119
1.778431 1.457343 -0.793824
1.782724 1.493783 -0.780018
1.791911 1.481288 -0.826341
1.787526 1.444267 -0.840231
1.760465 1.429699 -0.821049
1.764352 1.464626 -0.809046
1.806117 1.474188 -0.811149
1.801732 1.437166 -0.825038
1.774671 1.422598 -0.805856
1.778558 1.457526 -0.793854
1.787378 1.444023 -0.840201
1.783372 1.409844 -0.851813
1.756664 1.395559 -0.832175
1.760317 1.429455 -0.821019
1.801872 1.437339 -0.825092
1.797866 1.403161 -0.836705
1.771158 1.388875 -0.817067
1.774811 1.422772 -0.805910
1.783247 1.409770 -0.851724
1.779292 1.376075 -0.863174
1.753072 1.362600 -0.842788
1.756539 1.395484 -0.832086
1.797984 1.403167 -0.836816
1.794029 1.369472 -0.848266
1.767809 1.355997 -0.827880
1.771275 1.388882 -0.817178
1.779274 1.375840 -0.863256
1.775163 1.339586 -0.873951
1.749614 1.328123 -0.853822
1.753053 1.362366 -0.842870
1.794040 1.369638 -0.848206
1.789930 1.333383 -0.858901
1.764380 1.321920 -0.838772
1.767820 1.356163 -0.827820
1.775233 1.339557 -0.874030
1.770906 1.301373 -0.885274
1.746105 1.292302 -0.865336
1.749683 1.328094 -0.853901
1.789853 1.333339 -0.858844
1.785527 1.295156 -0.870088
1.760726 1.286084 -0.850150
1.764303 1.321876 -0.838715
1.771025 1.301146 -0.885475
1.767010 1.263716 -0.895362
1.743684 1.256853 -0.876831
1.746224 1.292074 -0.865537
1.785400 1.295310 -0.869908
1.781385 1.257881 -0.879795
1.758059 1.251018 -0.861264
1.760599 1.286239 -0.849970
1.767068 1.263287 -0.895563
1.763987 1.225969 -0.904771
1.741533 1.220943 -0.886151
1.743742 1.256425 -0.877032
1.781321 1.258237 -0.879614
1.778241 1.220918 -0.888823
1.755786 1.215892 -0.870203
1.757996 1.251374 -0.861083
1.763899 1.225665 -0.904783
1.761573 1.188084 -0.913577
1.739437 1.184989 -0.894174
1.741444 1.220639 -0.886163
1.778325 1.221150 -0.888829
1.776000 1.183569 -0.897623
1.753863 1.180475 -0.878220
1.755870 1.216124 -0.870209
1.802322 1.738279 -0.662923
1.794515 1.699081 -0.699557
1.788541 1.681001 -0.681291
1.794874 1.715644 -0.653235
1.823469 1.732591 -0.661053
1.815662 1.693394 -0.697687
1.809688 1.675314 -0.679421
1.816020 1.709956 -0.651365
1.794415 1.698515 -0.699917
1.790382 1.669931 -0.717061
1.783864 1.650995 -0.697751
1.788441 1.680435 -0.681651
1.815751 1.693894 -0.697376
1.811718 1.665309 -0.714520
1.805200 1.646374 -0.695210
1.809777 1.675814 -0.679110
1.790387 1.669945 -0.717076
1.784438 1.633566 -0.734966
1.778470 1.617650 -0.714131
1.783869 1.651010 -0.697765
1.811703 1.665231 -0.714539
1.805754 1.628852 -0.732430
1.799786 1.612936 -0.711594
1.805185 1.646296 -0.695229
1.784400 1.633370 -0.735000
1.779177 1.600728 -0.748877
1.773648 1.585472 -0.727360
1.778433 1.617454 -0.714165
1.805781 1.628981 -0.732427
1.800558 1.596339 -0.746304
1.795029 1.581084 -0.724787
1.799814 1.613065 -0.711591
1.779137 1.600597 -0.748756
1.773634 1.566135 -0.762451
1.768798 1.552235 -0.740523
1.773608 1.585342 -0.727238
1.800588 1.596403 -0.746453
1.795085 1.561941 -0.760148
1.790249 1.548041 -0.738219
1.795059 1.581148 -0.724935
1.773593 1.565905 -0.762465
1.769243 1.533557 -0.775486
1.764492 1.519993 -0.753149
1.768757 1.552004 -0.740536
1.795117 1.562106 -0.760160
1.790767 1.529758 -0.773181
1.786016 1.516194 -0.750844
1.790281 1.548205 -0.738232
1.769223 1.533414 -0.775525
1.764962 1.499362 -0.788775
1.760392 1.486557 -0.765878
1.764472 1.519850 -0.753188
1.790779 1.529836 -0.773168
1.786519 1.495784 -0.786419
1.781948 1.482980 -0.763521
1.786028 1.516272 -0.750831
1.764947 1.499252 -0.788796
1.760654 1.462812 -0.802601
1.756367 1.452208 -0.778722
1.760376 1.486448 -0.765898
1.786526 1.495824 -0.786425
1.782233 1.459384 -0.800230
1.777946 1.448779 -0.776351
1.781955 1.483020 -0.763527
1.760638 1.462676 -0.802642
1.756750 1.427749 -0.814645
1.752612 1.418505 -0.789921
1.756350 1.452072 -0.778763
1.782242 1.459450 -0.800214
1.778354 1.424523 -0.812217
1.774215 1.415279 -0.787494
1.777954 1.448845 -0.776335
1.756744 1.427684 -0.814676
1.753091 1.393787 -0.825832
1.748925 1.385170 -0.800707
1.752605 1.418440 -0.789952
1.778353 1.424520 -0.812209
1.774700 1.390623 -0.823366
1.770533 1.382006 -0.798240
1.774214 1.415276 -0.787486
1.753087 1.393728 -0.825874
1.749621 1.360844 -0.836576
1.745392 1.352408 -0.810968
1.748921 1.385111 -0.800749
1.774696 1.390616 -0.823345
1.771230 1.357732 -0.834046
1.767001 1.349296 -0.808439
1.770530 1.381999 -0.798220
1.749618 1.360781 -0.836633
1.746179 1.326538 -0.847585
1.741807 1.318817 -0.821134
1.745390 1.352345 -0.811025
1.771225 1.357727 -0.834011
1.767785 1.323484 -0.844963
1.763413 1.315764 -0.818513
1.766996 1.349292 -0.808403
1.746178 1.326489 -0.847632
1.742600 1.290697 -0.859067
1.738287 1.284517 -0.831497
1.741806 1.318769 -0.821182
1.767779 1.323464 -0.844937
1.764201 1.287672 -0.856372
1.759888 1.281492 -0.828802
1.763407 1.315743 -0.818487
1.742557 1.290320 -0.859099
1.740017 1.255099 -0.870393
1.735977 1.249871 -0.841576
1.738244 1.284140 -0.831530
1.764238 1.287979 -0.856361
1.761698 1.252759 -0.867655
1.757658 1.247530 -0.838838
1.759925 1.281799 -0.828791
1.739989 1.254878 -0.870343
1.737780 1.219397 -0.879462
1.733918 1.215199 -0.849771
1.735949 1.249649 -0.841526
1.761722 1.252910 -0.867724
1.759512 1.217429 -0.876844
1.755650 1.213231 -0.847152
1.757681 1.247681 -0.838907
1.737767 1.219274 -0.879445
1.735760 1.183625 -0.887455
1.731954 1.180589 -0.857213
1.733905 1.215077 -0.849753
1.759521 1.217481 -0.876878
1.757514 1.181831 -0.884889
1.753708 1.178795 -0.854646
1.755659 1.213283 -0.847186
1.794802 1.715333 -0.653313
1.788469 1.680690 -0.681369
1.783178 1.663448 -0.661897
1.787645 1.692431 -0.643659
1.816079 1.710226 -0.651258
1.809747 1.675584 -0.679314
1.804456 1.658341 -0.659842
1.808923 1.687325 -0.641604
1.788376 1.680290 -0.681325
1.783800 1.650851 -0.697425
1.778345 1.632802 -0.677291
1.783086 1.663048 -0.661853
1.809830 1.675922 -0.679397
1.805253 1.646483 -0.695497
1.799799 1.628434 -0.675363
1.804539 1.658680 -0.659925
1.783787 1.650799 -0.697400
1.778388 1.617439 -0.713766
1.773536 1.602168 -0.692169
1.778333 1.632750 -0.677266
1.805256 1.646472 -0.695553
1.799857 1.613113 -0.711918
1.795005 1.597841 -0.690322
1.799801 1.628424 -0.675419
1.778339 1.617162 -0.713799
1.773555 1.585181 -0.726994
1.769256 1.570356 -0.705181
1.773486 1.601891 -0.692202
1.799897 1.613326 -0.711914
1.795113 1.581345 -0.725109
1.790814 1.566519 -0.703296
1.795045 1.598054 -0.690318
1.773524 1.585065 -0.726863
1.768714 1.551958 -0.740147
1.764985 1.538675 -0.717877
1.769225 1.570240 -0.705050
1.795135 1.581396 -0.725267
1.790325 1.548289 -0.738551
1.786596 1.535006 -0.716281
1.790836 1.566571 -0.703453
1.768688 1.551811 -0.740119
1.764423 1.519800 -0.752731
1.760829 1.506707 -0.730159
1.764959 1.538528 -0.717849
1.790342 1.548372 -0.738605
1.786077 1.516361 -0.751217
1.782484 1.503268 -0.728645
1.786613 1.535089 -0.716335
1.764406 1.519673 -0.752768
1.760326 1.486380 -0.765458
1.756873 1.474536 -0.742135
1.760812 1.506580 -0.730196
1.786086 1.516423 -0.751205
1.782006 1.483131 -0.763895
1.778554 1.471286 -0.740573
1.782493 1.503330 -0.728633
1.760321 1.486320 -0.765511
