2.611478 1.609999 0.617362
2.643592 1.583509 0.615439
2.626033 1.586550 0.649412
2.662373 1.682923 0.673179
2.673832 1.683725 0.642986
2.705946 1.657234 0.641063
2.688387 1.660275 0.675036
2.611789 1.610306 0.615821
2.625697 1.613965 0.576184
2.659800 1.585443 0.575753
2.643903 1.583815 0.613898
2.673550 1.683420 0.644456
2.687458 1.687079 0.604818
2.721561 1.658557 0.604387
2.705664 1.656929 0.642533
2.625019 1.613504 0.579159
2.637488 1.616752 0.535090
2.671830 1.586680 0.536250
2.659122 1.584982 0.578729
2.688163 1.687545 0.601760
2.700633 1.690793 0.557690
2.734974 1.660721 0.558851
2.722266 1.659023 0.601329
2.636770 1.616494 0.538485
2.645616 1.618636 0.491635
2.680812 1.587708 0.494031
2.671112 1.586422 0.539645
2.701373 1.691055 0.554206
2.710218 1.693197 0.507356
2.745415 1.662269 0.509753
2.735715 1.660983 0.555366
2.645537 1.618531 0.492510
2.653068 1.620965 0.444275
2.688930 1.589362 0.447128
2.680733 1.587602 0.494906
2.710314 1.693306 0.506387
2.717846 1.695740 0.458152
2.753707 1.664137 0.461005
2.745511 1.662378 0.508784
2.653072 1.620963 0.444271
2.660142 1.623888 0.395128
2.696497 1.591919 0.397763
2.688933 1.589360 0.447124
2.717857 1.695747 0.458059
2.724927 1.698673 0.408916
2.761282 1.666703 0.411551
2.753719 1.664144 0.460912
2.660155 1.623868 0.395174
2.666801 1.627136 0.345404
2.703533 1.595028 0.347253
2.696510 1.591898 0.397809
2.724928 1.698699 0.408770
2.731574 1.701967 0.359001
2.768305 1.669859 0.360849
2.761283 1.666729 0.411405
2.666559 1.626911 0.348547
2.670525 1.628222 0.298051
2.707726 1.595987 0.298779
2.703290 1.594803 0.350396
2.731828 1.702197 0.355757
2.735794 1.703508 0.305261
2.772995 1.671273 0.305989
2.768559 1.670089 0.357605
2.670560 1.628139 0.298653
2.673833 1.629235 0.248113
2.711341 1.596887 0.247642
2.707761 1.595904 0.299382
2.735766 1.703593 0.304556
2.739040 1.704689 0.254016
2.776547 1.672341 0.253545
2.772967 1.671358 0.305285
2.673844 1.629229 0.248070
2.676933 1.630490 0.197912
2.714572 1.598068 0.196524
2.711352 1.596882 0.247600
2.739036 1.704697 0.253957
2.742124 1.705958 0.203798
2.779764 1.673536 0.202411
2.776543 1.672350 0.253486
2.676875 1.630483 0.198768
2.679118 1.631280 0.149378
2.716770 1.598720 0.147687
2.714514 1.598062 0.197381
2.742188 1.705966 0.202842
2.744431 1.706762 0.153452
2.782083 1.674202 0.151761
2.779827 1.673544 0.201455
2.679093 1.631274 0.149973
2.680615 1.631711 0.101839
2.718323 1.599126 0.100682
2.716745 1.598714 0.148283
2.744459 1.706769 0.152759
2.745981 1.707206 0.104625
2.783689 1.674621 0.103468
2.782111 1.674209 0.151068
2.680625 1.631703 0.101809
2.681935 1.632257 0.055718
2.719591 1.599661 0.055684
2.718333 1.599119 0.100652
2.745974 1.707214 0.104561
2.747285 1.707767 0.058470
2.784941 1.675171 0.058436
2.783683 1.674630 0.103404
2.681946 1.632251 0.055632
2.683000 1.632893 0.013670
2.720584 1.600401 0.013763
2.719602 1.599655 0.055598
2.747277 1.707775 0.058469
2.748331 1.708416 0.016508
2.785915 1.675924 0.016601
2.784933 1.675179 0.058435
2.682877 1.632978 0.015673
2.682636 1.632896 -0.015002
2.719911 1.600109 -0.023030
2.720461 1.600486 0.015766
2.748455 1.708331 0.014429
2.748214 1.708249 -0.016246
2.785489 1.675462 -0.024274
2.786038 1.675839 0.014522
2.682664 1.632880 -0.014657
2.681477 1.632614 -0.056748
2.719004 1.599958 -0.064746
2.719938 1.600093 -0.022685
2.748186 1.708264 -0.016667
2.746999 1.707999 -0.058759
2.784526 1.675342 -0.066757
2.785460 1.675478 -0.024695
2.681571 1.632536 -0.056650
2.680137 1.632414 -0.102844
2.717656 1.599714 -0.109747
2.719098 1.599879 -0.064648
2.746902 1.708077 -0.058945
2.745469 1.707956 -0.105139
2.782988 1.675256 -0.112042
2.784430 1.675421 -0.066943
2.680139 1.632414 -0.102794
2.678393 1.632313 -0.150821
2.715899 1.599703 -0.157006
2.717658 1.599714 -0.109696
2.745464 1.707955 -0.105284
2.743718 1.707854 -0.153311
2.781224 1.675244 -0.159495
2.782983 1.675255 -0.112186
2.678469 1.632286 -0.149979
2.675951 1.631762 -0.198940
2.713309 1.599147 -0.204918
2.715975 1.599675 -0.156163
2.743638 1.707882 -0.154250
2.741120 1.707358 -0.203212
2.778478 1.674743 -0.209190
2.781144 1.675271 -0.160435
2.675994 1.631764 -0.198330
2.672752 1.630891 -0.247731
2.710007 1.598374 -0.253860
2.713352 1.599149 -0.204307
2.741071 1.707354 -0.203921
2.737829 1.706480 -0.253323
2.775084 1.673963 -0.259451
2.778429 1.674739 -0.209899
2.672742 1.630876 -0.248074
2.669512 1.630333 -0.297612
2.706599 1.598031 -0.303987
2.709997 1.598359 -0.254202
2.737833 1.706494 -0.253080
2.734603 1.705952 -0.302617
2.771689 1.673650 -0.308993
2.775088 1.673977 -0.259208
2.669559 1.630418 -0.296160
2.665294 1.629179 -0.345465
2.701799 1.596730 -0.351899
2.706645 1.598116 -0.302536
2.734549 1.705865 -0.304168
2.730284 1.704626 -0.353474
2.766789 1.672177 -0.359908
2.771635 1.673563 -0.310544
2.665504 1.629375 -0.342816
2.658902 1.626482 -0.391378
2.695162 1.594094 -0.397513
2.702009 1.596926 -0.349250
2.730063 1.704426 -0.356220
2.723460 1.701533 -0.404782
2.759721 1.669145 -0.410917
2.766567 1.671976 -0.362654
2.658829 1.626509 -0.391587
2.651902 1.624076 -0.439567
2.687942 1.592094 -0.444901
2.695089 1.594121 -0.397721
2.723520 1.701501 -0.404670
2.716593 1.699068 -0.452650
2.752633 1.667086 -0.457984
2.759780 1.669113 -0.410804
2.651879 1.624087 -0.439617
2.644513 1.622272 -0.486845
2.679985 1.590897 -0.490775
2.687918 1.592105 -0.444952
2.716601 1.699053 -0.452694
2.709236 1.697238 -0.499922
2.744708 1.665864 -0.503851
2.752641 1.667071 -0.458028
2.644592 1.622411 -0.485755
2.635641 1.620781 -0.531774
2.670304 1.590326 -0.533742
2.680064 1.591036 -0.489685
2.709140 1.697096 -0.501103
2.700190 1.695466 -0.547122
2.734853 1.665012 -0.549090
2.744613 1.665722 -0.505033
2.636340 1.621052 -0.528332
2.623679 1.618381 -0.571861
2.657968 1.589575 -0.571715
2.671003 1.590598 -0.530300
2.699468 1.695191 -0.550652
2.686808 1.692520 -0.594181
2.721096 1.663714 -0.594035
2.734132 1.664737 -0.552620
2.624390 1.618760 -0.568996
2.610173 1.615589 -0.608337
2.642477 1.589161 -0.606545
2.658678 1.589954 -0.568850
2.686070 1.692137 -0.597127
2.671853 1.688966 -0.636468
2.704157 1.662538 -0.634676
2.720358 1.663331 -0.596981
2.609946 1.615288 -0.609688
2.598237 1.614821 -0.639771
2.624225 1.592252 -0.641742
2.642250 1.588860 -0.607896
2.672050 1.689267 -0.635187
2.660341 1.688800 -0.665270
2.686329 1.666231 -0.667241
2.704354 1.662838 -0.633396
2.598134 1.614843 -0.639957
2.560458 1.636966 -0.668079
2.594697 1.603734 -0.681063
2.624122 1.592274 -0.641928
2.660395 1.688796 -0.665149
2.622719 1.710918 -0.693271
2.656958 1.677687 -0.706255
2.686383 1.666227 -0.667120
2.598243 1.597121 0.686766
2.625998 1.586586 0.649394
2.659665 1.556943 0.652661
2.633983 1.562851 0.697904
2.660686 1.670732 0.712504
2.688441 1.660196 0.675132
2.722107 1.630553 0.678399
2.696425 1.636462 0.723642
2.626109 1.586508 0.649349
2.643668 1.583466 0.615376
2.677985 1.554018 0.616977
2.659776 1.556865 0.652616
2.688374 1.660264 0.675102
2.705932 1.657222 0.641129
2.740249 1.627773 0.642731
2.722041 1.630621 0.678369
2.643973 1.583754 0.613903
2.659870 1.585382 0.575757
2.694865 1.555148 0.577360
2.678290 1.554306 0.615505
2.705662 1.656933 0.642529
2.721558 1.658560 0.604383
2.756553 1.628326 0.605986
2.739979 1.627484 0.644130
2.658997 1.584935 0.579243
2.671706 1.586633 0.536764
2.707019 1.555521 0.538974
2.693992 1.554701 0.580846
2.722460 1.659010 0.600817
2.735169 1.660708 0.558338
2.770482 1.629595 0.560548
2.757455 1.628775 0.602420
2.671165 1.586397 0.539546
2.680865 1.587682 0.493933
2.716722 1.556085 0.496732
2.706478 1.555285 0.541756
2.735732 1.660946 0.555469
2.745432 1.662232 0.509856
2.781289 1.630634 0.512655
2.771045 1.629834 0.557679
2.680774 1.587569 0.494899
2.688971 1.589328 0.447120
2.725289 1.557329 0.450158
2.716631 1.555971 0.497698
2.745542 1.662348 0.508797
2.753738 1.664108 0.461019
2.790057 1.632109 0.464056
2.781399 1.630751 0.511597
2.688997 1.589308 0.447108
2.696560 1.591867 0.397747
2.733257 1.559619 0.400557
2.725315 1.557309 0.450146
2.753728 1.664133 0.460933
2.761292 1.666691 0.411572
2.797988 1.634444 0.414382
2.790047 1.632133 0.463971
2.696574 1.591847 0.397787
2.703596 1.594977 0.347231
2.740620 1.562589 0.349412
2.733271 1.559600 0.400597
2.761293 1.666716 0.411432
2.768315 1.669846 0.360876
2.805339 1.637457 0.363057
2.797990 1.634469 0.414241
2.703354 1.594761 0.350257
2.707790 1.595945 0.298641
2.745191 1.563540 0.299886
2.740378 1.562372 0.352438
2.768569 1.670066 0.357747
2.773005 1.671250 0.306131
2.810406 1.638845 0.307376
2.805593 1.637678 0.359928
2.707815 1.595860 0.299353
2.711395 1.596843 0.247614
2.749022 1.564349 0.247803
2.745216 1.563455 0.300598
2.772989 1.671337 0.305314
2.776569 1.672321 0.253574
2.814196 1.639826 0.253763
2.810390 1.638932 0.306559
2.711394 1.596843 0.247621
2.714615 1.598029 0.196546
2.752374 1.565467 0.195786
2.749022 1.564348 0.247810
2.776576 1.672323 0.253464
2.779796 1.673509 0.202389
2.817555 1.640948 0.201628
2.814203 1.639828 0.253653
2.714562 1.598015 0.197471
2.716818 1.598673 0.147777
2.754613 1.566014 0.146430
2.752321 1.565453 0.196711
2.779854 1.673525 0.201362
2.782110 1.674184 0.151668
2.819905 1.641524 0.150321
2.817613 1.640964 0.200602
2.716785 1.598680 0.148273
2.718363 1.599092 0.100672
2.756182 1.566394 0.099197
2.754580 1.566021 0.146926
2.782147 1.674178 0.151075
2.783725 1.674590 0.103475
2.821545 1.641891 0.102000
2.819942 1.641518 0.149728
2.718369 1.599088 0.100641
2.719628 1.599630 0.055673
2.757463 1.566955 0.054273
2.756189 1.566389 0.099166
2.783721 1.674596 0.103414
2.784980 1.675137 0.058446
2.822815 1.642463 0.057046
2.821541 1.641897 0.101939
2.719631 1.599630 0.055592
2.720613 1.600376 0.013757
2.758413 1.567719 0.011772
2.757466 1.566956 0.054192
2.784980 1.675138 0.058440
2.785961 1.675884 0.016605
2.823761 1.643228 0.014621
2.822814 1.642464 0.057040
2.720623 1.600351 0.016043
2.720073 1.599974 -0.022753
2.757757 1.567211 -0.027175
2.758423 1.567695 0.014058
2.785952 1.675908 0.014238
2.785402 1.675531 -0.024558
2.823086 1.642768 -0.028979
2.823752 1.643252 0.012253
2.720024 1.600015 -0.022846
2.719090 1.599880 -0.064908
2.756781 1.567092 -0.069912
2.757708 1.567252 -0.027268
2.785450 1.675490 -0.024547
2.784515 1.675355 -0.066608
2.822207 1.642567 -0.071612
2.823134 1.642727 -0.028968
2.719131 1.599851 -0.064643
2.717689 1.599686 -0.109742
2.755405 1.566939 -0.114568
2.756822 1.567063 -0.069647
2.784472 1.675384 -0.066960
2.783030 1.675218 -0.112060
2.820746 1.642472 -0.116885
2.822163 1.642596 -0.071965
2.717686 1.599690 -0.109685
2.715927 1.599679 -0.156995
2.753559 1.566917 -0.161629
2.755402 1.566944 -0.114511
2.783030 1.675214 -0.112208
2.781271 1.675203 -0.159518
2.818903 1.642440 -0.164152
2.820746 1.642467 -0.117034
2.715994 1.599661 -0.156128
2.713328 1.599132 -0.204883
2.750903 1.566457 -0.209568
2.753626 1.566898 -0.160762
2.781200 1.675221 -0.160481
2.778534 1.674692 -0.209236
2.816108 1.642017 -0.213921
2.818832 1.642458 -0.165115
2.713383 1.599123 -0.204294
2.710038 1.598348 -0.253846
2.747460 1.565715 -0.258794
2.750958 1.566449 -0.208979
2.778473 1.674699 -0.209923
2.775128 1.673924 -0.259476
2.812549 1.641291 -0.264424
2.816047 1.642024 -0.214609
2.709994 1.598357 -0.254264
2.706595 1.598030 -0.304049
2.743879 1.565561 -0.309342
2.747415 1.565725 -0.259211
2.775165 1.673913 -0.259158
2.771767 1.673586 -0.308943
2.809051 1.641117 -0.314236
2.812587 1.641281 -0.264106
2.706693 1.598128 -0.302066
2.701846 1.596742 -0.351430
2.738637 1.564068 -0.356908
2.743977 1.565659 -0.307359
2.771661 1.673486 -0.311025
2.766815 1.672100 -0.360389
2.803606 1.639426 -0.365867
2.808945 1.641017 -0.316318
2.702036 1.596914 -0.349185
2.695190 1.594083 -0.397447
2.731821 1.561577 -0.402865
2.738827 1.564241 -0.354663
2.766613 1.671923 -0.362731
2.759767 1.669091 -0.410994
2.796398 1.636586 -0.416411
2.803404 1.639249 -0.368209
2.695121 1.594094 -0.397718
2.687974 1.592066 -0.444898
2.724368 1.559748 -0.449853
2.731753 1.561588 -0.403135
2.759821 1.669076 -0.410819
2.752673 1.667049 -0.457999
2.789068 1.634730 -0.462954
2.796453 1.636570 -0.416236
2.687940 1.592096 -0.444895
2.680007 1.590888 -0.490718
2.716095 1.558966 -0.494826
2.724335 1.559777 -0.449850
2.752691 1.667016 -0.458094
2.744758 1.665809 -0.503917
2.780846 1.633887 -0.508025
2.789086 1.634698 -0.463049
2.680113 1.591034 -0.489491
2.670353 1.590324 -0.533548
2.705869 1.558844 -0.536531
2.716201 1.559112 -0.493599
2.744634 1.665661 -0.505233
2.734875 1.664951 -0.549290
2.770390 1.633471 -0.552273
2.780722 1.633739 -0.509341
2.670889 1.590551 -0.530790
2.657854 1.589528 -0.572206
2.693034 1.559106 -0.574264
2.706405 1.559070 -0.533773
2.734316 1.664724 -0.552132
2.721280 1.663701 -0.593548
2.756460 1.633279 -0.595606
2.769831 1.633243 -0.555115
2.658697 1.589898 -0.568955
2.642496 1.589105 -0.606650
2.676841 1.559604 -0.608526
2.693877 1.559476 -0.571013
2.720407 1.663330 -0.596878
2.704206 1.662536 -0.634573
2.738551 1.633035 -0.636449
2.755587 1.632908 -0.598936
2.642293 1.588838 -0.607853
2.624268 1.592230 -0.641698
2.657956 1.562738 -0.645299
2.676638 1.559337 -0.609729
2.704373 1.662806 -0.633442
2.686349 1.666198 -0.667287
2.720037 1.636706 -0.670888
2.738718 1.633305 -0.635318
2.624185 1.592220 -0.641932
2.594760 1.603680 -0.681066
2.636515 1.568879 -0.680048
2.657873 1.562727 -0.645532
2.686388 1.666221 -0.667126
2.656963 1.677681 -0.706260
2.698718 1.642880 -0.705242
2.720076 1.636728 -0.670726
2.634063 1.562830 0.697772
2.659745 1.556922 0.652530
2.696033 1.524894 0.656549
2.669763 1.528517 0.708864
2.696416 1.636418 0.723788
2.722098 1.630510 0.678546
2.758387 1.598482 0.682565
2.732117 1.602105 0.734880
2.659814 1.556851 0.652564
2.678023 1.554004 0.616926
2.713965 1.522621 0.619779
2.696102 1.524823 0.656583
2.722073 1.630573 0.678426
2.740282 1.627726 0.642788
2.776225 1.596343 0.645641
2.758361 1.598545 0.682446
2.678315 1.554243 0.615611
2.694890 1.555085 0.577466
2.730988 1.523693 0.579969
2.714258 1.522860 0.618464
2.740024 1.627485 0.644029
2.756599 1.628327 0.605884
2.792697 1.596935 0.608387
2.775967 1.596102 0.646882
2.693969 1.554610 0.581234
2.706996 1.555430 0.539362
2.743102 1.523544 0.541864
2.730067 1.523218 0.583736
2.757549 1.628804 0.602036
2.770576 1.629624 0.560165
2.806682 1.597739 0.562666
2.793647 1.597412 0.604539
2.706528 1.555264 0.541653
2.716772 1.556064 0.496629
2.753217 1.523989 0.499353
2.742634 1.523379 0.544154
2.771067 1.629791 0.557787
2.781312 1.630591 0.512764
2.817757 1.598516 0.515488
2.807174 1.597906 0.560289
2.716687 1.555929 0.497665
2.725345 1.557287 0.450125
2.762080 1.525001 0.452933
2.753132 1.523853 0.500390
2.781416 1.630728 0.511635
2.790074 1.632087 0.464095
2.826810 1.599801 0.466902
2.817861 1.598653 0.514359
2.725375 1.557262 0.450122
2.733317 1.559572 0.400533
2.770313 1.527121 0.403232
2.762111 1.524975 0.452930
2.790061 1.632116 0.464000
2.798002 1.634426 0.414411
2.834999 1.601976 0.417109
2.826796 1.599830 0.466808
2.733322 1.559557 0.400590
2.740672 1.562545 0.349406
2.777892 1.529969 0.351742
2.770319 1.527106 0.403289
2.798012 1.634447 0.414253
2.805361 1.637436 0.363069
2.842582 1.604860 0.365404
2.835009 1.601996 0.416952
2.740432 1.562341 0.352281
2.745245 1.563509 0.299728
2.782773 1.530956 0.301516
2.777653 1.529766 0.354616
2.805613 1.637644 0.360090
2.810427 1.638811 0.307537
2.847954 1.606258 0.309325
2.842834 1.605068 0.362425
2.745260 1.563418 0.300580
2.749066 1.564312 0.247785
2.786768 1.531696 0.248873
2.782787 1.530865 0.302368
2.810421 1.638904 0.306579
2.814227 1.639797 0.253784
2.851929 1.607182 0.254871
2.847948 1.606351 0.308367
2.749069 1.564306 0.247827
2.752421 1.565426 0.195802
2.790236 1.532750 0.196170
2.786771 1.531691 0.248914
2.814232 1.639805 0.253636
2.817584 1.640924 0.201612
2.855399 1.608249 0.201980
2.851934 1.607190 0.254724
2.752355 1.565421 0.196781
2.754647 1.565981 0.146500
2.792495 1.533217 0.146244
2.790170 1.532745 0.197148
2.817655 1.640931 0.200531
2.819947 1.641491 0.150250
2.857796 1.608727 0.149994
2.855471 1.608255 0.200899
2.754621 1.565985 0.146924
2.756224 1.566358 0.099196
2.794126 1.533588 0.098505
2.792470 1.533221 0.146668
2.819976 1.641489 0.149728
2.821579 1.641862 0.101999
2.859481 1.609092 0.101309
2.857825 1.608725 0.149472
2.756227 1.566356 0.099154
2.757501 1.566922 0.054262
2.795412 1.534141 0.053229
2.794130 1.533586 0.098464
2.821578 1.641864 0.101947
2.822853 1.642430 0.057055
2.860763 1.609649 0.056022
2.859481 1.609094 0.101257
2.757425 1.566986 0.054318
2.758372 1.567750 0.011898
2.796161 1.534841 0.010294
2.795335 1.534205 0.053285
2.822931 1.642368 0.056911
2.823878 1.643131 0.014492
2.861666 1.610222 0.012888
2.860841 1.609587 0.055879
2.758387 1.567726 0.014061
2.757721 1.567242 -0.027171
2.795562 1.534403 -0.029681
2.796176 1.534817 0.012457
2.823863 1.643156 0.012244
2.823197 1.642672 -0.028988
2.861038 1.609833 -0.031498
2.861652 1.610246 0.010640
2.757770 1.567197 -0.027292
2.756844 1.567037 -0.069936
2.794701 1.534225 -0.072879
2.795611 1.534358 -0.029802
2.823147 1.642716 -0.028952
2.822220 1.642556 -0.071596
2.860077 1.609744 -0.074538
2.860988 1.609877 -0.031461
2.756856 1.567034 -0.069645
2.755439 1.566910 -0.114566
2.793247 1.534067 -0.117602
2.794713 1.534222 -0.072588
2.822206 1.642559 -0.071975
2.820788 1.642435 -0.116895
2.858596 1.609592 -0.119931
2.860063 1.609747 -0.074917
2.755442 1.566909 -0.114503
2.753599 1.566882 -0.161622
2.791401 1.534109 -0.164701
2.793251 1.534066 -0.117539
2.820781 1.642436 -0.117050
2.818938 1.642409 -0.164168
2.856740 1.609636 -0.167247
2.858590 1.609593 -0.120086
2.753661 1.566868 -0.160758
2.750938 1.566427 -0.209564
2.788642 1.533669 -0.212775
2.791463 1.534095 -0.163838
2.818872 1.642423 -0.165127
2.816148 1.641982 -0.213933
2.853852 1.609224 -0.217144
2.856673 1.609650 -0.168207
2.750986 1.566424 -0.208978
2.747488 1.565691 -0.258793
2.785114 1.533040 -0.262258
2.788690 1.533666 -0.212190
2.816094 1.641983 -0.214618
2.812596 1.641250 -0.264432
2.850222 1.608599 -0.267897
2.853798 1.609225 -0.217829
2.747434 1.565710 -0.259191
2.743898 1.565546 -0.309322
2.781323 1.532919 -0.313096
2.785060 1.533059 -0.262656
2.812643 1.641230 -0.264135
2.809107 1.641066 -0.314265
2.846533 1.608439 -0.318039
2.850269 1.608579 -0.267599
2.744018 1.565665 -0.307020
2.738679 1.564074 -0.356568
2.775786 1.531387 -0.360593
2.781444 1.533038 -0.310794
2.808978 1.640946 -0.316667
2.803639 1.639355 -0.366215
2.840746 1.606667 -0.370240
2.846404 1.608318 -0.320441
2.738851 1.564219 -0.354667
2.731845 1.561555 -0.402869
2.768783 1.528974 -0.407019
2.775959 1.531532 -0.358692
2.803454 1.639206 -0.368214
2.796448 1.636542 -0.416416
2.833386 1.603961 -0.420566
2.840561 1.606518 -0.372239
2.731805 1.561549 -0.403103
2.724420 1.559709 -0.449821
2.761202 1.527282 -0.453866
2.768742 1.528968 -0.407252
2.796474 1.636544 -0.416278
2.789089 1.634704 -0.462996
2.825871 1.602278 -0.467041
2.833411 1.603963 -0.420427
2.724374 1.559758 -0.449771
2.716134 1.558947 -0.494747
2.752652 1.526623 -0.498455
2.761155 1.527331 -0.453816
2.789120 1.634653 -0.463137
2.780880 1.633842 -0.508113
2.817398 1.601518 -0.511822
2.825901 1.602226 -0.467183
2.716249 1.559108 -0.493426
2.705917 1.558839 -0.536358
2.742148 1.526733 -0.539639
2.752767 1.526784 -0.497134
2.780746 1.633680 -0.509521
2.770414 1.633411 -0.552453
2.806646 1.601305 -0.555735
2.817265 1.601356 -0.513230
2.706375 1.558985 -0.534166
2.693004 1.559020 -0.574658
2.729147 1.527436 -0.577749
2.742606 1.526879 -0.537448
2.769933 1.633266 -0.554728
2.756562 1.633301 -0.595219
2.792705 1.601716 -0.598310
2.806164 1.601159 -0.558009
2.693901 1.559404 -0.571153
2.676864 1.559531 -0.608665
2.712818 1.528140 -0.612040
2.730044 1.527819 -0.574244
2.755635 1.632918 -0.598802
2.738598 1.633046 -0.636314
2.774553 1.601655 -0.639688
2.791778 1.601334 -0.601893
2.676641 1.559332 -0.609736
2.657959 1.562733 -0.645305
2.694170 1.530742 -0.649762
2.712596 1.527941 -0.613110
2.738786 1.633249 -0.635318
2.720104 1.636649 -0.670888
2.756315 1.604658 -0.675344
2.774740 1.601857 -0.638692
2.657900 1.562735 -0.645446
2.636542 1.568886 -0.679962
2.674519 1.534848 -0.685935
2.694110 1.530744 -0.649902
2.720125 1.636656 -0.670818
2.698767 1.642807 -0.705334
2.736744 1.608769 -0.711307
2.756335 1.604665 -0.675275
2.669861 1.528470 0.708764
2.696131 1.524846 0.656449
2.733376 1.491895 0.660728
2.705615 1.494220 0.719901
2.732091 1.602086 0.734995
2.758361 1.598463 0.682680
2.795605 1.565512 0.686959
2.767845 1.567837 0.746132
2.696126 1.524790 0.656621
2.713989 1.522587 0.619816
2.750888 1.490257 0.623089
2.733371 1.491839 0.660899
2.758411 1.598514 0.682416
2.776274 1.596312 0.645611
2.813173 1.563981 0.648884
2.795655 1.565563 0.686695
2.714283 1.522825 0.618501
2.731012 1.523658 0.580006
2.767851 1.491546 0.582670
2.751182 1.490494 0.621774
2.776015 1.596073 0.646850
2.792745 1.596907 0.608355
2.829583 1.564795 0.611019
2.812914 1.563743 0.650123
2.730036 1.523140 0.584113
2.743071 1.523467 0.542241
2.779784 1.491139 0.544602
2.766875 1.491028 0.586777
2.793751 1.597426 0.604167
2.806786 1.597753 0.562295
2.843498 1.565424 0.564655
2.830589 1.565314 0.606831
2.742688 1.523350 0.544070
2.753272 1.523960 0.499269
2.790144 1.491576 0.501563
2.779401 1.491022 0.546431
2.807192 1.597870 0.560379
2.817776 1.598480 0.515577
2.854648 1.566096 0.517871
2.843905 1.565542 0.562739
2.753178 1.523825 0.500333
2.762126 1.524972 0.452876
2.799191 1.492516 0.455194
2.790050 1.491441 0.502627
2.817890 1.598617 0.514421
2.826838 1.599765 0.466964
2.863902 1.567309 0.469283
2.854761 1.566233 0.516715
2.762165 1.524933 0.452904
2.770368 1.527079 0.403206
2.807601 1.494519 0.405519
2.799230 1.492477 0.455222
2.826816 1.599807 0.466839
2.835019 1.601953 0.417140
2.872252 1.569393 0.419454
2.863881 1.567351 0.469157
2.770363 1.527066 0.403299
2.777936 1.529930 0.351752
2.815299 1.497246 0.354010
2.807596 1.494506 0.405612
2.835039 1.601971 0.416946
2.842612 1.604834 0.365399
2.879976 1.572151 0.367658
2.872273 1.569411 0.419260
2.777714 1.529730 0.354451
2.782834 1.530920 0.301351
2.820449 1.498281 0.303473
2.815077 1.497047 0.356710
2.842848 1.605038 0.362595
2.847968 1.606228 0.309495
2.885583 1.573589 0.311617
2.880211 1.572354 0.364854
2.782833 1.530827 0.302350
2.786814 1.531658 0.248855
2.824552 1.498956 0.250738
2.820448 1.498188 0.304473
2.847978 1.606323 0.308388
2.851959 1.607155 0.254893
2.889697 1.574452 0.256776
2.885593 1.573684 0.310510
2.786810 1.531656 0.248929
2.790275 1.532715 0.196185
2.828098 1.499945 0.197721
2.824548 1.498953 0.250813
2.851970 1.607159 0.254711
2.855436 1.608218 0.201967
2.893258 1.575448 0.203504
2.889709 1.574456 0.256595
2.790212 1.532707 0.197187
2.792537 1.533179 0.146283
2.830421 1.500366 0.147393
2.828034 1.499938 0.198723
2.855505 1.608227 0.200861
2.857830 1.608700 0.149957
2.895714 1.575886 0.151067
2.893328 1.575458 0.202398
2.792508 1.533187 0.146673
2.794164 1.533554 0.098510
2.832076 1.500698 0.099136
2.830393 1.500374 0.147783
2.857863 1.608693 0.149467
2.859519 1.609060 0.101304
2.897431 1.576203 0.101930
2.895747 1.575879 0.150577
2.794170 1.533552 0.098450
2.795452 1.534107 0.053216
2.833413 1.501277 0.053326
2.832082 1.500695 0.099076
2.859516 1.609063 0.101270
2.860798 1.609618 0.056035
2.898759 1.576788 0.056145
2.897428 1.576206 0.101896
2.795390 1.534151 0.053505
2.796215 1.534786 0.010514
2.834067 1.501818 0.010042
2.833351 1.501321 0.053615
2.860862 1.609575 0.055658
2.861687 1.610210 0.012667
2.899538 1.577243 0.012195
2.898823 1.576745 0.055768
2.796217 1.534777 0.012295
2.795603 1.534364 -0.029843
2.833554 1.501519 -0.030932
2.834068 1.501810 0.011823
2.861686 1.610219 0.010800
2.861073 1.609806 -0.031338
2.899023 1.576961 -0.032427
2.899537 1.577252 0.010328
2.795650 1.534324 -0.029799
2.794740 1.534191 -0.072876
2.832651 1.501310 -0.074373
2.833601 1.501480 -0.030888
2.861024 1.609845 -0.031468
2.860114 1.609712 -0.074545
2.898025 1.576831 -0.076042
2.898975 1.577001 -0.032556
2.794749 1.534190 -0.072585
2.793283 1.534035 -0.117598
2.831200 1.501200 -0.119313
2.832660 1.501310 -0.074081
2.860102 1.609713 -0.074925
2.858636 1.609558 -0.119939
2.896553 1.576722 -0.121653
2.898013 1.576832 -0.076422
2.793287 1.534034 -0.117547
2.791437 1.534077 -0.164709
2.829295 1.501236 -0.166548
2.831204 1.501199 -0.119261
2.858629 1.609559 -0.120083
2.856779 1.609602 -0.167244
2.894636 1.576761 -0.169084
2.896545 1.576724 -0.121797
2.791497 1.534064 -0.163860
2.788677 1.533638 -0.212798
2.826529 1.500907 -0.214761
2.829355 1.501223 -0.165700
2.856714 1.609615 -0.168189
2.853893 1.609189 -0.217127
2.891746 1.576459 -0.219090
2.894572 1.576774 -0.170029
2.788720 1.533641 -0.212178
2.785145 1.533014 -0.262246
2.822866 1.500291 -0.264354
2.826573 1.500910 -0.214141
2.853843 1.609185 -0.217846
2.850267 1.608559 -0.267914
2.887989 1.575835 -0.270022
2.891696 1.576455 -0.219809
2.785095 1.533031 -0.262614
2.781359 1.532891 -0.313054
2.818970 1.500261 -0.315356
2.822817 1.500307 -0.264722
2.850309 1.608542 -0.267647
2.846573 1.608402 -0.318086
2.884183 1.575772 -0.320388
2.888031 1.575818 -0.269754
2.781495 1.533021 -0.310585
2.775838 1.531369 -0.360385
2.813179 1.498683 -0.362887
2.819106 1.500390 -0.312888
2.846427 1.608271 -0.320655
2.840769 1.606619 -0.370455
2.878110 1.573933 -0.372957
2.884037 1.575640 -0.322957
2.775991 1.531496 -0.358738
2.768815 1.528939 -0.407064
2.806059 1.496425 -0.409789
2.813332 1.498809 -0.361240
2.840604 1.606489 -0.372200
2.833428 1.603931 -0.420527
2.870672 1.571418 -0.423251
2.877945 1.573802 -0.374702
2.768792 1.528933 -0.407202
2.761252 1.527248 -0.453816
2.798285 1.494750 -0.456684
2.806037 1.496420 -0.409926
2.833435 1.603933 -0.420484
2.825895 1.602247 -0.467098
2.862928 1.569750 -0.469966
2.870680 1.571419 -0.423209
2.761200 1.527312 -0.453709
2.752697 1.526603 -0.498348
2.789563 1.494152 -0.501304
2.798233 1.494814 -0.456577
2.825930 1.602181 -0.467296
2.817427 1.601472 -0.511935
2.854294 1.569021 -0.514891
2.862963 1.569683 -0.470165
2.752817 1.526766 -0.497017
2.742199 1.526715 -0.539522
2.778881 1.494243 -0.542562
2.789684 1.494314 -0.499973
2.817287 1.601309 -0.513353
2.806668 1.601258 -0.555858
2.843351 1.568787 -0.558898
2.854153 1.568858 -0.516309
2.742570 1.526805 -0.537829
2.729112 1.527363 -0.578130
2.765932 1.495168 -0.581480
2.779253 1.494334 -0.540868
2.806272 1.601168 -0.557635
2.792814 1.601725 -0.597936
2.829633 1.569530 -0.601286
2.842955 1.568697 -0.560674
2.730059 1.527780 -0.574314
2.712834 1.528101 -0.612109
2.749657 1.495715 -0.615997
2.766879 1.495585 -0.577663
2.791836 1.601309 -0.601831
2.774610 1.601630 -0.639626
2.811433 1.569244 -0.643514
2.828655 1.569114 -0.605181
2.712603 1.527926 -0.613133
2.694178 1.530727 -0.649785
2.731347 1.497806 -0.654608
2.749426 1.495540 -0.617021
2.774805 1.601807 -0.638677
2.756380 1.604609 -0.675329
2.793549 1.571687 -0.680152
2.811628 1.569422 -0.642565
2.694147 1.530742 -0.649818
2.674555 1.534846 -0.685851
2.712493 1.500758 -0.691811
2.731316 1.497821 -0.654642
2.756374 1.604600 -0.675369
2.736782 1.608704 -0.711402
2.774720 1.574616 -0.717361
2.793543 1.571678 -0.680192
2.705711 1.494116 0.719967
2.733472 1.491790 0.660794
2.771065 1.458463 0.665189
2.752626 1.460625 0.703283
2.767827 1.567875 0.746068
2.795588 1.565550 0.686895
2.833180 1.532222 0.691291
2.814741 1.534384 0.729385
2.733398 1.491816 0.660899
2.750916 1.490234 0.623089
2.788287 1.457473 0.626462
2.770991 1.458489 0.665295
2.795702 1.565520 0.686702
2.813220 1.563939 0.648892
2.850592 1.531177 0.652265
2.833295 1.532193 0.691098
2.751209 1.490448 0.621835
2.767877 1.491500 0.582731
2.805149 1.459042 0.585365
2.788580 1.457687 0.625208
2.812962 1.563725 0.650068
2.829631 1.564776 0.610964
2.866902 1.532319 0.613598
2.850333 1.530963 0.653441
2.766858 1.490950 0.587127
2.779767 1.491060 0.544952
2.816844 1.458493 0.547034
2.804129 1.458492 0.589761
2.830680 1.565327 0.606486
2.843589 1.565438 0.564310
2.880666 1.532870 0.566393
2.867952 1.532870 0.609120
2.779444 1.490993 0.546390
2.790187 1.491547 0.501522
2.827336 1.459007 0.503375
2.816521 1.458425 0.548473
2.843935 1.565506 0.562784
2.854678 1.566060 0.517916
2.891827 1.533520 0.519769
2.881012 1.532938 0.564867
2.790096 1.491415 0.502552
2.799237 1.492490 0.455120
2.836520 1.459945 0.456907
2.827245 1.458874 0.504405
2.854789 1.566195 0.516794
2.863930 1.567270 0.469361
2.901213 1.534725 0.471148
2.891938 1.533654 0.518646
2.799275 1.492444 0.455191
2.807647 1.494486 0.405488
2.845045 1.461880 0.407353
2.836558 1.459899 0.456978
2.863910 1.567319 0.469193
2.872281 1.569361 0.419490
2.909679 1.536756 0.421355
2.901193 1.534775 0.470980
2.807633 1.494470 0.405638
2.815336 1.497210 0.354036
2.852802 1.464476 0.356039
2.845031 1.461864 0.407503
2.872311 1.569382 0.419238
2.880014 1.572122 0.367637
2.917480 1.539388 0.369640
2.909709 1.536776 0.421103
2.815134 1.497016 0.356541
2.820506 1.498251 0.303305
2.858173 1.465561 0.305504
2.852600 1.464283 0.358545
2.880229 1.572319 0.365027
2.885601 1.573554 0.311790
2.923269 1.540864 0.313989
2.917696 1.539586 0.367030
2.820484 1.498158 0.304463
2.824588 1.498926 0.250728
2.862341 1.466163 0.253060
2.858151 1.465469 0.306662
2.885633 1.573649 0.310525
2.889737 1.574416 0.256790
2.927490 1.541653 0.259122
2.923301 1.540959 0.312724
2.824592 1.498916 0.250813
2.828141 1.499908 0.197722
2.865974 1.467100 0.200082
2.862345 1.466152 0.253145
2.889741 1.574428 0.256598
2.893290 1.575420 0.203507
2.931123 1.542612 0.205867
2.927494 1.541665 0.258930
2.828070 1.499906 0.198743
2.830456 1.500334 0.147412
2.868330 1.467461 0.149614
2.865902 1.467098 0.201103
2.893368 1.575423 0.202382
2.895755 1.575852 0.151051
2.933629 1.542978 0.153253
2.931201 1.542615 0.204741
2.830434 1.500337 0.147786
2.832118 1.500662 0.099139
2.870051 1.467784 0.100975
2.868308 1.467464 0.149988
2.895781 1.575849 0.150577
2.897465 1.576173 0.101930
2.935397 1.543296 0.103766
2.933655 1.542976 0.152779
2.832120 1.500662 0.099071
2.833451 1.501243 0.053320
2.871401 1.468338 0.054600
2.870053 1.467785 0.100907
2.897465 1.576174 0.101903
2.898796 1.576755 0.056153
2.936746 1.543850 0.057432
2.935398 1.543296 0.103739
2.833405 1.501270 0.053756
2.834120 1.501768 0.010184
2.872046 1.468824 0.010801
2.871354 1.468365 0.055035
2.898845 1.576729 0.055627
2.899561 1.577227 0.012055
2.937487 1.544283 0.012672
2.936795 1.543824 0.056907
2.834107 1.501773 0.011685
2.833593 1.501483 -0.031070
2.871561 1.468583 -0.031107
2.872033 1.468829 0.012302
2.899574 1.577222 0.010466
2.899060 1.576932 -0.032289
2.937028 1.544033 -0.032326
2.937500 1.544279 0.011083
2.833639 1.501446 -0.030891
2.832689 1.501277 -0.074376
2.870674 1.468418 -0.074925
2.871607 1.468547 -0.030928
2.899012 1.576969 -0.032555
2.898062 1.576799 -0.076040
2.936047 1.543941 -0.076589
2.936980 1.544069 -0.032592
2.832696 1.501279 -0.074079
2.831235 1.501170 -0.119310
2.869167 1.468281 -0.120185
2.870680 1.468421 -0.074627
2.898053 1.576796 -0.076427
2.896593 1.576687 -0.121658
2.934525 1.543798 -0.122533
2.936038 1.543938 -0.076975
2.831241 1.501166 -0.119274
2.829332 1.501204 -0.166561
2.867266 1.468388 -0.167621
2.869172 1.468278 -0.120149
2.896585 1.576690 -0.121787
2.894676 1.576728 -0.169074
2.932610 1.543912 -0.170134
2.934516 1.543802 -0.122662
2.829381 1.501198 -0.165738
2.826556 1.500882 -0.214800
2.864435 1.468094 -0.215946
2.867316 1.468381 -0.166798
2.894621 1.576734 -0.169993
2.891796 1.576418 -0.219054
2.929675 1.543630 -0.220200
2.932556 1.543917 -0.171053
2.826606 1.500883 -0.214136
2.822899 1.500263 -0.264348
2.860742 1.467581 -0.265542
2.864485 1.468095 -0.215282
2.891739 1.576417 -0.219817
2.888032 1.575798 -0.270030
2.925875 1.543115 -0.271223
2.929618 1.543629 -0.220964
2.822861 1.500273 -0.264673
2.819014 1.500226 -0.315308
2.856693 1.467536 -0.316545
2.860704 1.467590 -0.265867
2.888062 1.575787 -0.269806
2.884215 1.575741 -0.320440
2.921894 1.543051 -0.321678
2.925905 1.543105 -0.270999
2.819140 1.500376 -0.312783
2.813213 1.498668 -0.362782
2.850757 1.466059 -0.364124
2.856819 1.467685 -0.314020
2.884079 1.575590 -0.323066
2.878152 1.573882 -0.373065
2.915696 1.541273 -0.374407
2.921758 1.542900 -0.324303
2.813361 1.498772 -0.361305
2.806089 1.496387 -0.409854
2.843509 1.463888 -0.411398
2.850905 1.466163 -0.362647
2.877990 1.573774 -0.374641
2.870717 1.571390 -0.423189
2.908137 1.538890 -0.424734
2.915534 1.541165 -0.375982
2.806089 1.496385 -0.409865
2.798337 1.494716 -0.456623
2.835596 1.462281 -0.458448
2.843509 1.463885 -0.411409
2.870701 1.571388 -0.423274
2.862949 1.569719 -0.470032
2.900208 1.537284 -0.471857
2.908121 1.538889 -0.424818
2.798290 1.494785 -0.456468
2.789620 1.494122 -0.501194
2.826672 1.461608 -0.503359
2.835549 1.462350 -0.458292
2.862980 1.569648 -0.470279
2.854310 1.568985 -0.515006
2.891362 1.536471 -0.517170
2.900239 1.537213 -0.472104
2.789738 1.494279 -0.499919
2.778935 1.494209 -0.542507
2.815929 1.461668 -0.545115
2.826790 1.461765 -0.502083
2.854173 1.568827 -0.516369
2.843371 1.568757 -0.558957
2.880365 1.536216 -0.561565
2.891225 1.536313 -0.518533
2.779240 1.494249 -0.541238
2.765919 1.495082 -0.581849
2.803086 1.462589 -0.585083
2.816234 1.461708 -0.543846
2.843042 1.568717 -0.560311
2.829720 1.569551 -0.600922
2.866887 1.537058 -0.604156
2.880036 1.536176 -0.562919
2.766903 1.495544 -0.577721
2.749681 1.495674 -0.616054
2.786969 1.462909 -0.620042
2.804070 1.463051 -0.580954
2.828706 1.569090 -0.605130
2.811484 1.569221 -0.643464
2.848772 1.536456 -0.647452
2.865873 1.536597 -0.608364
2.749456 1.495505 -0.617051
2.731377 1.497771 -0.654638
2.768909 1.464457 -0.659562
2.786744 1.462740 -0.621039
2.811673 1.569391 -0.642544
2.793594 1.571657 -0.680131
2.831126 1.538343 -0.685055
2.848961 1.536626 -0.646532
2.731365 1.497809 -0.654557
2.712542 1.500746 -0.691726
2.750481 1.466666 -0.697686
2.768897 1.464495 -0.659482
2.793569 1.571623 -0.680288
2.774746 1.574561 -0.717456
2.812685 1.540481 -0.723416
2.831101 1.538310 -0.685212
2.752585 1.460665 0.703268
2.771024 1.458503 0.665174
2.808778 1.425067 0.669627
2.790524 1.426512 0.708820
2.814862 1.534277 0.729399
2.833301 1.532115 0.691305
2.871055 1.498679 0.695758
2.852801 1.500125 0.734950
2.771030 1.458448 0.665315
2.788326 1.457433 0.626483
2.825876 1.424472 0.629915
2.808783 1.425012 0.669768
2.833331 1.532167 0.691086
2.850628 1.531151 0.652253
2.888177 1.498190 0.655685
2.871085 1.498731 0.695538
2.788600 1.457653 0.625251
2.805170 1.459008 0.585408
2.842652 1.426392 0.587994
2.826150 1.424692 0.628683
2.850387 1.530932 0.653404
2.866957 1.532287 0.613561
2.904439 1.499671 0.616147
2.887937 1.497971 0.656837
2.804121 1.458411 0.590106
2.816835 1.458412 0.547380
2.854105 1.425744 0.549308
2.841603 1.425795 0.592692
2.868035 1.532885 0.608779
2.880749 1.532886 0.566052
2.918019 1.500218 0.567981
2.905517 1.500269 0.611365
2.816562 1.458391 0.548467
2.827377 1.458973 0.503369
2.864673 1.426347 0.504921
2.853832 1.425723 0.550395
2.881046 1.532907 0.564877
2.891860 1.533489 0.519779
2.929156 1.500863 0.521330
2.918316 1.500239 0.566805
2.827287 1.458853 0.504325
2.836562 1.459925 0.456827
2.873967 1.427338 0.458268
2.864583 1.426228 0.505876
2.891970 1.533610 0.518730
2.901246 1.534681 0.471232
2.938650 1.502095 0.472673
2.929267 1.500984 0.520282
2.836604 1.459868 0.456936
2.845090 1.461849 0.407310
2.882597 1.429227 0.408827
2.874008 1.427282 0.458377
2.901222 1.534741 0.471026
2.909709 1.536722 0.421400
2.947215 1.504100 0.422916
2.938627 1.502154 0.472467
2.845067 1.461826 0.407543
2.852838 1.464438 0.356080
2.890372 1.431685 0.357836
2.882573 1.429205 0.409059
2.909749 1.536749 0.421066
2.917520 1.539361 0.369603
2.955054 1.506608 0.371360
2.947255 1.504127 0.422583
2.852649 1.464258 0.358388
2.858223 1.465537 0.305347
2.895924 1.432809 0.307460
2.890183 1.431505 0.360145
2.917722 1.539545 0.367191
2.923295 1.540823 0.314150
2.960997 1.508096 0.316262
2.955256 1.506792 0.368947
2.858191 1.465436 0.306645
2.862380 1.466130 0.253043
2.900160 1.433350 0.255523
2.895893 1.432708 0.308758
2.923337 1.540926 0.312746
2.927526 1.541620 0.259144
2.965305 1.508841 0.261623
2.961038 1.508199 0.314858
2.862382 1.466120 0.253143
2.866011 1.467067 0.200079
2.903840 1.434214 0.202817
2.900161 1.433340 0.255622
2.927532 1.541631 0.258938
2.931161 1.542578 0.205874
2.968989 1.509725 0.208613
2.965311 1.508851 0.261417
2.865943 1.467062 0.201106
2.868371 1.467425 0.149618
2.906263 1.434549 0.152416
2.903771 1.434209 0.203844
2.931236 1.542585 0.204743
2.933663 1.542948 0.153255
2.971555 1.510072 0.156054
2.969064 1.509731 0.207481
2.868344 1.467433 0.149994
2.870087 1.467753 0.100981
2.908001 1.434822 0.103554
2.906236 1.434557 0.152793
2.933695 1.542941 0.152778
2.935437 1.543261 0.103764
2.973352 1.510330 0.106337
2.971587 1.510065 0.155576
2.870093 1.467750 0.100900
2.871441 1.468304 0.054593
2.909414 1.435397 0.056660
2.908008 1.434819 0.103472
2.935434 1.543265 0.103750
2.936782 1.543819 0.057443
2.974754 1.510912 0.059510
2.973348 1.510334 0.106323
2.871402 1.468322 0.055114
2.872094 1.468781 0.010879
2.910037 1.435811 0.012246
2.909375 1.435415 0.057181
2.936823 1.543802 0.056831
2.937515 1.544261 0.012596
2.975457 1.511291 0.013962
2.974796 1.510895 0.058898
2.872081 1.468786 0.012191
2.871608 1.468540 -0.031219
2.909626 1.435663 -0.030590
2.910023 1.435817 0.013557
2.937528 1.544256 0.011196
2.937056 1.544010 -0.032213
2.975074 1.511132 -0.031585
2.975471 1.511286 0.012563
2.871642 1.468516 -0.030937
2.870709 1.468388 -0.074934
2.908691 1.435482 -0.074929
2.909660 1.435639 -0.030309
2.937021 1.544034 -0.032583
2.936088 1.543905 -0.076580
2.974070 1.511000 -0.076575
2.975039 1.511156 -0.031954
2.870718 1.468388 -0.074627
2.869204 1.468248 -0.120185
2.907191 1.435391 -0.120616
2.908700 1.435483 -0.074622
2.936077 1.543905 -0.076976
2.934563 1.543765 -0.122534
2.972549 1.510907 -0.122965
2.974059 1.510999 -0.076971
2.869209 1.468245 -0.120164
2.867304 1.468355 -0.167635
2.905236 1.435490 -0.168303
2.907196 1.435387 -0.120595
2.934555 1.543769 -0.122649
2.932649 1.543879 -0.170121
2.970581 1.511013 -0.170788
2.972541 1.510911 -0.123080
2.867355 1.468346 -0.166847
2.864473 1.468058 -0.215995
2.902424 1.435313 -0.216747
2.905287 1.435480 -0.167515
2.932593 1.543888 -0.171006
2.929712 1.543600 -0.220153
2.967663 1.510855 -0.220906
2.970526 1.511022 -0.171673
2.864522 1.468063 -0.215284
2.860779 1.467549 -0.265544
2.898632 1.434814 -0.266274
2.902472 1.435317 -0.216036
2.929657 1.543595 -0.220963
2.925914 1.543081 -0.271223
2.963767 1.510346 -0.271954
2.967608 1.510849 -0.221716
2.860746 1.467557 -0.265818
2.856735 1.467503 -0.316497
2.894507 1.434853 -0.317185
2.898600 1.434822 -0.266549
2.925939 1.543073 -0.271050
2.921927 1.543019 -0.321728
2.959699 1.510369 -0.322417
2.963792 1.510337 -0.271780
2.856862 1.467655 -0.313974
2.850800 1.466028 -0.364077
2.888416 1.433405 -0.364768
2.894634 1.435005 -0.314662
2.921791 1.542865 -0.324352
2.915729 1.541238 -0.374456
2.953345 1.508615 -0.375147
2.959563 1.510215 -0.325041
2.850933 1.466125 -0.362725
2.843536 1.463850 -0.411476
2.881097 1.431414 -0.412321
2.888549 1.433502 -0.363416
2.915581 1.541137 -0.375907
2.908185 1.538863 -0.424658
2.945745 1.506426 -0.425502
2.953198 1.508514 -0.376598
2.843549 1.463864 -0.411339
2.835636 1.462259 -0.458377
2.872978 1.429799 -0.459513
2.881109 1.431427 -0.412183
2.908156 1.538846 -0.424892
2.900243 1.537241 -0.471930
2.937585 1.504781 -0.473066
2.945716 1.506409 -0.425736
2.835591 1.462332 -0.458191
2.826715 1.461591 -0.503257
2.863907 1.429116 -0.504861
2.872933 1.429872 -0.459327
2.900271 1.537166 -0.472209
2.891395 1.536424 -0.517275
2.928587 1.503949 -0.518879
2.937613 1.504706 -0.473345
2.826835 1.461726 -0.502086
2.815974 1.461628 -0.545118
2.853102 1.429048 -0.547344
2.864027 1.429250 -0.503690
2.891254 1.536288 -0.518535
2.880394 1.536190 -0.561567
2.917521 1.503611 -0.563792
2.928447 1.503813 -0.520138
2.816232 1.461618 -0.544208
2.803084 1.462500 -0.585445
2.840461 1.429967 -0.588499
2.853360 1.429039 -0.546433
2.880112 1.536201 -0.562562
2.866964 1.537082 -0.603799
2.904341 1.504549 -0.606853
2.917239 1.503621 -0.564787
2.804098 1.463013 -0.580991
2.786997 1.462872 -0.620079
2.824454 1.429915 -0.624006
2.841475 1.430480 -0.584044
2.865919 1.536569 -0.608335
2.848818 1.536428 -0.647423
2.886275 1.503471 -0.651349
2.903296 1.504036 -0.611388
2.786768 1.462707 -0.621077
2.768933 1.464424 -0.659600
2.806640 1.431010 -0.664537
2.824225 1.429750 -0.625003
2.849012 1.536593 -0.646504
2.831177 1.538310 -0.685027
2.868885 1.504896 -0.689964
2.886469 1.503636 -0.650430
2.768964 1.464466 -0.659404
2.750548 1.466637 -0.697608
2.788479 1.432539 -0.703565
2.806671 1.431052 -0.664341
2.831110 1.538271 -0.685300
2.812694 1.540442 -0.723504
2.850626 1.506344 -0.729461
2.868818 1.504857 -0.690237
2.790572 1.426510 0.708714
2.808825 1.425064 0.669521
2.846584 1.391535 0.674002
2.828521 1.392363 0.714260
2.852829 1.500060 0.735066
2.871083 1.498614 0.695873
2.908842 1.465085 0.700354
2.890778 1.465913 0.740612
2.808812 1.424989 0.669763
2.825905 1.424449 0.629909
2.863557 1.391431 0.633375
2.846571 1.391460 0.674243
2.871131 1.498687 0.695552
2.888224 1.498147 0.655698
2.925875 1.465129 0.659163
2.908890 1.465158 0.700032
2.826185 1.424641 0.628739
2.842687 1.426341 0.588049
2.880250 1.393645 0.590651
2.863836 1.391624 0.632204
2.887977 1.497956 0.656787
2.904480 1.499656 0.616097
2.942042 1.466959 0.618699
2.925629 1.464938 0.660252
2.841593 1.425725 0.593011
2.854095 1.425674 0.549627
2.891463 1.392952 0.551495
2.879156 1.393029 0.595613
2.905602 1.500273 0.611050
2.918104 1.500222 0.567666
2.955472 1.467500 0.569534
2.943165 1.467577 0.613652
2.853871 1.425684 0.550420
2.864711 1.426309 0.504945
2.902081 1.393640 0.506390
2.891239 1.392962 0.552288
2.918352 1.500212 0.566784
2.929193 1.500836 0.521309
2.966562 1.468168 0.522754
2.955720 1.467490 0.568651
2.864626 1.426206 0.505797
2.874010 1.427316 0.458188
2.911481 1.394693 0.459460
2.901996 1.393537 0.507242
2.929298 1.500941 0.520364
2.938682 1.502052 0.472755
2.976152 1.469428 0.474027
2.966667 1.468273 0.521809
2.874050 1.427256 0.458323
2.882638 1.429201 0.408772
2.920203 1.396564 0.410125
2.911521 1.394632 0.459594
2.938660 1.502115 0.472524
2.947248 1.504060 0.422973
2.984813 1.471424 0.424326
2.976131 1.469492 0.473795
2.882605 1.429168 0.409111
2.890404 1.431648 0.357888
2.927989 1.398874 0.359493
2.920170 1.396531 0.410464
2.947298 1.504099 0.422534
2.955097 1.506579 0.371311
2.992682 1.473805 0.372916
2.984863 1.471462 0.423887
2.890242 1.431473 0.359991
2.895983 1.432776 0.307306
2.933729 1.400042 0.309330
2.927827 1.398698 0.361596
2.955273 1.506759 0.369105
2.961013 1.508062 0.316420
2.998760 1.475328 0.318444
2.992858 1.473984 0.370710
2.895931 1.432676 0.308747
2.900198 1.433318 0.255512
2.937993 1.400497 0.257986
2.933677 1.399941 0.310771
2.961076 1.508165 0.314873
2.965342 1.508807 0.261638
3.003138 1.475987 0.264113
2.998822 1.475431 0.316898
2.900201 1.433307 0.255612
2.903879 1.434180 0.202807
2.941737 1.401324 0.205656
2.937996 1.400486 0.258087
2.965347 1.508819 0.261432
2.969025 1.509693 0.208627
3.006882 1.476836 0.211476
3.003142 1.475999 0.263907
2.903809 1.434176 0.203842
2.906300 1.434517 0.152415
2.944192 1.401600 0.155423
2.941666 1.401320 0.206691
2.969102 1.509698 0.207489
2.971594 1.510038 0.156061
3.009486 1.477121 0.159070
3.006959 1.476841 0.210338
2.906277 1.434521 0.152799
2.908043 1.434786 0.103560
2.945987 1.401864 0.106435
2.944169 1.401603 0.155808
2.971621 1.510035 0.155576
2.973387 1.510301 0.106337
3.011331 1.477379 0.109212
3.009513 1.477118 0.158585
2.908048 1.434785 0.103465
2.909454 1.435363 0.056653
2.947420 1.402408 0.059075
2.945993 1.401863 0.106341
2.973384 1.510303 0.106335
2.974790 1.510881 0.059522
3.012756 1.477926 0.061945
3.011329 1.477381 0.109210
2.909417 1.435378 0.057223
2.910079 1.435774 0.012288
2.948066 1.402825 0.014022
2.947383 1.402423 0.059645
2.974829 1.510867 0.058859
2.975491 1.511263 0.013924
3.013477 1.478315 0.015659
3.012795 1.477912 0.061282
2.910064 1.435780 0.013461
2.909667 1.435627 -0.030686
2.947683 1.402704 -0.029723
2.948050 1.402832 0.015195
2.975507 1.511256 0.012661
2.975109 1.511103 -0.031486
3.013126 1.478180 -0.030523
3.013493 1.478308 0.014395
2.909700 1.435604 -0.030318
2.908731 1.435447 -0.074939
2.946761 1.402568 -0.074667
2.947716 1.402681 -0.029355
2.975075 1.511125 -0.031944
2.974106 1.510969 -0.076564
3.012136 1.478089 -0.076292
3.013091 1.478203 -0.030981
2.908735 1.435452 -0.074624
2.907226 1.435360 -0.120617
2.945201 1.402450 -0.120849
2.946765 1.402573 -0.074352
2.974100 1.510964 -0.076971
2.972590 1.510872 -0.122964
3.010566 1.477961 -0.123196
3.012129 1.478084 -0.076699
2.907232 1.435355 -0.120611
2.905272 1.435457 -0.168319
2.943254 1.402620 -0.168837
2.945208 1.402444 -0.120843
2.972580 1.510877 -0.123064
2.970621 1.510980 -0.170772
3.008602 1.478143 -0.171290
3.010556 1.477967 -0.123296
2.905319 1.435449 -0.167570
2.902456 1.435282 -0.216802
2.940397 1.402477 -0.217411
2.943300 1.402612 -0.168088
2.970569 1.510988 -0.171619
2.967706 1.510820 -0.220852
3.005647 1.478016 -0.221460
3.008550 1.478151 -0.172137
2.902509 1.435285 -0.216038
2.898669 1.434781 -0.266276
2.936586 1.402079 -0.266849
2.940450 1.402481 -0.216647
2.967646 1.510816 -0.221715
2.963806 1.510313 -0.271953
3.001722 1.477610 -0.272527
3.005587 1.478012 -0.222324
2.898641 1.434790 -0.266503
2.894548 1.434821 -0.317140
2.932323 1.402110 -0.317622
2.936557 1.402087 -0.267076
2.963827 1.510304 -0.271827
2.959734 1.510335 -0.322464
2.997509 1.477625 -0.322946
3.001743 1.477602 -0.272400
2.894670 1.434977 -0.314643
2.888452 1.433377 -0.364749
2.926149 1.400792 -0.365195
2.932444 1.402266 -0.315125
2.959602 1.510178 -0.325061
2.953384 1.508578 -0.375167
2.991082 1.475993 -0.375614
2.997377 1.477468 -0.325544
2.888579 1.433463 -0.363491
2.881127 1.431375 -0.412395
2.918717 1.398897 -0.412941
2.926277 1.400878 -0.363937
2.953243 1.508488 -0.376524
2.945790 1.506400 -0.425429
2.983381 1.473922 -0.425975
2.990941 1.475903 -0.376971
2.881155 1.431401 -0.412116
2.873023 1.429773 -0.459446
2.910463 1.397356 -0.460278
2.918745 1.398922 -0.412662
2.945746 1.506371 -0.425805
2.937615 1.504743 -0.473135
2.975055 1.472326 -0.473967
2.983337 1.473892 -0.426351
2.872982 1.429849 -0.459227
2.863956 1.429092 -0.504761
2.901185 1.396571 -0.506073
2.910421 1.397432 -0.460059
2.937639 1.504664 -0.473447
2.928613 1.503907 -0.518981
2.965842 1.471385 -0.520294
2.975079 1.472247 -0.474279
2.864062 1.429209 -0.503744
2.853136 1.429007 -0.547398
2.890375 1.396470 -0.549419
2.901291 1.396687 -0.505057
2.928487 1.503790 -0.520087
2.917561 1.503588 -0.563741
2.954801 1.471050 -0.565762
2.965716 1.471268 -0.521400
2.853358 1.428956 -0.546781
2.840460 1.429884 -0.588846
2.877905 1.397295 -0.591765
2.890598 1.396419 -0.548801
2.917315 1.503639 -0.564445
2.904417 1.504567 -0.606511
2.941861 1.471978 -0.609429
2.954554 1.471102 -0.566466
2.841515 1.430433 -0.584080
2.824494 1.429868 -0.624041
2.862074 1.396909 -0.627922
2.878960 1.397844 -0.586999
2.903331 1.504017 -0.611359
2.886310 1.503452 -0.651321
2.923890 1.470493 -0.655202
2.940776 1.471429 -0.614278
2.824262 1.429709 -0.625032
2.806678 1.430968 -0.664565
2.844424 1.397466 -0.669474
2.861843 1.396749 -0.628913
2.886506 1.503611 -0.650411
2.868922 1.504871 -0.689944
2.906668 1.471369 -0.694853
2.924087 1.470652 -0.654292
2.806723 1.431029 -0.664281
2.788531 1.432516 -0.703504
2.826484 1.398452 -0.709470
2.844469 1.397527 -0.669190
2.868841 1.504812 -0.690308
2.850649 1.506299 -0.729532
2.888602 1.472235 -0.735497
2.906587 1.471310 -0.695217
2.828608 1.392324 0.714164
2.846671 1.391496 0.673906
2.884510 1.357994 0.678406
2.866541 1.358169 0.719716
2.890767 1.465885 0.740718
2.908831 1.465056 0.700460
2.946669 1.431555 0.704960
2.928700 1.431729 0.746270
2.846629 1.391408 0.674254
2.863614 1.391379 0.633385
2.901295 1.358299 0.636880
2.884467 1.357906 0.678755
2.908908 1.465143 0.700029
2.925893 1.465115 0.659161
2.963574 1.432035 0.662655
2.946746 1.431642 0.704530
2.863869 1.391579 0.632249
2.880282 1.393600 0.590696
