3.729067 0.487065 -0.201353
3.698947 0.486787 -0.201548
3.616881 0.534390 -0.149024
3.645819 0.534733 -0.148836
3.647995 0.555677 -0.167438
3.613495 0.556093 -0.169284
3.618530 0.485981 -0.202198
3.647469 0.486324 -0.202010
3.649645 0.507268 -0.220612
3.615145 0.507684 -0.222458
3.646194 0.534434 -0.148557
3.667569 0.534981 -0.148668
3.648370 0.555378 -0.167160
3.647140 0.486617 -0.202281
3.668515 0.487165 -0.202392
3.649316 0.507561 -0.220884
3.667860 0.535317 -0.148967
3.698078 0.535615 -0.148743
3.683207 0.554538 -0.166388
3.648660 0.555713 -0.167458
3.668265 0.486836 -0.202099
3.698483 0.487134 -0.201875
3.683612 0.506057 -0.219521
3.649065 0.507232 -0.220591
3.698179 0.536067 -0.149163
3.728298 0.536346 -0.148968
3.717855 0.553770 -0.165781
3.683308 0.554991 -0.166808
3.698446 0.486680 -0.201454
3.728566 0.486958 -0.201260
3.718123 0.504382 -0.218073
3.683575 0.505603 -0.219100
3.600439 0.385165 -0.038418
3.601151 0.407229 -0.061876
3.592610 0.409557 -0.073288
3.587723 0.394329 -0.065560
3.647936 0.346496 -0.076131
3.648648 0.368560 -0.099590
3.640107 0.370888 -0.111002
3.635220 0.355659 -0.103273
3.599891 0.401511 -0.058768
3.600374 0.428897 -0.075413
3.585918 0.422446 -0.087614
3.591351 0.403839 -0.070180
3.649908 0.374320 -0.102731
3.650390 0.401707 -0.119376
3.635935 0.395255 -0.131576
3.641367 0.376648 -0.114142
3.600183 0.428364 -0.075308
3.600594 0.454625 -0.089861
3.581510 0.441743 -0.104488
3.585728 0.421913 -0.087509
3.650576 0.402286 -0.119514
3.650986 0.428546 -0.134066
3.631903 0.415664 -0.148693
3.636121 0.395834 -0.131714
3.601953 0.458964 -0.091389
3.600716 0.482489 -0.116045
3.578736 0.465281 -0.123587
3.582869 0.446083 -0.106017
3.649623 0.424251 -0.132574
3.648386 0.447776 -0.157230
3.626406 0.430568 -0.164771
3.630539 0.411369 -0.147201
3.592479 0.406038 -0.070396
3.587047 0.424645 -0.087830
3.576271 0.405316 -0.087644
3.587593 0.390809 -0.062668
3.640219 0.374430 -0.113934
3.634787 0.393037 -0.131368
3.624011 0.373708 -0.131182
3.635332 0.359201 -0.106206
3.585698 0.422579 -0.087950
3.581480 0.442409 -0.104929
3.564460 0.420795 -0.111529
3.574923 0.403250 -0.087764
3.636119 0.395138 -0.131290
3.631901 0.414968 -0.148269
3.614881 0.393354 -0.154869
3.625344 0.375809 -0.131104
3.581555 0.442483 -0.104890
3.577422 0.461682 -0.122460
3.555359 0.440553 -0.133961
3.564534 0.420869 -0.111490
3.631813 0.414932 -0.148348
3.627680 0.434131 -0.165918
3.605618 0.413002 -0.177419
3.614793 0.393318 -0.154948
3.606949 0.384670 -0.001090
3.634331 0.399763 0.000575
3.633626 0.401831 -0.025023
3.610359 0.389150 -0.029434
3.641956 0.322108 -0.006930
3.669338 0.337200 -0.005266
3.668633 0.339269 -0.030863
3.645366 0.326588 -0.035275
3.610577 0.387386 -0.021258
3.633844 0.400067 -0.016846
3.630344 0.406774 -0.041981
3.606921 0.395330 -0.046116
3.645146 0.328363 -0.043503
3.668413 0.341044 -0.039092
3.664914 0.347751 -0.064227
3.641491 0.336307 -0.068361
3.609502 0.390536 -0.035653
3.632924 0.401980 -0.031519
3.631118 0.418514 -0.052931
3.610213 0.412600 -0.059112
3.638906 0.341128 -0.078871
3.662329 0.352572 -0.074737
3.660522 0.369106 -0.096149
3.639618 0.363192 -0.102330
3.613402 0.406983 -0.052503
3.634307 0.412897 -0.046322
3.635300 0.431547 -0.060160
3.613885 0.434370 -0.069148
3.636429 0.368851 -0.108977
3.657334 0.374765 -0.102796
3.658327 0.393415 -0.116634
3.636912 0.396238 -0.125622
3.636387 0.429293 -0.058364
3.639478 0.452510 -0.070242
3.615381 0.458376 -0.081905
3.614971 0.432116 -0.067352
3.657243 0.395717 -0.118458
3.660334 0.418933 -0.130335
3.636238 0.424799 -0.141998
3.635828 0.398539 -0.127446
3.770736 0.502120 -0.127590
3.777133 0.499452 -0.133567
3.770759 0.520817 -0.161791
3.760294 0.519562 -0.144388
3.727983 0.451378 -0.155360
3.734380 0.448711 -0.161336
3.728007 0.470076 -0.189560
3.717542 0.468820 -0.172158
3.759376 0.520157 -0.144106
3.769841 0.521412 -0.161509
3.748931 0.537582 -0.160920
3.718441 0.468256 -0.172467
3.728906 0.469512 -0.189870
3.707996 0.485682 -0.189280
3.748582 0.537547 -0.160367
3.769491 0.521377 -0.160957
3.763085 0.542705 -0.189211
3.738139 0.554971 -0.177180
3.708337 0.485742 -0.189867
3.729247 0.469572 -0.190456
3.722841 0.490900 -0.218710
3.697895 0.503166 -0.206680
3.783333 0.480544 -0.106159
3.788489 0.473906 -0.112221
3.783070 0.495336 -0.137669
3.776673 0.498003 -0.131693
3.728721 0.437997 -0.125675
3.733877 0.431358 -0.131737
3.728458 0.452788 -0.157185
3.722061 0.455456 -0.151209
3.615374 0.577113 -0.208518
3.598916 0.577944 -0.223964
3.592979 0.572600 -0.201831
3.610875 0.565832 -0.184464
3.622216 0.509264 -0.231395
3.605758 0.510095 -0.246841
3.599821 0.504751 -0.224708
3.617717 0.497983 -0.207341
3.597444 0.578939 -0.228315
3.580529 0.579700 -0.243717
3.573644 0.575626 -0.228365
3.591508 0.573595 -0.206182
3.607194 0.509106 -0.242525
3.590279 0.509867 -0.257928
3.583394 0.505793 -0.242575
3.601258 0.503762 -0.220393
3.613878 0.578101 -0.212855
3.618410 0.584633 -0.241730
3.600607 0.583903 -0.250436
3.597420 0.578932 -0.228300
3.623720 0.508290 -0.227107
3.628252 0.514822 -0.255983
3.610450 0.514091 -0.264688
3.607262 0.509121 -0.242552
3.597408 0.578930 -0.228297
3.600595 0.583900 -0.250433
3.581885 0.583037 -0.259058
3.580492 0.579691 -0.243700
3.607240 0.509123 -0.242580
3.610427 0.514094 -0.264715
3.591718 0.513230 -0.273340
3.590324 0.509884 -0.257982
3.580531 0.579694 -0.243686
3.581924 0.583040 -0.259044
3.568935 0.581198 -0.258891
3.590259 0.509882 -0.258013
3.591653 0.513228 -0.273371
3.578663 0.511386 -0.273218
3.580540 0.579702 -0.243719
3.568944 0.581206 -0.258924
3.555787 0.577658 -0.250549
3.573655 0.575628 -0.228367
3.590235 0.509868 -0.257963
3.578640 0.511373 -0.273168
3.565483 0.507825 -0.264793
3.583350 0.505794 -0.242611
3.618409 0.584635 -0.241740
3.622933 0.591182 -0.270613
3.600622 0.589267 -0.276637
3.600606 0.583904 -0.250446
3.628260 0.514832 -0.256026
3.632784 0.521379 -0.284898
3.610473 0.519463 -0.290923
3.610457 0.514101 -0.264731
3.600612 0.583906 -0.250449
3.600628 0.589268 -0.276641
3.577191 0.587194 -0.282565
3.581902 0.583043 -0.259074
3.610410 0.514097 -0.264743
3.610427 0.519459 -0.290934
3.586990 0.517385 -0.296858
3.591701 0.513234 -0.273368
3.581902 0.583045 -0.259085
3.577191 0.587196 -0.282576
3.557293 0.584180 -0.281458
3.568913 0.581204 -0.258932
3.591663 0.513228 -0.273363
3.586952 0.517379 -0.296854
3.567054 0.514363 -0.295737
3.578674 0.511386 -0.273211
3.568899 0.581203 -0.258938
3.557279 0.584179 -0.281464
3.537876 0.579687 -0.272745
3.555742 0.577655 -0.250563
3.578655 0.511380 -0.273195
3.567036 0.514357 -0.295722
3.547633 0.509865 -0.287002
3.565499 0.507832 -0.264820
3.622945 0.591190 -0.270643
3.627474 0.597728 -0.299516
3.600179 0.594326 -0.301643
3.600635 0.589274 -0.276667
3.632776 0.521383 -0.284923
3.637304 0.527921 -0.313796
3.610010 0.524519 -0.315923
3.610465 0.519467 -0.290947
3.600626 0.589273 -0.276666
3.600171 0.594324 -0.301642
3.572021 0.590792 -0.303695
3.577190 0.587199 -0.282590
3.610423 0.519463 -0.290957
3.609968 0.524515 -0.315933
3.581818 0.520982 -0.317987
3.586986 0.517389 -0.296881
3.577175 0.587198 -0.282595
3.572007 0.590791 -0.303701
3.545614 0.586686 -0.301695
3.557277 0.584182 -0.281478
3.586952 0.517384 -0.296878
3.581784 0.520977 -0.317984
3.555392 0.516871 -0.315978
3.567054 0.514368 -0.295761
3.557271 0.584181 -0.281478
3.545609 0.586685 -0.301695
3.520000 0.581733 -0.294942
3.537868 0.579689 -0.272758
3.567014 0.514360 -0.295752
3.555352 0.516864 -0.315969
3.529744 0.511912 -0.309216
3.547611 0.509868 -0.287032
3.627482 0.597735 -0.299542
3.632007 0.604279 -0.328414
3.599553 0.599137 -0.325601
3.600187 0.594332 -0.301670
3.637300 0.527926 -0.313823
3.641825 0.534470 -0.342695
3.609371 0.529328 -0.339882
3.610005 0.524523 -0.315951
3.600167 0.594330 -0.301670
3.599532 0.599135 -0.325601
3.567072 0.594004 -0.322786
3.572017 0.590797 -0.303723
3.609966 0.524518 -0.315950
3.609331 0.529323 -0.339881
3.576871 0.524192 -0.337066
3.581817 0.520986 -0.318004
3.572001 0.590795 -0.303721
3.567055 0.594001 -0.322783
3.534596 0.588882 -0.319966
3.545609 0.586689 -0.301715
3.581773 0.520979 -0.318003
3.576827 0.524186 -0.337066
3.544368 0.519067 -0.334248
3.555381 0.516874 -0.315997
3.545586 0.586688 -0.301724
3.534574 0.588881 -0.319975
3.502112 0.583762 -0.317155
3.519978 0.581736 -0.294971
3.555345 0.516865 -0.315981
3.544332 0.519059 -0.334232
3.511870 0.513940 -0.331413
3.529737 0.511913 -0.309229
3.582235 0.548143 -0.194748
3.592392 0.570452 -0.216633
3.594037 0.574490 -0.237169
3.586734 0.559424 -0.218802
3.646383 0.515686 -0.197060
3.656539 0.537996 -0.218945
3.658184 0.542033 -0.239481
3.650881 0.526968 -0.221114
3.585537 0.556676 -0.222151
3.592840 0.571742 -0.240518
3.594468 0.571823 -0.265072
3.590069 0.563209 -0.251027
3.652084 0.529726 -0.217814
3.659387 0.544792 -0.236181
3.661015 0.544873 -0.260735
3.656616 0.536258 -0.246690
3.590070 0.563210 -0.251037
3.594470 0.571824 -0.265082
3.594594 0.569757 -0.279910
3.656620 0.536262 -0.246721
3.661019 0.544876 -0.260766
3.661143 0.542809 -0.275594
3.592175 0.570059 -0.217669
3.602376 0.591588 -0.240351
3.601873 0.590254 -0.261403
3.593820 0.574097 -0.238206
3.656774 0.538427 -0.217952
3.666975 0.559956 -0.240633
3.666472 0.558621 -0.261685
3.658419 0.542464 -0.238488
3.592848 0.571759 -0.240529
3.600901 0.587916 -0.263726
3.600381 0.582621 -0.288797
3.594476 0.571840 -0.265083
3.659393 0.544800 -0.236210
3.667446 0.560958 -0.259407
3.666926 0.555663 -0.284478
3.661021 0.544881 -0.260763
3.594473 0.571830 -0.265109
3.600379 0.582611 -0.288824
3.599127 0.576300 -0.308810
3.594598 0.569762 -0.279937
3.661023 0.544885 -0.260779
3.666928 0.555667 -0.284494
3.665677 0.549355 -0.304480
3.661148 0.542818 -0.275607
3.602103 0.591011 -0.240965
3.612306 0.612546 -0.263641
3.609659 0.605883 -0.285062
3.601600 0.589676 -0.262017
3.667266 0.560571 -0.240065
3.677469 0.582107 -0.262741
3.674823 0.575444 -0.284162
3.666763 0.559237 -0.261116
3.600908 0.587930 -0.263751
3.608967 0.604137 -0.286796
3.606314 0.593500 -0.312239
3.600388 0.582635 -0.288822
3.667452 0.560971 -0.259429
3.675512 0.577178 -0.282474
3.672859 0.566542 -0.307916
3.666933 0.555677 -0.284500
3.600384 0.582620 -0.288850
3.606310 0.593485 -0.312266
3.603657 0.582853 -0.337708
3.599132 0.576309 -0.308836
3.666933 0.555675 -0.284520
3.672859 0.566540 -0.307937
3.670206 0.555908 -0.333378
3.665682 0.549364 -0.304506
3.731626 0.556618 -0.173236
3.735565 0.568999 -0.194320
3.727908 0.584064 -0.210877
3.719924 0.574804 -0.191467
3.704368 0.501580 -0.210673
3.708307 0.513961 -0.231757
3.700650 0.529026 -0.248315
3.692666 0.519767 -0.228904
3.719900 0.574932 -0.191638
3.727884 0.584191 -0.211049
3.720625 0.599037 -0.228045
3.708198 0.593106 -0.209880
3.692671 0.519672 -0.228768
3.700655 0.528932 -0.248178
3.693396 0.543777 -0.265174
3.680969 0.537847 -0.247009
3.708560 0.593178 -0.210260
3.720987 0.599108 -0.228425
3.714243 0.613758 -0.245926
3.696857 0.611350 -0.228503
3.680588 0.537808 -0.246665
3.693015 0.543738 -0.264830
3.686271 0.558388 -0.282332
3.668885 0.555980 -0.264908
3.697340 0.611339 -0.228867
3.714726 0.613746 -0.246290
3.708211 0.628332 -0.264000
3.685636 0.629506 -0.247113
3.668383 0.556024 -0.264580
3.685770 0.558432 -0.282004
3.679254 0.573017 -0.299714
3.656679 0.574191 -0.282827
3.739091 0.553110 -0.175460
3.764037 0.540843 -0.187491
3.755027 0.559300 -0.204850
3.743029 0.565491 -0.196544
3.696932 0.505062 -0.208441
3.721878 0.492796 -0.220472
3.712869 0.511253 -0.237831
3.700871 0.517444 -0.229525
3.743559 0.566773 -0.199390
3.755557 0.560582 -0.207696
3.750191 0.576128 -0.227199
3.735902 0.581838 -0.215948
3.700332 0.516192 -0.226716
3.712330 0.510002 -0.235023
3.706964 0.525548 -0.254525
3.692675 0.531257 -0.243274
3.735086 0.582304 -0.215559
3.749375 0.576595 -0.226810
3.744660 0.591760 -0.247014
3.727827 0.597150 -0.232555
3.693479 0.530821 -0.243700
3.707768 0.525111 -0.254951
3.703053 0.540277 -0.275155
3.686220 0.545666 -0.260696
3.727268 0.597432 -0.232264
3.744101 0.592043 -0.246722
3.740227 0.606863 -0.267568
3.720524 0.612082 -0.249765
3.686767 0.545413 -0.261025
3.703600 0.540024 -0.275484
3.699726 0.554844 -0.296330
3.680023 0.560062 -0.278527
3.720103 0.612276 -0.249532
3.739805 0.607058 -0.267335
3.736152 0.621702 -0.288154
3.713587 0.626862 -0.267242
3.680434 0.559898 -0.278799
3.700137 0.554679 -0.296602
3.696484 0.569323 -0.317421
3.673919 0.574483 -0.296509
3.765407 0.541092 -0.189827
3.764598 0.555796 -0.213746
3.756398 0.559549 -0.207187
3.720529 0.492542 -0.218156
3.719720 0.507246 -0.242074
3.711520 0.510999 -0.235515
3.755769 0.560123 -0.207200
3.763969 0.556370 -0.213760
3.763139 0.571048 -0.237698
3.750403 0.575669 -0.226703
3.712142 0.510451 -0.235537
3.720342 0.506698 -0.242096
3.719512 0.521375 -0.266034
3.706776 0.525997 -0.255039
3.749636 0.576156 -0.226407
3.762373 0.571534 -0.237402
3.761562 0.586227 -0.261332
3.744921 0.591321 -0.246612
3.707536 0.525541 -0.255379
3.720273 0.520919 -0.266374
3.719462 0.535612 -0.290304
3.702821 0.540706 -0.275583
3.744340 0.591655 -0.246367
3.760981 0.586561 -0.261088
3.760175 0.601253 -0.285014
3.740466 0.606475 -0.267213
3.703398 0.540402 -0.275872
3.720038 0.535308 -0.290592
3.719232 0.550000 -0.314518
3.699523 0.555222 -0.296718
3.740037 0.606708 -0.267032
3.759746 0.601486 -0.284833
3.758945 0.616187 -0.308755
3.736384 0.621352 -0.287851
3.699947 0.555019 -0.296943
3.719656 0.549797 -0.314744
3.718856 0.564498 -0.338667
3.696295 0.569663 -0.317763
3.613586 0.557497 -0.170630
3.648085 0.557082 -0.168784
3.649691 0.573896 -0.186187
3.623742 0.579807 -0.192515
3.615060 0.506321 -0.221151
3.649560 0.505905 -0.219306
3.651165 0.522719 -0.236709
3.625216 0.528630 -0.243036
3.624147 0.580272 -0.192986
3.650096 0.574360 -0.186658
3.652630 0.591163 -0.204025
3.634348 0.601801 -0.215667
3.624824 0.528204 -0.242605
3.650773 0.522293 -0.236278
3.653307 0.539095 -0.253645
3.635025 0.549733 -0.265287
3.633680 0.601894 -0.215783
3.651961 0.591255 -0.204141
3.655255 0.608093 -0.221447
3.643882 0.623429 -0.238459
3.635706 0.549679 -0.265212
3.653988 0.539041 -0.253569
3.657282 0.555878 -0.270875
3.645909 0.571215 -0.287888
3.648862 0.557265 -0.168960
3.683409 0.556089 -0.167890
3.678076 0.573662 -0.185819
3.650468 0.574079 -0.186363
3.648844 0.505718 -0.219125
3.683391 0.504542 -0.218055
3.678058 0.522115 -0.235984
3.650450 0.522532 -0.236528
3.650197 0.574064 -0.186349
3.677804 0.573647 -0.185806
3.673656 0.591262 -0.203733
3.652730 0.590867 -0.203717
3.650719 0.522581 -0.236577
3.678327 0.522164 -0.236033
3.674178 0.539778 -0.253960
3.653253 0.539383 -0.253944
3.652252 0.590818 -0.203677
3.673178 0.591213 -0.203693
3.670226 0.608864 -0.221557
3.655546 0.607655 -0.220982
3.653730 0.539466 -0.254019
3.674656 0.539861 -0.254036
3.671704 0.557512 -0.271900
3.657024 0.556303 -0.271325
3.654167 0.607498 -0.220901
3.668847 0.608707 -0.221476
3.669016 0.627348 -0.239690
3.642794 0.622835 -0.237914
3.658397 0.556495 -0.271442
3.673078 0.557704 -0.272016
3.673247 0.576345 -0.290231
3.647024 0.571831 -0.288454
3.683470 0.555896 -0.167693
3.718018 0.554675 -0.166666
3.706316 0.572862 -0.184897
3.678137 0.573469 -0.185622
3.683392 0.504734 -0.218250
3.717939 0.503513 -0.217223
3.706237 0.521699 -0.235454
3.678059 0.522306 -0.236180
3.677841 0.573415 -0.185569
3.706020 0.572808 -0.184844
3.694318 0.590982 -0.203086
3.673693 0.591029 -0.203496
3.678338 0.522396 -0.236269
3.706517 0.521789 -0.235544
3.694815 0.539963 -0.253786
3.674190 0.540010 -0.254196
3.673254 0.590925 -0.203400
3.693878 0.590878 -0.202990
3.682175 0.609050 -0.221233
3.670302 0.608576 -0.221264
3.674614 0.540150 -0.254329
3.695239 0.540103 -0.253918
3.683535 0.558275 -0.272161
3.671663 0.557801 -0.272192
3.669905 0.608332 -0.221037
3.681778 0.608806 -0.221005
3.670074 0.626973 -0.239251
3.672048 0.558076 -0.272450
3.683921 0.558550 -0.272419
3.672217 0.576717 -0.290665
3.635915 0.630888 -0.272535
3.648567 0.627235 -0.297858
3.633269 0.624225 -0.293956
3.653878 0.563784 -0.253880
3.666530 0.560131 -0.279203
3.651232 0.557121 -0.275301
3.631906 0.623002 -0.296513
3.647205 0.626012 -0.300416
3.652262 0.617457 -0.329378
3.629253 0.612366 -0.321956
3.652599 0.558330 -0.272786
3.667897 0.561341 -0.276688
3.672954 0.552785 -0.305650
3.649946 0.547694 -0.298228
3.628197 0.612054 -0.321832
3.651205 0.617146 -0.329253
3.656202 0.608705 -0.358259
3.625544 0.601422 -0.347273
3.651005 0.547986 -0.298407
3.674013 0.553078 -0.305829
3.679010 0.544637 -0.334834
3.648352 0.537354 -0.323848
3.637338 0.631678 -0.270751
3.663560 0.636192 -0.272527
3.672614 0.632883 -0.300678
3.649990 0.628025 -0.296074
3.652485 0.563001 -0.255662
3.678708 0.567515 -0.257438
3.687762 0.564206 -0.285589
3.665138 0.559348 -0.280985
3.649808 0.626505 -0.301033
3.672432 0.631363 -0.305638
3.676516 0.621457 -0.330935
3.654865 0.617950 -0.329995
3.665335 0.560856 -0.276080
3.687959 0.565714 -0.280684
3.692044 0.555807 -0.305982
3.670392 0.552301 -0.305041
3.670268 0.637359 -0.270654
3.692843 0.636185 -0.287542
3.692409 0.632625 -0.303796
3.679322 0.634051 -0.298805
3.672042 0.566351 -0.259326
3.694617 0.565177 -0.276213
3.694183 0.561617 -0.292468
3.681096 0.563043 -0.287477
3.676111 0.632121 -0.305369
3.689198 0.630695 -0.310360
3.701845 0.625730 -0.331607
3.680196 0.622214 -0.330666
3.684320 0.564961 -0.280959
3.697407 0.563535 -0.285950
3.710053 0.558570 -0.307197
3.688404 0.555055 -0.306256
3.694198 0.632237 -0.305845
3.694632 0.635798 -0.289590
3.717197 0.630638 -0.310502
3.706844 0.627272 -0.327092
3.692430 0.561998 -0.290452
3.692864 0.565558 -0.274197
3.715429 0.560398 -0.295109
3.705077 0.557032 -0.311699
3.706886 0.627262 -0.327132
3.717238 0.630628 -0.310543
3.739799 0.625463 -0.331447
3.719524 0.622262 -0.348344
3.705070 0.557032 -0.311700
3.715423 0.560398 -0.295111
3.737984 0.555233 -0.316014
3.717709 0.552033 -0.332912
3.548532 0.393705 -0.161633
3.551849 0.358677 -0.179127
3.560695 0.339422 -0.157202
3.557379 0.374499 -0.139689
3.617362 0.407876 -0.176970
3.620679 0.372848 -0.194464
3.629525 0.353593 -0.172539
3.626209 0.388670 -0.155026
3.546085 0.419551 -0.148051
3.548549 0.393619 -0.161635
3.557396 0.374413 -0.139691
3.555260 0.399868 -0.125580
3.614875 0.433956 -0.163352
3.617339 0.408024 -0.176936
3.626186 0.388818 -0.154992
3.624050 0.414272 -0.140881
3.557880 0.373821 -0.138246
3.561196 0.338744 -0.155759
3.571293 0.321686 -0.132611
3.567978 0.356725 -0.115123
3.625727 0.389312 -0.156423
3.629043 0.354235 -0.173937
3.639140 0.337177 -0.150789
3.635825 0.372216 -0.133301
3.555759 0.399228 -0.124120
3.557895 0.373773 -0.138231
3.567992 0.356676 -0.115109
3.566221 0.381683 -0.100355
3.623571 0.414875 -0.142295
3.625707 0.389421 -0.156406
3.635804 0.372324 -0.133284
3.634033 0.397330 -0.118530
3.568312 0.356392 -0.114215
3.571628 0.321353 -0.131703
3.581770 0.310950 -0.105612
3.579121 0.341519 -0.090155
3.635511 0.372518 -0.134161
3.638827 0.337479 -0.151649
3.648969 0.327076 -0.125559
3.646320 0.357645 -0.110102
3.566640 0.381307 -0.099204
3.568411 0.356301 -0.113958
3.579220 0.341428 -0.089898
3.577961 0.366800 -0.074228
3.633636 0.397674 -0.119634
3.635407 0.372667 -0.134387
3.646216 0.357794 -0.110327
3.644957 0.383167 -0.094657
3.577194 0.345119 -0.096797
3.579843 0.314551 -0.112254
3.582863 0.307645 -0.086337
3.580727 0.338234 -0.070849
3.648261 0.354025 -0.103409
3.650910 0.323457 -0.118866
3.653930 0.316551 -0.092950
3.651795 0.347140 -0.077461
3.576969 0.373023 -0.074447
3.578228 0.347650 -0.090117
3.581762 0.340765 -0.064169
3.589685 0.363860 -0.047305
3.645968 0.376922 -0.094387
3.647227 0.351549 -0.110057
3.650761 0.344663 -0.084109
3.658684 0.367758 -0.067245
3.580357 0.343278 -0.072187
3.582492 0.312690 -0.087675
3.580529 0.306635 -0.057696
3.585174 0.332589 -0.044208
3.652170 0.342080 -0.076068
3.654306 0.311492 -0.091557
3.652342 0.305436 -0.061577
3.656987 0.331391 -0.048089
3.589493 0.371480 -0.049682
3.581571 0.348385 -0.066546
3.586387 0.337695 -0.038567
3.593149 0.363535 -0.024824
3.658888 0.360121 -0.064815
3.650965 0.337026 -0.081679
3.655782 0.326337 -0.053700
3.662544 0.352177 -0.039957
3.586010 0.339847 -0.047404
3.581365 0.313893 -0.060893
3.580922 0.324094 -0.005198
3.585751 0.342633 -0.005269
3.656152 0.324131 -0.044815
3.651507 0.298176 -0.058303
3.651064 0.308377 -0.002609
3.655893 0.326916 -0.002680
3.592974 0.366491 -0.033967
3.586212 0.340651 -0.047710
3.585953 0.343437 -0.005576
3.589564 0.362011 -0.005623
3.662721 0.349211 -0.030752
3.655960 0.323371 -0.044495
3.655701 0.326157 -0.002360
3.659311 0.344731 -0.002407
3.656832 0.618885 -0.328476
3.678484 0.622391 -0.329417
3.687297 0.615686 -0.354526
3.661829 0.610444 -0.357482
3.668437 0.551349 -0.306614
3.690088 0.554856 -0.307554
3.698901 0.548151 -0.332664
3.673433 0.542909 -0.335619
3.678542 0.622319 -0.329668
3.700191 0.625834 -0.330609
3.712830 0.620835 -0.351820
3.687355 0.615614 -0.354777
3.690077 0.554937 -0.307301
3.711726 0.558452 -0.308242
3.724364 0.553453 -0.329453
3.698890 0.548232 -0.332410
3.534559 0.588886 -0.320008
3.533974 0.593295 -0.342041
3.501514 0.588178 -0.339223
3.502097 0.583767 -0.317188
3.544331 0.519061 -0.334242
3.543746 0.523469 -0.356275
3.511287 0.518353 -0.353457
3.511870 0.513942 -0.331422
3.567047 0.594008 -0.322825
3.566465 0.598422 -0.344856
3.534003 0.593299 -0.342042
3.534588 0.588890 -0.320008
3.576827 0.524185 -0.337065
3.576245 0.528599 -0.359095
3.543782 0.523476 -0.356281
3.544368 0.519067 -0.334247
3.599528 0.599141 -0.325636
3.598942 0.603559 -0.347670
3.566486 0.598424 -0.344852
3.567068 0.594010 -0.322822
3.609332 0.529324 -0.339889
3.608746 0.533742 -0.361923
3.576290 0.528607 -0.359105
3.576872 0.524193 -0.337074
3.632010 0.604288 -0.328458
3.631431 0.608695 -0.350488
3.598970 0.603565 -0.347678
3.599555 0.599147 -0.325645
3.641823 0.534470 -0.342699
3.641244 0.538877 -0.364730
3.608783 0.533747 -0.361920
3.609369 0.529329 -0.339886
3.661888 0.611456 -0.339459
3.661311 0.615867 -0.361494
3.630651 0.608579 -0.350504
3.631230 0.604172 -0.328474
3.673324 0.541882 -0.353682
3.672747 0.546293 -0.375717
3.642087 0.539005 -0.364727
3.642666 0.534598 -0.342697
3.659756 0.611046 -0.339507
3.685224 0.616289 -0.336552
3.684656 0.620677 -0.358587
3.659179 0.615458 -0.361542
3.675512 0.542303 -0.353643
3.700980 0.547546 -0.350687
3.700412 0.551934 -0.372723
3.674935 0.546715 -0.375677
3.685256 0.616298 -0.336559
3.710731 0.621518 -0.333602
3.710161 0.625918 -0.355640
3.684689 0.620686 -0.358595
3.700999 0.547547 -0.350674
3.726473 0.552768 -0.347717
3.725903 0.557167 -0.369754
3.700431 0.551936 -0.372709
3.727817 0.623845 -0.316787
3.727252 0.628234 -0.338821
3.706971 0.625044 -0.355722
3.707541 0.620644 -0.333684
3.749984 0.556851 -0.330717
3.749420 0.561240 -0.352752
3.729138 0.558050 -0.369653
3.729708 0.553650 -0.347615
3.533971 0.593300 -0.342070
3.533391 0.597708 -0.364100
3.500930 0.592588 -0.361291
3.501511 0.588183 -0.339251
3.543748 0.523473 -0.356291
3.543169 0.527882 -0.378322
3.510707 0.522761 -0.375513
3.511289 0.518357 -0.353473
3.566463 0.598427 -0.344885
3.565877 0.602834 -0.366921
3.533421 0.597713 -0.364101
3.534000 0.593304 -0.342070
3.576246 0.528602 -0.359111
3.575661 0.533009 -0.381147
3.543205 0.527888 -0.378327
3.543784 0.523479 -0.356296
3.598945 0.603570 -0.347720
3.598367 0.607959 -0.369755
3.565903 0.602841 -0.366939
3.566489 0.598435 -0.344903
3.608742 0.533740 -0.361916
3.608163 0.538130 -0.383951
3.575700 0.533012 -0.381135
3.576285 0.528605 -0.359099
3.631430 0.608705 -0.350542
3.630852 0.613102 -0.372579
3.598390 0.607965 -0.369766
3.598968 0.603575 -0.347732
3.641244 0.538875 -0.364720
3.640667 0.543271 -0.386758
3.608205 0.538135 -0.383945
3.608783 0.533745 -0.361910
3.661303 0.615876 -0.361546
3.660733 0.620262 -0.383580
3.630065 0.612985 -0.372593
3.630643 0.608588 -0.350556
3.672754 0.546293 -0.375710
3.672184 0.550679 -0.397744
3.641516 0.543401 -0.386757
3.642094 0.539005 -0.364720
3.659192 0.615469 -0.361580
3.684669 0.620688 -0.358626
3.684098 0.625081 -0.380665
3.658621 0.619854 -0.383614
3.674921 0.546713 -0.375683
3.700399 0.551932 -0.372729
3.699828 0.556326 -0.394768
3.674351 0.551099 -0.397717
3.684697 0.620696 -0.358635
3.710169 0.625928 -0.355680
3.709607 0.630300 -0.377717
3.684126 0.625089 -0.380674
3.700422 0.551934 -0.372714
3.725894 0.557166 -0.369759
3.725333 0.561539 -0.391796
3.699851 0.556328 -0.394753
3.727258 0.628245 -0.338862
3.726691 0.632638 -0.360901
3.706415 0.629426 -0.377800
3.706977 0.625054 -0.355763
3.749413 0.561239 -0.352755
3.748847 0.565632 -0.374794
3.728571 0.562421 -0.391693
3.729132 0.558048 -0.369656
3.532774 0.495166 0.231732
3.523205 0.465238 0.239494
3.510635 0.478450 0.259814
3.519428 0.510819 0.255812
3.591428 0.485526 0.272235
3.581858 0.455597 0.279996
3.569289 0.468809 0.300316
3.578082 0.501179 0.296314
3.521516 0.510673 0.253052
3.512723 0.478304 0.257054
3.500177 0.491508 0.274400
3.508180 0.526338 0.272144
3.575968 0.501353 0.299114
3.567175 0.468984 0.303116
3.554629 0.482187 0.320462
3.562632 0.517017 0.318206
3.509136 0.526932 0.271183
3.501133 0.492102 0.273439
3.490567 0.505328 0.286775
3.495804 0.542580 0.290283
3.561652 0.516452 0.319202
3.553649 0.481622 0.321458
3.543083 0.494847 0.334794
3.548320 0.532100 0.338302
3.523375 0.463135 0.238864
3.509358 0.439651 0.256380
3.500108 0.448137 0.269353
3.510806 0.476347 0.259184
3.581666 0.457643 0.280646
3.567649 0.434159 0.298161
3.558399 0.442645 0.311135
3.569097 0.470855 0.300965
3.514668 0.476882 0.254712
3.503970 0.448672 0.264881
3.494140 0.457457 0.272651
3.502122 0.490086 0.272058
3.565213 0.470342 0.305467
3.554515 0.442132 0.315636
3.544685 0.450917 0.323407
3.552667 0.483546 0.322813
3.507038 0.493697 0.268598
3.499056 0.461068 0.269192
3.489417 0.468868 0.275112
3.496472 0.506922 0.281934
3.547730 0.479956 0.326295
3.539748 0.447327 0.326889
3.530109 0.455128 0.332810
3.537164 0.493181 0.339631
3.558273 0.461688 0.185021
3.547990 0.434869 0.197991
3.535996 0.448976 0.219460
3.544916 0.477352 0.209090
3.619388 0.456301 0.222566
3.609104 0.429482 0.235535
3.597111 0.443589 0.257004
3.606031 0.471965 0.246634
3.545719 0.477897 0.207923
3.536799 0.449522 0.218293
3.522803 0.463627 0.239761
3.532373 0.493555 0.232000
3.605202 0.471449 0.247846
3.596282 0.443074 0.258216
3.582286 0.457179 0.279684
3.591856 0.487108 0.271923
3.548612 0.436887 0.197397
3.536167 0.409654 0.209453
3.523383 0.425696 0.233619
3.536618 0.450995 0.218866
3.608460 0.427410 0.236154
3.596015 0.400176 0.248210
3.583231 0.416218 0.272375
3.596466 0.441517 0.257623
3.537090 0.449189 0.217816
3.523855 0.423889 0.232568
3.509078 0.439809 0.256799
3.523095 0.463293 0.239283
3.595967 0.443354 0.258719
3.582732 0.418055 0.273472
3.567955 0.433975 0.297703
3.581972 0.457458 0.280187
3.682731 0.624110 0.314549
3.641554 0.620250 0.316284
3.642179 0.617070 0.357656
3.678117 0.622012 0.356144
3.690702 0.552746 0.310392
3.649525 0.548886 0.312128
3.650150 0.545706 0.353499
3.686088 0.550648 0.351987
3.641514 0.620126 0.317785
3.600346 0.616246 0.319543
3.606212 0.611858 0.360642
3.642139 0.616946 0.359156
3.649488 0.549001 0.310631
3.608320 0.545120 0.312389
3.614185 0.540732 0.353488
3.650113 0.545820 0.352002
3.600219 0.616067 0.320907
3.575759 0.613777 0.321936
3.570147 0.606653 0.363513
3.606084 0.611680 0.362006
3.608379 0.545290 0.311028
3.583919 0.542999 0.312057
3.578307 0.535876 0.353634
3.614244 0.540902 0.352127
3.676295 0.621787 0.355653
3.640357 0.616844 0.357165
3.628931 0.612579 0.389046
3.661973 0.619045 0.387701
3.687895 0.550868 0.352552
3.651957 0.545925 0.354064
3.640532 0.541660 0.385945
3.673574 0.548126 0.384600
3.640309 0.616673 0.359347
3.604381 0.611585 0.360833
3.595870 0.605842 0.392564
3.628883 0.612408 0.391228
3.651937 0.546085 0.351885
3.616009 0.540997 0.353371
3.607498 0.535253 0.385102
3.640511 0.541820 0.383766
3.604597 0.611326 0.362983
3.568660 0.606300 0.364489
3.563046 0.599179 0.396064
3.596086 0.605583 0.394714
3.615724 0.541244 0.351224
3.579787 0.536217 0.352730
3.574173 0.529096 0.384305
3.607213 0.535500 0.382955
3.727178 0.617278 0.284702
3.731048 0.593122 0.260096
3.686948 0.587326 0.262249
3.682802 0.613115 0.286591
3.735098 0.567891 0.336392
3.738968 0.543735 0.311786
3.694869 0.537939 0.313938
3.690722 0.563728 0.338280
3.683465 0.612842 0.286241
3.687612 0.587053 0.261900
3.647819 0.582210 0.262107
3.642289 0.608982 0.287977
3.689974 0.563991 0.338632
3.694120 0.538202 0.314291
3.654328 0.533358 0.314498
3.648797 0.560130 0.340368
3.642031 0.609013 0.288040
3.647562 0.582241 0.262169
3.607611 0.577391 0.263013
3.600864 0.605132 0.289798
3.648973 0.560090 0.340308
3.654504 0.533318 0.314438
3.614553 0.528468 0.315281
3.607806 0.556209 0.342066
3.600849 0.605064 0.289735
3.607596 0.577322 0.262950
3.582881 0.574493 0.263636
3.576389 0.602773 0.290765
3.607755 0.556271 0.342131
3.614502 0.528530 0.315346
3.589787 0.525701 0.316031
3.583295 0.553981 0.343160
3.730378 0.593156 0.260240
3.733023 0.568575 0.235848
3.690423 0.562796 0.238183
3.686278 0.587360 0.262393
3.739646 0.543651 0.311592
3.742291 0.519071 0.287200
3.699691 0.513291 0.289535
3.695546 0.537855 0.313745
3.687507 0.587256 0.262104
3.691652 0.562692 0.237894
3.653260 0.556143 0.237000
3.647714 0.582413 0.262311
3.694235 0.537947 0.314036
3.698381 0.513383 0.289826
3.659988 0.506834 0.288932
3.654443 0.533104 0.314244
3.647497 0.582175 0.262116
3.653043 0.555905 0.236804
3.614410 0.549646 0.236229
3.607546 0.577324 0.262959
3.654581 0.533331 0.314439
3.660127 0.507061 0.289127
3.621495 0.500802 0.288553
3.614630 0.528480 0.315282
3.607533 0.577303 0.262941
3.614398 0.549625 0.236211
3.589417 0.545772 0.235984
3.582818 0.574474 0.263626
3.614579 0.528493 0.315301
3.621443 0.500814 0.288571
3.596462 0.496961 0.288344
3.589863 0.525664 0.315986
3.732432 0.570599 0.238091
3.733501 0.545752 0.208840
3.694186 0.537738 0.209006
3.689832 0.564819 0.240427
3.742888 0.516997 0.284901
3.743957 0.492151 0.255649
3.704642 0.484136 0.255816
3.700288 0.511217 0.287237
3.690409 0.564280 0.239706
3.694762 0.537199 0.208285
3.657694 0.529559 0.208155
3.652017 0.557731 0.238811
3.699633 0.511742 0.287959
3.703986 0.484661 0.256538
3.666918 0.477021 0.256408
3.661241 0.505193 0.287064
3.653150 0.557789 0.238686
3.658827 0.529617 0.208030
3.621472 0.523583 0.206037
3.614518 0.551530 0.238111
3.660032 0.505122 0.287188
3.665709 0.476950 0.256532
3.628354 0.470916 0.254539
3.621400 0.498863 0.286613
3.613941 0.551658 0.238340
3.620895 0.523711 0.206266
3.595581 0.519000 0.205405
3.588959 0.547805 0.238113
3.621914 0.498724 0.286383
3.628868 0.470777 0.254309
3.603554 0.466066 0.253447
3.596933 0.494871 0.286156
3.733818 0.545241 0.208198
3.733951 0.518929 0.180247
3.698626 0.511263 0.178168
3.694503 0.537226 0.208365
3.743644 0.492610 0.256231
3.743777 0.466299 0.228280
3.708452 0.458633 0.226201
3.704329 0.484596 0.256398
3.694331 0.537815 0.209063
3.698453 0.511852 0.178866
3.667495 0.505074 0.177088
3.657262 0.530174 0.208933
3.704430 0.483993 0.255698
3.708553 0.458030 0.225501
3.677595 0.451252 0.223723
3.667362 0.476352 0.255568
3.658457 0.530320 0.208875
3.668690 0.505220 0.177030
3.635556 0.497954 0.175143
3.621103 0.524286 0.206882
3.666097 0.476192 0.255624
3.676330 0.451093 0.223779
3.643196 0.443827 0.221892
3.628743 0.470158 0.253631
3.620670 0.523690 0.206282
3.635123 0.497358 0.174543
3.601973 0.490187 0.172576
3.595355 0.518979 0.205420
3.629111 0.470742 0.254228
3.643564 0.444410 0.222489
3.610414 0.437239 0.220522
3.603796 0.466031 0.253367
3.559629 0.608085 0.318893
3.540394 0.594417 0.318009
3.535787 0.589605 0.354568
3.554018 0.600961 0.360470
3.599999 0.548675 0.315098
3.580764 0.535007 0.314214
3.576157 0.530195 0.350772
3.594387 0.541552 0.356675
3.540483 0.594526 0.316908
3.521246 0.580872 0.316012
3.517652 0.578336 0.347573
3.535875 0.589714 0.353467
3.580638 0.534872 0.315308
3.561401 0.521218 0.314411
3.557808 0.518682 0.345972
3.576031 0.530060 0.351866
3.522596 0.581711 0.313711
3.503359 0.568051 0.312820
3.500491 0.569478 0.339266
3.519003 0.579175 0.345272
3.560013 0.520354 0.316705
3.540776 0.506694 0.315814
3.537908 0.508121 0.342260
3.556420 0.517818 0.348266
3.555308 0.601715 0.361522
3.537077 0.590358 0.355620
3.532447 0.585561 0.382201
3.549694 0.594594 0.393097
3.593087 0.540786 0.355690
3.574857 0.529429 0.349788
3.570227 0.524632 0.376369
3.587473 0.533665 0.387265
3.537465 0.590698 0.354188
3.519242 0.579319 0.348294
3.515616 0.576833 0.369856
3.532835 0.585900 0.380769
3.574433 0.529069 0.351203
3.556210 0.517691 0.345309
3.552584 0.515204 0.366871
3.569803 0.524272 0.377784
3.523252 0.581416 0.345988
3.504740 0.571719 0.339982
3.502086 0.572380 0.356532
3.519626 0.578930 0.367550
3.552165 0.515575 0.347598
3.533653 0.505878 0.341592
3.530999 0.506538 0.358142
3.548539 0.513089 0.369160
3.589910 0.363425 -0.004441
3.586299 0.344851 -0.004394
3.584267 0.346091 0.039681
3.591314 0.364145 0.040361
3.658963 0.343316 -0.003509
3.655353 0.324742 -0.003462
3.653320 0.325982 0.040613
3.660367 0.344036 0.041293
3.591310 0.364144 0.040912
3.584263 0.346091 0.040231
3.586648 0.347955 0.084077
3.590723 0.368101 0.085429
3.660372 0.344040 0.040831
3.653324 0.325987 0.040151
3.655709 0.327852 0.083996
3.659784 0.347997 0.085349
3.586128 0.344051 -0.005892
3.581299 0.325513 -0.005821
3.579155 0.327126 0.037388
3.584096 0.345291 0.038183
3.655513 0.325505 -0.001965
3.650684 0.306967 -0.001894
3.648540 0.308580 0.041315
3.653481 0.326745 0.042110
3.583692 0.343493 0.042596
3.578751 0.325327 0.041802
3.582679 0.325046 0.085111
3.586077 0.345357 0.086442
3.653885 0.328546 0.037784
3.648944 0.310381 0.036989
3.652872 0.310099 0.080298
3.656270 0.330411 0.081629
3.788850 0.412302 0.193917
3.789294 0.453975 0.179613
3.785832 0.472624 0.197235
3.783006 0.433950 0.220163
3.718056 0.409441 0.181527
3.718499 0.451114 0.167222
3.715037 0.469763 0.184844
3.712211 0.431088 0.207773
3.783463 0.432526 0.216755
3.786289 0.471201 0.193826
3.783816 0.489366 0.212433
3.782457 0.454267 0.243451
3.711748 0.432552 0.211226
3.714573 0.471226 0.188297
3.712101 0.489391 0.206904
3.710742 0.454293 0.237922
3.774693 0.474685 0.154130
3.764937 0.478777 0.148257
3.763143 0.496621 0.166838
3.771231 0.493333 0.171752
3.733093 0.430448 0.192682
3.723337 0.434541 0.186809
3.721543 0.452385 0.205390
3.729631 0.449097 0.210303
3.770588 0.493992 0.171837
3.762501 0.497280 0.166923
3.759050 0.515353 0.185035
3.768116 0.512158 0.190443
3.730267 0.448475 0.210255
3.722180 0.451762 0.205341
3.718728 0.469835 0.223453
3.727795 0.466640 0.228861
3.606558 0.384581 -0.004358
3.607962 0.385301 0.040444
3.641193 0.405025 0.042099
3.633940 0.399674 -0.002694
3.642351 0.322196 -0.003590
3.643755 0.322916 0.041213
3.676986 0.342640 0.042868
3.669733 0.337289 -0.001925
3.607277 0.384714 0.037468
3.606689 0.388671 0.081986
3.638048 0.408628 0.084461
3.640508 0.404438 0.039123
3.644443 0.323510 0.044278
3.643855 0.327467 0.088796
3.675214 0.347423 0.091270
3.677674 0.343234 0.045933
3.640525 0.404339 0.038252
3.638065 0.408528 0.083589
3.669330 0.428622 0.086048
3.673679 0.424125 0.039895
3.677721 0.343373 0.046809
3.675261 0.347563 0.092146
3.706527 0.367657 0.094605
3.710875 0.363159 0.048452
3.673749 0.424046 0.039108
3.669401 0.428544 0.085261
3.700683 0.448607 0.087717
3.706787 0.443959 0.040760
3.710870 0.363277 0.049244
3.706521 0.367775 0.095397
3.737803 0.387837 0.097853
3.743908 0.383189 0.050897
3.752895 0.589887 0.262948
3.741822 0.592904 0.260477
3.737952 0.617060 0.285083
3.748343 0.615248 0.283691
3.739323 0.540939 0.313874
3.728250 0.543955 0.311403
3.724380 0.568111 0.336009
3.734771 0.566300 0.334618
3.584043 0.399214 0.137356
3.578106 0.382368 0.144429
3.563532 0.407731 0.170335
3.571589 0.431537 0.158812
3.644682 0.395975 0.175905
3.638745 0.379130 0.182979
3.624171 0.404493 0.208885
3.632228 0.428298 0.197361
3.571216 0.432036 0.159460
3.563159 0.408230 0.170983
3.547882 0.434244 0.198087
3.558165 0.461064 0.185118
3.632573 0.427856 0.196763
3.624516 0.404050 0.208287
3.609239 0.430064 0.235390
3.619522 0.456884 0.222421
3.578642 0.384851 0.143969
3.570711 0.367990 0.151041
3.553536 0.386077 0.182087
3.564068 0.410214 0.169875
3.638193 0.376607 0.183457
3.630263 0.359746 0.190529
3.613088 0.377832 0.221575
3.623619 0.401969 0.209363
3.564553 0.409467 0.169027
3.554021 0.385330 0.181239
3.536831 0.408248 0.208187
3.549276 0.435482 0.196131
3.623102 0.402762 0.210267
3.612570 0.378625 0.222478
3.595380 0.401542 0.249426
3.607825 0.428776 0.237370
3.686457 0.624072 0.317265
3.681843 0.621974 0.358861
3.709318 0.619532 0.352406
3.730833 0.628235 0.315377
3.687050 0.552790 0.307670
3.682436 0.550692 0.349265
3.709911 0.548250 0.342810
3.731426 0.556953 0.305781
3.690445 0.620059 0.363393
3.676123 0.617318 0.395440
3.696293 0.612049 0.387229
3.717919 0.617617 0.356938
3.673804 0.552597 0.344803
3.659482 0.549855 0.376851
3.679652 0.544586 0.368640
3.701278 0.550155 0.338349
3.589649 0.363091 0.084845
3.585574 0.342945 0.083493
3.587321 0.350003 0.114043
3.588641 0.367983 0.112627
3.660859 0.353017 0.086007
3.656784 0.332871 0.084654
3.658531 0.339929 0.115205
3.659851 0.357909 0.113789
3.589268 0.366340 0.105579
3.587948 0.348361 0.106995
3.583164 0.365240 0.132980
3.586403 0.382058 0.128947
3.659221 0.359573 0.120890
3.657901 0.341593 0.122307
3.653117 0.358473 0.148291
3.656356 0.375291 0.144258
3.589198 0.382298 0.120969
3.585958 0.365480 0.125003
3.576261 0.384331 0.148025
3.582198 0.401176 0.140952
3.653550 0.375087 0.152282
3.650310 0.358269 0.156315
3.640612 0.377120 0.179338
3.646549 0.393965 0.172264
3.585983 0.345267 0.083419
3.582585 0.324955 0.082088
3.583089 0.334282 0.115180
3.587730 0.352325 0.113970
3.656369 0.330511 0.084728
3.652971 0.310199 0.083396
3.653475 0.319526 0.116489
3.658116 0.337569 0.115278
3.589622 0.352729 0.103509
3.584981 0.334687 0.104719
3.579637 0.352833 0.133414
3.584837 0.369609 0.129494
3.656220 0.337190 0.125799
3.651579 0.319148 0.127009
3.646235 0.337294 0.155703
3.651436 0.354070 0.151783
3.587693 0.367785 0.122444
3.582493 0.351009 0.126364
3.570065 0.369775 0.152538
3.577996 0.386636 0.145467
3.648564 0.355930 0.158884
3.643364 0.339155 0.162804
3.630936 0.357920 0.188978
3.638866 0.374781 0.181907
3.700467 0.447621 0.084045
3.669185 0.427559 0.081589
3.660314 0.428590 0.106164
3.686285 0.446097 0.107124
3.738002 0.388827 0.101595
3.706720 0.368764 0.099139
3.697849 0.369796 0.123714
3.723819 0.387303 0.124674
3.669000 0.427793 0.082869
3.637735 0.407699 0.080409
3.633214 0.410938 0.106545
3.660130 0.428825 0.107444
3.706847 0.368492 0.097856
3.675581 0.348398 0.095397
3.671061 0.351637 0.121533
3.697976 0.369523 0.122431
3.637679 0.407909 0.081452
3.606321 0.387952 0.078978
3.605313 0.392844 0.106760
3.633159 0.411147 0.107588
3.675578 0.348151 0.094350
3.644219 0.328194 0.091876
3.643211 0.333086 0.119657
3.671057 0.351390 0.120486
3.689023 0.441024 0.094816
3.663053 0.423517 0.093856
3.649106 0.432300 0.115052
3.670845 0.446842 0.114822
3.721053 0.392383 0.137027
3.695083 0.374876 0.136067
3.681136 0.383659 0.157263
3.702875 0.398200 0.157032
3.662773 0.423961 0.094600
3.635857 0.406075 0.093701
3.627037 0.418116 0.116044
3.648826 0.432744 0.115796
3.695315 0.374399 0.135322
3.668399 0.356513 0.134424
3.659579 0.368555 0.156766
3.681368 0.383182 0.156518
3.635617 0.406553 0.094498
3.607771 0.388249 0.093669
3.604907 0.403967 0.117037
3.626797 0.418595 0.116840
3.668590 0.356002 0.133626
3.640745 0.337698 0.132798
3.637880 0.353416 0.156165
3.659770 0.368044 0.155969
3.672811 0.442203 0.109310
3.651073 0.427662 0.109541
3.636638 0.441619 0.127935
3.654758 0.453800 0.126904
3.700876 0.402859 0.162583
3.679138 0.388317 0.162813
3.664703 0.402274 0.181208
3.682823 0.414455 0.180176
3.650691 0.428200 0.110155
3.628901 0.413573 0.110402
3.618131 0.429999 0.129564
3.636256 0.442158 0.128549
3.679480 0.387752 0.162200
3.657691 0.373124 0.162448
3.646920 0.389551 0.181609
3.665045 0.401709 0.180595
3.628584 0.414115 0.111014
3.606694 0.399487 0.111211
3.599694 0.418365 0.131193
3.617813 0.430541 0.130175
3.657968 0.372556 0.161838
3.636078 0.357928 0.162034
3.629078 0.376806 0.182017
3.647197 0.388982 0.180999
3.782536 0.453898 0.239383
3.783896 0.488996 0.208365
3.783098 0.514433 0.236121
3.785980 0.479112 0.267748
3.710662 0.454707 0.242040
3.712022 0.489806 0.211022
3.711223 0.515242 0.238778
3.714105 0.479922 0.270405
3.785790 0.481718 0.265804
3.782908 0.517038 0.234177
3.781723 0.542572 0.261859
3.788921 0.507545 0.293049
3.714298 0.477368 0.272405
3.711416 0.512688 0.240778
3.710231 0.538221 0.268460
3.717429 0.503194 0.299650
3.785111 0.506964 0.279900
3.777913 0.541990 0.248710
3.778056 0.566938 0.271930
3.797314 0.535828 0.285738
3.721246 0.503828 0.312841
3.714048 0.538855 0.281651
3.714191 0.563802 0.304871
3.733450 0.532693 0.318679
3.768913 0.511007 0.189974
3.759847 0.514202 0.184565
3.759714 0.540514 0.212516
3.768115 0.536443 0.217730
3.726994 0.467835 0.229377
3.717928 0.471030 0.223968
3.717795 0.497342 0.251919
3.726196 0.493271 0.257133
3.767461 0.537506 0.218244
3.759059 0.541577 0.213030
3.757991 0.566423 0.242282
3.766276 0.563040 0.245926
3.726849 0.492259 0.256675
3.718448 0.496329 0.251462
3.717379 0.521175 0.280714
3.725664 0.517792 0.284357
3.760920 0.563499 0.241968
3.752635 0.566882 0.238325
3.749989 0.591463 0.262717
3.761063 0.588446 0.265188
3.731018 0.517383 0.288367
3.722733 0.520766 0.284724
3.720087 0.545347 0.309116
3.731161 0.542330 0.311587
3.508373 0.557942 0.288173
3.527611 0.571602 0.289063
3.538509 0.552146 0.267799
3.521705 0.542293 0.269073
3.535776 0.516787 0.340413
3.555014 0.530447 0.341303
3.565912 0.510991 0.320039
3.549107 0.501138 0.321312
3.521196 0.541888 0.269028
3.538000 0.551740 0.267755
3.548717 0.532468 0.246782
3.534532 0.526224 0.249937
3.549641 0.501509 0.321316
3.566445 0.511361 0.320043
3.577162 0.492089 0.299070
3.562977 0.485845 0.302225
3.533537 0.528829 0.252797
3.547722 0.535073 0.249643
3.557937 0.516527 0.224758
3.546882 0.513177 0.228718
3.563995 0.483204 0.299319
3.578180 0.489448 0.296165
3.588395 0.470902 0.271280
3.577341 0.467552 0.275240
3.527404 0.571830 0.289356
3.546640 0.585484 0.290252
3.555280 0.561694 0.266163
3.538302 0.552374 0.268091
3.555258 0.530242 0.341011
3.574494 0.543896 0.341907
3.583134 0.520106 0.317818
3.566155 0.510786 0.319746
3.537662 0.551936 0.268095
3.554641 0.561256 0.266168
3.563072 0.537828 0.242597
3.548379 0.532664 0.247122
3.566814 0.511181 0.319697
3.583793 0.520500 0.317769
3.592224 0.497072 0.294199
3.577531 0.491908 0.298724
3.547710 0.535093 0.249670
3.562403 0.540257 0.245144
3.570165 0.518363 0.218484
3.557925 0.516547 0.224785
3.578218 0.489437 0.296129
3.592912 0.494601 0.291603
3.600673 0.472707 0.264943
3.588433 0.470891 0.271244
3.557815 0.516451 0.224763
3.570055 0.518268 0.218462
3.575899 0.501304 0.197960
3.560107 0.497442 0.204647
3.588556 0.470948 0.271219
3.600796 0.472765 0.264918
3.606640 0.455801 0.244416
3.590848 0.451939 0.251103
3.559887 0.497284 0.204640
3.575679 0.501146 0.197953
3.590567 0.486311 0.173334
3.573244 0.481621 0.180571
3.591086 0.452064 0.251066
3.606878 0.455925 0.244379
3.621766 0.441091 0.219761
3.604443 0.436401 0.226998
3.546469 0.585722 0.290539
3.565704 0.599390 0.291423
3.572196 0.571110 0.264294
3.555109 0.561931 0.266450
3.574702 0.543682 0.341619
3.593937 0.557350 0.342503
3.600429 0.529070 0.315374
3.583342 0.519891 0.317531
3.554303 0.561522 0.266576
3.571390 0.570701 0.264419
3.577989 0.541998 0.236777
3.562734 0.538094 0.243005
3.584163 0.520248 0.317354
3.601250 0.529427 0.315197
3.607849 0.500724 0.287555
3.592594 0.496820 0.293783
3.562358 0.540252 0.245169
3.577613 0.544156 0.238941
3.584234 0.515351 0.206233
3.570120 0.518358 0.218508
3.592984 0.494610 0.291564
3.608239 0.498515 0.285336
3.614860 0.469710 0.252628
3.600746 0.472717 0.264904
3.570009 0.518302 0.218527
3.584123 0.515295 0.206251
3.590741 0.486504 0.173407
3.575852 0.501338 0.198025
3.600871 0.472724 0.264828
3.614985 0.469718 0.252553
3.621603 0.440926 0.219708
3.606715 0.455760 0.244326
3.602071 0.412677 0.126376
3.589616 0.445001 0.147832
3.605014 0.446036 0.141798
3.620190 0.424853 0.125358
3.626678 0.382538 0.186872
3.614224 0.414862 0.208328
3.629621 0.415897 0.202294
3.644797 0.394714 0.185854
3.620514 0.424555 0.125083
3.605338 0.445738 0.141523
3.616826 0.452076 0.139844
3.638639 0.436714 0.124069
3.644506 0.395028 0.186125
3.629330 0.416211 0.202565
3.640818 0.422549 0.200887
3.662631 0.407187 0.185111
3.638782 0.436091 0.123720
3.616968 0.451453 0.139496
3.622257 0.460620 0.141301
3.656901 0.448271 0.122688
3.662515 0.407830 0.185459
3.640702 0.423192 0.201234
3.645991 0.432359 0.203039
3.680635 0.420010 0.184427
3.587373 0.447023 0.149977
3.574322 0.476051 0.175635
3.591769 0.463824 0.157901
3.602771 0.448059 0.143943
3.616442 0.412888 0.206222
3.603391 0.441916 0.231879
3.620838 0.429689 0.214146
3.631839 0.413924 0.200188
3.603390 0.446433 0.142716
3.592389 0.462198 0.156674
3.599500 0.465057 0.154364
3.614878 0.452770 0.141038
3.631245 0.415549 0.201401
3.620244 0.431314 0.215359
3.627355 0.434173 0.213049
3.642734 0.421887 0.199723
3.615354 0.454281 0.141657
3.599975 0.466568 0.154983
3.592740 0.480626 0.167790
3.620643 0.463449 0.143462
3.642267 0.420392 0.199109
3.626888 0.432679 0.212436
3.619653 0.446737 0.225242
3.647556 0.429559 0.200914
3.590357 0.463680 0.158588
3.572909 0.475908 0.176322
3.590233 0.480598 0.169085
3.597467 0.466540 0.156278
3.622251 0.429858 0.213474
3.604804 0.442086 0.231208
3.622127 0.446776 0.223971
3.629362 0.432718 0.211164
3.602047 0.490313 0.172702
3.635196 0.497484 0.174669
3.659053 0.481717 0.153127
3.629949 0.473135 0.148374
3.610377 0.437070 0.220341
3.643527 0.444241 0.222308
3.667383 0.428474 0.200765
3.638280 0.419893 0.196013
3.630606 0.472736 0.147831
3.659709 0.481317 0.152583
3.690343 0.467858 0.133891
3.665250 0.460387 0.129218
3.637681 0.420263 0.196514
3.666785 0.428844 0.201267
3.697418 0.415384 0.182575
3.672325 0.407914 0.177902
3.635302 0.497146 0.174279
3.668437 0.504412 0.176166
3.681605 0.486892 0.155331
3.659158 0.481379 0.152737
3.643480 0.444593 0.222703
3.676615 0.451859 0.224590
3.689783 0.434339 0.203755
3.667337 0.428826 0.201161
3.659710 0.481115 0.152367
3.682157 0.486628 0.154961
3.690343 0.467655 0.133675
3.666816 0.429062 0.201496
3.689263 0.434575 0.204090
3.697450 0.415603 0.182803
3.668655 0.503987 0.175678
3.699613 0.510765 0.177456
3.709276 0.493262 0.158044
3.681823 0.486468 0.154843
3.676454 0.452296 0.225083
3.707412 0.459074 0.226861
3.717075 0.441571 0.207449
3.689622 0.434777 0.204248
3.682335 0.486570 0.154875
3.709787 0.493365 0.158076
3.715606 0.475118 0.138225
3.690521 0.467597 0.133588
3.689129 0.434638 0.204175
3.716582 0.441432 0.207376
3.722401 0.423185 0.187525
3.697316 0.415665 0.182888
3.699885 0.510243 0.176880
3.735210 0.517909 0.178959
3.738662 0.499836 0.160847
3.709548 0.492740 0.157468
3.707201 0.459610 0.227441
3.742527 0.467276 0.229520
3.745978 0.449203 0.211409
3.716864 0.442107 0.208030
3.709951 0.493189 0.157871
3.739065 0.500285 0.161250
3.740858 0.482441 0.142669
3.715770 0.474942 0.138020
3.716471 0.441622 0.207589
3.745585 0.448718 0.210968
3.747379 0.430873 0.192388
3.722290 0.423375 0.187738
3.715328 0.453900 0.090383
3.701146 0.452376 0.113462
3.719742 0.456110 0.115581
3.737483 0.454892 0.091700
3.723190 0.382569 0.095261
3.709007 0.381045 0.118340
3.727604 0.384779 0.120459
3.745344 0.383562 0.096579
3.699482 0.448823 0.100714
3.681304 0.454640 0.120719
3.703212 0.460605 0.124218
3.718078 0.452556 0.102833
3.710639 0.384605 0.131133
3.692460 0.390423 0.151138
3.714369 0.396387 0.154637
3.729235 0.388339 0.133251
3.682842 0.450305 0.113445
3.664788 0.461902 0.131039
3.689881 0.469372 0.135712
3.704750 0.456270 0.116944
3.690889 0.394777 0.158451
3.672836 0.406374 0.176045
3.697929 0.413844 0.180717
3.712798 0.400742 0.161950
3.734986 0.454000 0.087589
3.717246 0.455217 0.111469
3.731898 0.458319 0.113528
3.747865 0.384459 0.100701
3.730124 0.385677 0.124582
3.744777 0.388779 0.126640
