3.809696 0.629959 -0.378803
3.809325 0.621774 -0.360009
3.812184 0.603070 -0.373767
3.811232 0.619692 -0.385855
3.716498 0.620194 -0.384892
3.716127 0.612009 -0.366098
3.718986 0.593305 -0.379856
3.718034 0.609927 -0.391944
3.811243 0.619618 -0.385897
3.812194 0.602997 -0.373809
3.814217 0.596075 -0.394246
3.812570 0.613799 -0.396872
3.718028 0.609979 -0.391928
3.718979 0.593358 -0.379840
3.721002 0.586436 -0.400277
3.719355 0.604160 -0.402904
3.812565 0.613802 -0.396809
3.814213 0.596078 -0.394182
3.815931 0.594945 -0.418073
3.813388 0.613752 -0.409310
3.719362 0.604149 -0.403001
3.721010 0.586425 -0.400375
3.722728 0.585292 -0.424265
3.720184 0.604100 -0.415502
3.813447 0.619692 -0.419809
3.813330 0.613874 -0.408704
3.815874 0.595066 -0.417467
3.815828 0.616673 -0.443667
3.720359 0.609809 -0.427249
3.720243 0.603991 -0.416145
3.722786 0.585184 -0.424908
3.722740 0.606790 -0.451108
3.809694 0.629975 -0.378796
3.808300 0.642342 -0.377300
3.806709 0.644837 -0.356960
3.809323 0.621790 -0.360002
3.716495 0.620210 -0.384886
3.715102 0.632577 -0.383391
3.713511 0.635071 -0.363051
3.716125 0.612025 -0.366092
3.808298 0.642359 -0.377302
3.807362 0.654071 -0.381752
3.805049 0.665542 -0.364748
3.806708 0.644853 -0.356962
3.715100 0.632594 -0.383393
3.714164 0.644306 -0.387843
3.711851 0.655777 -0.370839
3.713510 0.635088 -0.363053
3.807361 0.654085 -0.381761
3.807109 0.662362 -0.391169
3.804578 0.680362 -0.381302
3.805048 0.665557 -0.364757
3.714163 0.644320 -0.387853
3.713911 0.652597 -0.397261
3.711380 0.670597 -0.387393
3.711850 0.655791 -0.370848
3.807599 0.665283 -0.403352
3.805413 0.685803 -0.402812
3.804578 0.680370 -0.381317
3.807109 0.662371 -0.391185
3.714401 0.655516 -0.409442
3.712215 0.676037 -0.408903
3.711380 0.670604 -0.387407
3.713911 0.652604 -0.397275
3.804115 0.656616 -0.449734
3.788545 0.651198 -0.495172
3.780044 0.678771 -0.478847
3.802607 0.668279 -0.445353
3.726053 0.618107 -0.414497
3.710483 0.612689 -0.459935
3.701982 0.640261 -0.443610
3.724544 0.629770 -0.410116
3.801980 0.669272 -0.445615
3.779418 0.679763 -0.479109
3.792027 0.683674 -0.450692
3.800503 0.677579 -0.436327
3.725171 0.628803 -0.409826
3.702609 0.639294 -0.443319
3.715217 0.643205 -0.414902
3.723694 0.637109 -0.400538
3.791990 0.647211 -0.490488
3.807560 0.652630 -0.445050
3.808751 0.640330 -0.443554
3.800506 0.619910 -0.506928
3.707048 0.616636 -0.464637
3.722618 0.622054 -0.419199
3.723808 0.609754 -0.417703
3.715563 0.589335 -0.481077
3.806166 0.669322 -0.429353
3.797690 0.675417 -0.443717
3.802878 0.692886 -0.416815
3.805064 0.672366 -0.417354
3.718038 0.645383 -0.407474
3.709562 0.651478 -0.421839
3.714750 0.668947 -0.394937
3.716935 0.648427 -0.395476
3.808760 0.634424 -0.431650
3.811142 0.631404 -0.455508
3.799900 0.624277 -0.502091
3.808145 0.644697 -0.438717
3.725039 0.595093 -0.415454
3.727421 0.592074 -0.439312
3.716179 0.584947 -0.485895
3.724425 0.605366 -0.422521
