2.146439 0.460263 -0.890623
2.102935 0.460881 -0.890953
2.102542 0.488868 -0.882649
2.145763 0.482235 -0.862540
2.146197 0.454377 -0.870843
2.102693 0.454995 -0.871172
2.102300 0.482982 -0.862868
2.102591 0.488849 -0.882654
2.102984 0.460861 -0.890957
2.059497 0.461974 -0.891520
2.059117 0.489689 -0.883386
2.102165 0.483003 -0.862864
2.102558 0.455016 -0.871168
2.059071 0.456128 -0.871731
2.058691 0.483844 -0.863597
2.059331 0.489422 -0.883454
2.059711 0.461706 -0.891588
2.017428 0.461870 -0.892772
2.017747 0.490578 -0.885872
2.058391 0.484113 -0.863531
2.058772 0.456397 -0.871666
2.016489 0.456561 -0.872850
2.016808 0.485268 -0.865949
2.843486 0.449782 -0.883923
2.844090 0.423071 -0.888589
2.800618 0.423444 -0.889219
2.799994 0.450539 -0.883927
2.843289 0.446022 -0.863630
2.843893 0.419311 -0.868296
2.800421 0.419683 -0.868926
2.799797 0.446779 -0.863634
2.799971 0.450716 -0.883893
2.800594 0.423620 -0.889185
2.757110 0.423974 -0.889835
2.756486 0.451496 -0.884036
2.799733 0.446603 -0.863669
2.800357 0.419508 -0.868961
2.756872 0.419861 -0.869611
2.756248 0.447384 -0.863812
2.756451 0.451638 -0.884007
2.757075 0.424115 -0.889805
2.713463 0.424299 -0.890509
2.712882 0.452104 -0.884263
2.756196 0.447243 -0.863842
2.756820 0.419720 -0.869641
2.713209 0.419904 -0.870344
2.712627 0.447708 -0.864099
2.712875 0.452175 -0.884248
2.713456 0.424370 -0.890493
2.669975 0.424397 -0.891206
2.669373 0.452448 -0.884883
2.712547 0.447638 -0.864116
2.713129 0.419833 -0.870361
2.669647 0.419860 -0.871074
2.669045 0.447911 -0.864751
2.669319 0.452477 -0.884877
2.669921 0.424425 -0.891200
2.626430 0.424460 -0.891929
2.625823 0.452730 -0.885410
2.669012 0.447883 -0.864758
2.669614 0.419832 -0.871081
2.626123 0.419866 -0.871809
2.625516 0.448136 -0.865291
2.625806 0.452797 -0.885395
2.626413 0.424526 -0.891914
2.582658 0.425054 -0.892694
2.582172 0.453361 -0.885922
2.625446 0.448071 -0.865308
2.626053 0.419800 -0.871826
2.582299 0.420329 -0.872607
2.581812 0.448635 -0.865835
2.582174 0.453481 -0.885893
2.582661 0.425174 -0.892665
2.539046 0.426411 -0.893576
2.538673 0.454460 -0.886399
2.581722 0.448516 -0.865865
2.582209 0.420210 -0.872637
2.538594 0.421447 -0.873548
2.538221 0.449496 -0.866371
2.538619 0.454621 -0.886359
2.538992 0.426572 -0.893536
2.495522 0.427536 -0.894466
2.495107 0.455594 -0.886798
2.538188 0.449337 -0.866412
2.538561 0.421288 -0.873589
2.495090 0.422252 -0.874519
2.494675 0.450310 -0.866851
2.495014 0.455730 -0.886763
2.495429 0.427673 -0.894431
2.451978 0.428230 -0.895174
2.451455 0.456460 -0.887124
2.494680 0.450175 -0.866888
2.495095 0.422117 -0.874556
2.451644 0.422675 -0.875299
2.451121 0.450905 -0.867249
2.451325 0.456539 -0.887103
2.451847 0.428309 -0.895153
2.408353 0.428257 -0.895597
2.407830 0.456908 -0.887271
2.451164 0.450827 -0.867270
2.451687 0.422597 -0.875320
2.408193 0.422544 -0.875764
2.407670 0.451196 -0.867439
2.407805 0.456957 -0.887257
2.408328 0.428306 -0.895583
2.364781 0.428361 -0.896075
2.364310 0.457345 -0.887500
2.407608 0.451147 -0.867454
2.408131 0.422495 -0.875779
2.364584 0.422550 -0.876271
2.364113 0.451535 -0.867696
2.364359 0.457373 -0.887491
2.364829 0.428389 -0.896066
2.321345 0.429000 -0.896731
2.320866 0.457890 -0.888167
2.363978 0.451508 -0.867706
2.364448 0.422523 -0.876281
2.320964 0.423135 -0.876946
2.320485 0.452025 -0.868382
2.320820 0.457899 -0.888165
2.321300 0.429009 -0.896729
2.277818 0.429624 -0.897395
2.277320 0.458409 -0.888825
2.320443 0.452016 -0.868386
2.320922 0.423126 -0.876949
2.277441 0.423741 -0.877616
2.276942 0.452527 -0.869045
2.277283 0.458421 -0.888822
2.277782 0.429635 -0.897393
2.234317 0.430519 -0.898004
2.233620 0.458998 -0.889501
2.276891 0.452517 -0.869049
2.277390 0.423731 -0.877620
2.233925 0.424615 -0.878231
2.233228 0.453094 -0.869728
2.233581 0.459010 -0.889498
2.234278 0.430531 -0.898001
2.190804 0.431659 -0.898565
2.190080 0.459635 -0.890169
2.233180 0.453083 -0.869732
2.233878 0.424604 -0.878235
2.190404 0.425732 -0.878799
2.189680 0.453708 -0.870403
2.189986 0.459647 -0.890167
2.190709 0.431670 -0.898563
2.147285 0.432434 -0.899002
2.146511 0.460266 -0.890622
2.189688 0.453698 -0.870406
2.190411 0.425722 -0.878802
2.146987 0.426486 -0.879241
2.146213 0.454318 -0.870860
2.146433 0.460267 -0.890622
2.147207 0.432435 -0.899003
2.103717 0.432933 -0.899346
2.102929 0.460884 -0.890952
2.146204 0.454318 -0.870860
2.146978 0.426486 -0.879241
2.103488 0.426984 -0.879584
2.102700 0.454935 -0.871190
2.102960 0.460862 -0.890958
2.103748 0.432911 -0.899352
2.060349 0.434255 -0.899716
2.059474 0.461975 -0.891520
2.102582 0.454959 -0.871184
2.103370 0.427008 -0.879578
2.059971 0.428351 -0.879943
2.059096 0.456071 -0.871747
2.059352 0.461699 -0.891600
2.060226 0.433979 -0.899796
2.016747 0.433169 -0.899729
2.017069 0.461863 -0.892785
2.059132 0.456348 -0.871668
2.060007 0.428628 -0.879864
2.016528 0.427817 -0.879797
2.016849 0.456512 -0.872852
2.840305 0.498363 -0.818243
2.841206 0.493633 -0.846560
2.797749 0.495475 -0.836052
2.797001 0.498905 -0.818164
2.840184 0.478038 -0.814658
2.841085 0.473308 -0.842975
2.797628 0.475150 -0.832467
2.796880 0.478580 -0.814579
2.796922 0.498857 -0.818416
2.797671 0.495427 -0.836304
2.754533 0.495395 -0.836041
2.753634 0.499173 -0.818341
2.796872 0.478628 -0.814322
2.797620 0.475198 -0.832209
2.754482 0.475166 -0.831946
2.753584 0.478944 -0.814247
2.753664 0.499153 -0.818433
2.754562 0.495376 -0.836132
2.711247 0.495808 -0.836164
2.710437 0.499522 -0.818588
2.753468 0.478963 -0.814155
2.754366 0.475186 -0.831854
2.711051 0.475618 -0.831886
2.710241 0.479332 -0.814309
2.710401 0.499530 -0.818551
2.711211 0.495816 -0.836128
2.667692 0.496281 -0.836308
2.667107 0.499868 -0.818878
2.710190 0.479325 -0.814346
2.710999 0.475611 -0.831923
2.667480 0.476076 -0.832103
2.666895 0.479663 -0.814673
2.667062 0.499881 -0.818817
2.667647 0.496295 -0.836247
2.624127 0.496771 -0.836423
2.623767 0.500199 -0.819129
2.666854 0.479650 -0.814735
2.667439 0.476064 -0.832165
2.623919 0.476540 -0.832341
2.623559 0.479969 -0.815047
2.623742 0.500212 -0.819065
2.624103 0.496784 -0.836358
2.580909 0.497312 -0.836591
2.580494 0.500607 -0.819475
2.623497 0.479957 -0.815112
2.623857 0.476528 -0.832406
2.580664 0.477056 -0.832638
2.580248 0.480351 -0.815523
2.580483 0.500613 -0.819444
2.580898 0.497318 -0.836560
2.538121 0.497920 -0.836853
2.537203 0.501190 -0.819868
2.580173 0.480346 -0.815554
2.580588 0.477051 -0.832670
2.537811 0.477653 -0.832964
2.536893 0.480923 -0.815978
2.537182 0.501180 -0.819918
2.538100 0.497911 -0.836904
2.494474 0.498535 -0.837134
2.493879 0.502040 -0.819881
2.536827 0.480933 -0.815928
2.537745 0.477664 -0.832914
2.494120 0.478288 -0.833144
2.493525 0.481793 -0.815891
2.493790 0.502017 -0.819997
2.494384 0.498513 -0.837250
2.450765 0.498890 -0.837632
2.450427 0.502661 -0.820129
2.493528 0.481816 -0.815776
2.494122 0.478312 -0.833029
2.450503 0.478689 -0.833411
2.450165 0.482459 -0.815908
2.450374 0.502663 -0.820124
2.450712 0.498892 -0.837627
2.407544 0.499414 -0.838182
2.407072 0.502983 -0.820502
2.450131 0.482458 -0.815915
2.450469 0.478688 -0.833418
2.407301 0.479210 -0.833974
2.406829 0.482779 -0.816293
2.407032 0.503008 -0.820379
2.407504 0.499440 -0.838059
2.364298 0.499964 -0.838653
2.363637 0.503367 -0.820754
2.406782 0.482754 -0.816418
2.407254 0.479186 -0.834098
2.364047 0.479710 -0.834692
2.363387 0.483113 -0.816794
2.363601 0.503383 -0.820673
2.364262 0.499980 -0.838572
2.320969 0.500435 -0.839403
2.320304 0.503839 -0.821030
2.363336 0.483098 -0.816876
2.363996 0.479694 -0.834774
2.320704 0.480150 -0.835606
2.320038 0.483554 -0.817233
2.320261 0.503847 -0.820987
2.320927 0.500443 -0.839360
2.277636 0.500895 -0.840209
2.276955 0.504315 -0.821339
2.319994 0.483546 -0.817277
2.320660 0.480142 -0.835650
2.277369 0.480594 -0.836500
2.276688 0.484013 -0.817629
2.276937 0.504322 -0.821300
2.277618 0.500902 -0.840170
2.234442 0.501467 -0.840999
2.233775 0.504888 -0.821706
2.276619 0.484007 -0.817670
2.277301 0.480587 -0.836540
2.234124 0.481152 -0.837368
2.233457 0.484573 -0.818075
2.233769 0.504897 -0.821655
2.234436 0.501476 -0.840947
2.191146 0.502227 -0.841785
2.190475 0.505591 -0.822108
2.233377 0.484565 -0.818128
2.234043 0.481144 -0.837421
2.190754 0.481895 -0.838259
2.190083 0.485259 -0.818582
2.190422 0.505598 -0.822072
2.191093 0.502235 -0.841749
2.147534 0.502843 -0.842928
2.146960 0.506296 -0.822571
2.190050 0.485253 -0.818619
2.190721 0.481889 -0.838296
2.147162 0.482498 -0.839475
2.146588 0.485951 -0.819118
2.146903 0.506292 -0.822601
2.147477 0.502839 -0.842957
2.103890 0.503258 -0.844409
2.103604 0.507009 -0.823120
2.146558 0.485956 -0.819090
2.147132 0.482503 -0.839447
2.103544 0.482922 -0.840898
2.103259 0.486673 -0.819609
2.104253 0.506959 -0.823212
2.104539 0.503208 -0.844501
2.060734 0.507044 -0.843136
2.061103 0.510780 -0.823380
2.102522 0.486727 -0.819518
2.102808 0.482976 -0.840807
2.059004 0.486812 -0.839442
2.059372 0.490548 -0.819686
2.061911 0.510604 -0.823735
2.061543 0.506869 -0.843490
2.020081 0.513564 -0.842997
2.019826 0.518320 -0.824341
2.058478 0.490734 -0.819332
2.058110 0.486999 -0.839087
2.016648 0.493694 -0.838594
2.016392 0.498451 -0.819938
2.797658 0.495347 -0.836669
2.798475 0.491047 -0.854067
2.755310 0.491361 -0.853587
2.754520 0.495315 -0.836406
2.797634 0.475271 -0.831879
2.798451 0.470972 -0.849276
2.755286 0.471285 -0.848797
2.754496 0.475239 -0.831616
2.754576 0.495340 -0.836297
2.755366 0.491386 -0.853479
2.711990 0.491929 -0.853379
2.711261 0.495772 -0.836329
2.754354 0.475215 -0.831724
2.755143 0.471261 -0.848905
2.711767 0.471804 -0.848805
2.711038 0.475647 -0.831756
2.711230 0.495781 -0.836289
2.711959 0.491939 -0.853338
2.668419 0.492469 -0.853506
2.667711 0.496247 -0.836469
2.710982 0.475638 -0.831796
2.711711 0.471796 -0.848846
2.668171 0.472326 -0.849014
2.667463 0.476104 -0.831977
2.667662 0.496251 -0.836452
2.668370 0.492473 -0.853490
2.624843 0.492953 -0.853643
2.624143 0.496727 -0.836628
2.667424 0.476100 -0.831994
2.668132 0.472323 -0.849031
2.624605 0.472803 -0.849185
2.623905 0.476576 -0.832170
2.624129 0.496734 -0.836595
2.624829 0.492961 -0.853610
2.581530 0.493619 -0.853779
2.580935 0.497263 -0.836827
2.623832 0.476570 -0.832203
2.624532 0.472796 -0.849218
2.581233 0.473454 -0.849388
2.580638 0.477098 -0.832436
2.580892 0.497266 -0.836815
2.581487 0.493622 -0.853767
2.538625 0.494194 -0.853885
2.538115 0.497868 -0.837109
2.580595 0.477096 -0.832448
2.581190 0.473452 -0.849400
2.538327 0.474024 -0.849519
2.537818 0.477698 -0.832742
2.538094 0.497872 -0.837091
2.538604 0.494198 -0.853868
2.494984 0.494964 -0.854045
2.494468 0.498497 -0.837321
2.537752 0.477695 -0.832761
2.538262 0.474021 -0.849537
2.494642 0.474787 -0.849714
2.494127 0.478320 -0.832991
2.494383 0.498518 -0.837226
2.494899 0.494985 -0.853949
2.451179 0.495602 -0.854171
2.450764 0.498895 -0.837608
2.494124 0.478300 -0.833087
2.494640 0.474767 -0.849810
2.450921 0.475384 -0.850032
2.450505 0.478677 -0.833469
2.450753 0.498915 -0.837511
2.451169 0.495622 -0.854074
2.407956 0.496307 -0.854427
2.407585 0.499437 -0.838067
2.450429 0.478658 -0.833567
2.450844 0.475365 -0.850130
2.407631 0.476051 -0.850483
2.407260 0.479181 -0.834123
2.407523 0.499442 -0.838047
2.407894 0.496312 -0.854407
2.364682 0.496823 -0.854805
2.364317 0.499966 -0.838641
2.407236 0.479177 -0.834144
2.407606 0.476047 -0.850504
2.364394 0.476558 -0.850902
2.364029 0.479701 -0.834739
2.364272 0.499962 -0.838662
2.364637 0.496819 -0.854826
2.321311 0.497255 -0.855675
2.320979 0.500418 -0.839493
2.363987 0.479705 -0.834719
2.364352 0.476562 -0.850883
2.321027 0.476998 -0.851733
2.320695 0.480160 -0.835550
2.320935 0.500415 -0.839508
2.321267 0.497253 -0.855690
2.277942 0.497677 -0.856527
2.277644 0.500867 -0.840357
2.320653 0.480164 -0.835537
2.320985 0.477001 -0.851719
2.277660 0.477425 -0.852556
2.277362 0.480615 -0.836386
2.277617 0.500858 -0.840403
2.277915 0.497668 -0.856572
2.234686 0.498111 -0.857425
2.234441 0.501423 -0.841231
2.277303 0.480625 -0.836343
2.277600 0.477435 -0.852512
2.234372 0.477877 -0.853365
2.234126 0.481189 -0.837171
2.234428 0.501400 -0.841339
2.234674 0.498089 -0.857533
2.191341 0.498591 -0.858401
2.191139 0.502152 -0.842177
2.234052 0.481212 -0.837064
2.234298 0.477900 -0.853258
2.190964 0.478403 -0.854126
2.190763 0.481964 -0.837902
2.191095 0.502129 -0.842285
2.191297 0.498569 -0.858509
2.147777 0.499096 -0.859521
2.147536 0.502738 -0.843464
2.190720 0.481988 -0.837796
2.190921 0.478427 -0.854020
2.147402 0.478954 -0.855032
2.147161 0.482596 -0.838975
2.147478 0.502731 -0.843497
2.147720 0.499089 -0.859554
2.104179 0.499602 -0.860635
2.103891 0.503150 -0.844949
2.147131 0.482604 -0.838944
2.147372 0.478961 -0.855001
2.103831 0.479474 -0.856081
2.103544 0.483022 -0.840395
2.104337 0.503053 -0.845272
2.104625 0.499504 -0.860958
2.060937 0.502026 -0.860285
2.060533 0.506889 -0.843907
2.103010 0.483123 -0.840072
2.103298 0.479575 -0.855758
2.059610 0.482096 -0.855086
2.059206 0.486959 -0.838707
2.061074 0.506556 -0.844807
2.061478 0.501693 -0.861185
2.019154 0.505751 -0.861959
2.019612 0.513251 -0.844314
2.058579 0.487301 -0.837806
2.058983 0.482438 -0.854185
2.016660 0.486496 -0.854959
2.017117 0.493996 -0.837313
2.841239 0.493256 -0.848051
2.842857 0.484500 -0.872653
2.799411 0.485663 -0.872093
2.798599 0.490798 -0.854940
2.841055 0.473670 -0.841545
2.842673 0.464914 -0.866147
2.799228 0.466076 -0.865588
2.798415 0.471212 -0.848435
2.798600 0.490955 -0.854423
2.799413 0.485820 -0.871576
2.755961 0.486987 -0.870993
2.755435 0.491269 -0.853944
2.798327 0.471055 -0.848955
2.799140 0.465920 -0.866108
2.755687 0.467088 -0.865525
2.755162 0.471369 -0.848475
2.755403 0.491345 -0.853650
2.755929 0.487064 -0.870700
2.712439 0.487845 -0.870639
2.712028 0.491889 -0.853550
2.755107 0.471294 -0.848768
2.755632 0.467012 -0.865818
2.712142 0.467793 -0.865758
2.711731 0.471837 -0.848669
2.711968 0.491906 -0.853481
2.712379 0.487862 -0.870570
2.668912 0.488347 -0.870944
2.668427 0.492436 -0.853649
2.711704 0.471821 -0.848737
2.712115 0.467777 -0.865826
2.668648 0.468262 -0.866199
2.668164 0.472351 -0.848905
2.668377 0.492441 -0.853633
2.668862 0.488351 -0.870927
2.625396 0.488836 -0.871297
2.624851 0.492921 -0.853787
2.668126 0.472348 -0.848922
2.668611 0.468258 -0.866216
2.625145 0.468743 -0.866585
2.624599 0.472828 -0.849075
2.624836 0.492921 -0.853788
2.625382 0.488836 -0.871298
2.581748 0.489415 -0.871557
2.581537 0.493579 -0.853957
2.624527 0.472829 -0.849075
2.625072 0.468745 -0.866585
2.581439 0.469324 -0.866844
2.581227 0.473487 -0.849244
2.581496 0.493584 -0.853935
2.581707 0.489421 -0.871535
2.538117 0.490151 -0.871645
2.538634 0.494156 -0.854054
2.581181 0.473482 -0.849267
2.581393 0.469319 -0.866867
2.537802 0.470049 -0.866976
2.538319 0.474054 -0.849385
2.538636 0.494174 -0.853975
2.538119 0.490169 -0.871566
2.494666 0.491142 -0.871473
2.495017 0.494940 -0.854152
2.538229 0.474037 -0.849464
2.537712 0.470032 -0.867056
2.494259 0.471006 -0.866962
2.494610 0.474804 -0.849642
2.494949 0.494964 -0.854048
2.494598 0.491167 -0.871369
2.450962 0.492072 -0.871280
2.451229 0.495581 -0.854269
2.494590 0.474781 -0.849746
2.494240 0.470984 -0.867067
2.450603 0.471889 -0.866978
2.450871 0.475398 -0.849968
2.451184 0.495595 -0.854204
2.450917 0.492086 -0.871215
2.407462 0.492875 -0.871114
2.407971 0.496281 -0.854557
2.450828 0.475385 -0.850033
2.450561 0.471876 -0.867043
2.407106 0.472665 -0.866943
2.407615 0.476071 -0.850386
2.407905 0.496291 -0.854515
2.407395 0.492885 -0.871072
2.363906 0.493607 -0.871129
2.364692 0.496801 -0.854913
2.407596 0.476062 -0.850429
2.407086 0.472657 -0.866986
2.363597 0.473379 -0.867043
2.364383 0.476573 -0.850827
2.364627 0.496806 -0.854893
2.363840 0.493612 -0.871110
2.320372 0.494017 -0.871748
2.321302 0.497242 -0.855743
2.364362 0.476569 -0.850848
2.363575 0.473375 -0.867064
2.320106 0.473780 -0.867703
2.321036 0.477005 -0.851697
2.321258 0.497235 -0.855783
2.320328 0.494010 -0.871788
2.276866 0.494420 -0.872434
2.277933 0.497658 -0.856619
2.320993 0.477013 -0.851659
2.320063 0.473788 -0.867664
2.276601 0.474199 -0.868311
2.277668 0.477437 -0.852496
2.277878 0.497642 -0.856702
2.276810 0.494404 -0.872517
2.233029 0.494663 -0.873245
2.234649 0.498084 -0.857555
2.277637 0.477454 -0.852414
2.276569 0.474216 -0.868229
2.232788 0.474475 -0.868957
2.234408 0.477897 -0.853267
2.234602 0.498043 -0.857744
2.232982 0.494621 -0.873434
2.189517 0.494739 -0.874245
2.191269 0.498546 -0.858612
2.234368 0.477939 -0.853079
2.232748 0.474517 -0.868769
2.189283 0.474635 -0.869580
2.191035 0.478442 -0.853947
2.191271 0.498504 -0.858783
2.189519 0.494698 -0.874416
2.146091 0.495203 -0.874921
2.147751 0.499031 -0.859795
2.190946 0.478484 -0.853778
2.189194 0.474677 -0.869411
2.145766 0.475182 -0.869915
2.147426 0.479011 -0.854789
2.147731 0.499023 -0.859830
2.146071 0.495195 -0.874955
2.102608 0.495942 -0.875284
2.104190 0.499535 -0.860910
2.147359 0.479020 -0.854756
2.145699 0.475192 -0.869882
2.102236 0.475940 -0.870211
2.103818 0.479533 -0.855836
2.104344 0.499419 -0.861317
2.102761 0.495825 -0.875692
2.059288 0.496666 -0.876424
2.060656 0.501940 -0.860645
2.103578 0.479652 -0.855429
2.101995 0.476059 -0.869803
2.058521 0.476899 -0.870536
2.059889 0.482174 -0.854757
2.060970 0.501583 -0.861605
2.059602 0.496309 -0.877384
2.018018 0.497465 -0.879801
2.018647 0.505641 -0.862379
2.059490 0.482535 -0.853799
2.058121 0.477261 -0.869577
2.016537 0.478416 -0.871995
2.017166 0.486593 -0.854573
2.840348 0.490172 -0.826568
2.797043 0.490713 -0.826490
2.795565 0.509166 -0.823354
2.838580 0.508702 -0.822584
2.840140 0.486252 -0.806306
2.796835 0.486794 -0.806227
2.795357 0.505247 -0.803091
2.838372 0.504782 -0.802321
2.796975 0.490293 -0.826563
2.753688 0.490608 -0.826488
2.752468 0.509120 -0.824070
2.795497 0.508746 -0.823427
2.796816 0.487215 -0.806155
2.753529 0.487530 -0.806080
2.752309 0.506042 -0.803662
2.795338 0.505668 -0.803019
2.753656 0.490312 -0.826528
2.710429 0.490680 -0.826683
2.709571 0.509381 -0.824607
2.752436 0.508823 -0.824110
2.753474 0.487828 -0.806040
2.710247 0.488196 -0.806194
2.709389 0.506897 -0.804119
2.752254 0.506339 -0.803622
2.710384 0.490574 -0.826695
2.667090 0.490912 -0.827022
2.666511 0.509950 -0.824932
2.709526 0.509275 -0.824620
2.710205 0.488303 -0.806182
2.666911 0.488641 -0.806509
2.666332 0.507678 -0.804419
2.709347 0.507004 -0.804107
2.667057 0.490867 -0.827028
2.623762 0.491186 -0.827340
2.623470 0.510556 -0.825358
2.666478 0.509905 -0.824937
2.666858 0.488687 -0.806505
2.623563 0.489005 -0.806817
2.623271 0.508375 -0.804835
2.666279 0.507724 -0.804414
2.623701 0.491204 -0.827339
2.580452 0.491598 -0.827749
2.580486 0.511294 -0.825515
2.623410 0.510574 -0.825357
2.623537 0.488988 -0.806819
2.580288 0.489383 -0.807229
2.580322 0.509079 -0.804995
2.623246 0.508358 -0.804837
2.580349 0.491865 -0.827717
2.537069 0.492441 -0.828141
2.537367 0.512236 -0.825071
2.580382 0.511561 -0.825483
2.580306 0.489118 -0.807262
2.537026 0.489694 -0.807685
2.537324 0.509490 -0.804615
2.580340 0.508814 -0.805027
2.537114 0.492452 -0.828139
2.493812 0.493311 -0.828102
2.494406 0.512465 -0.825892
2.537413 0.512247 -0.825069
2.536894 0.489685 -0.807687
2.493592 0.490544 -0.807650
2.494185 0.509698 -0.805440
2.537192 0.509480 -0.804618
2.493715 0.493093 -0.828130
2.450352 0.493736 -0.828263
2.451284 0.512511 -0.826157
2.494308 0.512247 -0.825920
2.493603 0.490764 -0.807623
2.450240 0.491407 -0.807755
2.451171 0.510182 -0.805650
2.494196 0.509918 -0.805412
2.450312 0.493808 -0.828254
2.407010 0.494128 -0.828633
2.408230 0.513040 -0.826177
2.451244 0.512584 -0.826149
2.450193 0.491335 -0.807764
2.406891 0.491656 -0.808142
2.408111 0.510567 -0.805687
2.451125 0.510111 -0.805659
2.406961 0.494324 -0.828608
2.363566 0.494682 -0.828984
2.365140 0.513683 -0.826115
2.408181 0.513235 -0.826152
2.406854 0.491461 -0.808168
2.363459 0.491820 -0.808544
2.365033 0.510821 -0.805676
2.408074 0.510373 -0.805713
2.363582 0.494753 -0.828973
2.320285 0.495209 -0.829330
2.322149 0.514276 -0.826561
2.365156 0.513754 -0.826105
2.363356 0.491750 -0.808555
2.320058 0.492206 -0.808912
2.321922 0.511273 -0.806143
2.364930 0.510751 -0.805686
2.320238 0.495157 -0.829339
2.276932 0.495624 -0.829690
2.279100 0.514735 -0.827003
2.322101 0.514224 -0.826569
2.320019 0.492259 -0.808905
2.276713 0.492726 -0.809257
2.278881 0.511837 -0.806569
2.321883 0.511326 -0.806136
2.276861 0.495678 -0.829683
2.233699 0.496244 -0.830089
2.235957 0.515351 -0.827119
2.279029 0.514789 -0.826996
2.276697 0.492674 -0.809264
2.233534 0.493240 -0.809670
2.235792 0.512347 -0.806700
2.278865 0.511785 -0.806577
2.233646 0.496456 -0.830056
2.190352 0.497150 -0.830510
2.192901 0.516211 -0.827018
2.235903 0.515563 -0.827086
2.233501 0.493029 -0.809704
2.190208 0.493722 -0.810157
2.192757 0.512784 -0.806666
2.235759 0.512136 -0.806733
2.190375 0.497296 -0.830484
2.146914 0.497993 -0.830983
2.149866 0.516820 -0.827461
2.192924 0.516357 -0.826992
2.190098 0.493578 -0.810184
2.146637 0.494276 -0.810683
2.149589 0.513102 -0.807161
2.192647 0.512639 -0.806692
2.146991 0.497746 -0.831023
2.103692 0.498464 -0.831542
2.106956 0.516878 -0.829016
2.149944 0.516573 -0.827502
2.146473 0.494523 -0.810644
2.103173 0.495240 -0.811163
2.106438 0.513655 -0.808636
2.149425 0.513350 -0.807122
2.103615 0.498030 -0.831603
2.060464 0.501850 -0.831772
2.064004 0.519672 -0.829992
2.106879 0.516444 -0.829077
2.103164 0.495678 -0.811103
2.060013 0.499499 -0.811272
2.063553 0.517321 -0.809492
2.106428 0.514093 -0.808577
2.060528 0.501607 -0.831795
2.018443 0.509323 -0.832402
2.022383 0.526791 -0.830756
2.064068 0.519429 -0.830016
2.059864 0.499753 -0.811250
2.017779 0.507470 -0.811857
2.021719 0.524937 -0.810211
2.063404 0.517575 -0.809470
2.414697 1.697061 -0.677312
2.414138 1.731304 -0.676768
2.463767 1.722280 -0.679262
2.458526 1.690855 -0.679173
2.415623 1.696852 -0.656695
2.415064 1.731095 -0.656151
2.464693 1.722071 -0.658644
2.459453 1.690646 -0.658555
2.457959 1.690787 -0.679131
2.463199 1.722212 -0.679220
2.511374 1.708412 -0.684656
2.500610 1.679784 -0.683338
2.460113 1.690694 -0.658604
2.465353 1.722119 -0.658693
2.513528 1.708319 -0.664129
2.502764 1.679690 -0.662812
2.499511 1.679829 -0.683160
2.510274 1.708458 -0.684477
2.554185 1.686040 -0.695137
2.539250 1.662177 -0.691359
2.503951 1.679612 -0.663005
2.514714 1.708241 -0.664322
2.558625 1.685823 -0.674983
2.543690 1.661960 -0.671204
2.539839 1.663055 -0.691424
2.554774 1.686918 -0.695202
2.592198 1.654116 -0.700947
2.575299 1.639454 -0.703320
2.543180 1.661034 -0.671157
2.558115 1.684896 -0.674936
2.595539 1.652095 -0.680680
2.578640 1.637432 -0.683053
2.566859 1.619659 -0.680345
2.531760 1.644487 -0.670761
2.535509 1.655805 -0.686927
2.570969 1.632203 -0.698823
2.578840 1.632107 -0.669054
2.543741 1.656935 -0.659470
2.547490 1.668253 -0.675636
2.582950 1.644651 -0.687532
2.533479 1.643739 -0.671405
2.493702 1.661422 -0.665376
2.497488 1.672709 -0.679372
2.537227 1.655057 -0.687571
2.541947 1.657724 -0.658808
2.502171 1.675407 -0.652780
2.505957 1.686695 -0.666775
2.545696 1.669042 -0.674974
2.495400 1.661088 -0.665882
2.452939 1.672706 -0.663287
2.456534 1.683379 -0.675670
2.499186 1.672375 -0.679878
2.500391 1.675770 -0.652263
2.457931 1.687389 -0.649668
2.461525 1.698061 -0.662051
2.504177 1.687058 -0.666258
2.453922 1.672364 -0.663195
2.410481 1.679891 -0.661693
2.413688 1.689243 -0.673718
2.457517 1.683037 -0.675578
2.456861 1.687749 -0.649755
2.413420 1.695276 -0.648252
2.416627 1.704628 -0.660278
2.460456 1.698422 -0.662138
2.410215 1.676779 -0.670040
2.412176 1.691475 -0.664519
2.455617 1.683948 -0.666022
2.451741 1.671206 -0.671856
2.409758 1.668972 -0.650939
2.411719 1.683668 -0.645419
2.455160 1.676141 -0.646921
2.451284 1.663399 -0.652756
2.452102 1.671645 -0.671650
2.455978 1.684387 -0.665815
2.498438 1.672769 -0.668410
2.492686 1.661402 -0.674370
2.451007 1.662943 -0.652967
2.454883 1.675684 -0.647132
2.497343 1.664066 -0.649728
2.491591 1.652699 -0.655688
2.492796 1.661585 -0.674276
2.498548 1.672952 -0.668316
2.538325 1.655269 -0.674344
2.530297 1.644121 -0.680384
2.491562 1.652488 -0.655791
2.497314 1.663855 -0.649831
2.537091 1.646172 -0.655859
2.529062 1.635025 -0.661898
2.530398 1.644097 -0.680389
2.538427 1.655244 -0.674349
2.573526 1.630417 -0.683933
2.564021 1.620725 -0.689438
2.529034 1.635007 -0.661909
2.537062 1.646155 -0.655869
2.572161 1.621327 -0.665453
2.562656 1.611636 -0.670959
2.415038 1.697077 -0.677321
2.370323 1.702080 -0.676774
2.369786 1.734749 -0.676566
2.414479 1.731320 -0.676777
2.415191 1.696848 -0.656684
2.370476 1.701850 -0.656137
2.369940 1.734519 -0.655928
2.414632 1.731091 -0.656140
2.370249 1.701967 -0.676774
2.325407 1.705324 -0.676108
2.324898 1.737968 -0.676317
2.369713 1.734636 -0.676566
2.370460 1.701971 -0.656136
2.325617 1.705328 -0.655470
2.325108 1.737972 -0.655679
2.369924 1.734640 -0.655928
2.325332 1.705229 -0.676107
2.280324 1.707677 -0.675441
2.280098 1.741068 -0.675866
2.324823 1.737873 -0.676316
2.325602 1.705430 -0.655470
2.280594 1.707878 -0.654804
2.280367 1.741269 -0.655229
2.325093 1.738074 -0.655679
2.280327 1.707691 -0.675441
2.235418 1.710360 -0.675224
2.235332 1.743394 -0.675369
2.280101 1.741082 -0.675866
2.280501 1.707869 -0.654803
2.235592 1.710538 -0.654587
2.235506 1.743571 -0.654731
2.280275 1.741260 -0.655228
2.235381 1.710452 -0.675225
2.190474 1.713087 -0.675024
2.190513 1.745715 -0.674878
2.235295 1.743485 -0.675369
2.235540 1.710451 -0.654586
2.190633 1.713087 -0.654385
2.190672 1.745714 -0.654240
2.235454 1.743485 -0.654730
2.190443 1.713167 -0.675023
2.145487 1.714861 -0.674825
2.145675 1.747112 -0.674481
2.190481 1.745795 -0.674878
2.190574 1.713011 -0.654385
2.145618 1.714704 -0.654187
2.145806 1.746956 -0.653843
2.190613 1.745638 -0.654239
2.145440 1.714917 -0.674824
2.100489 1.716430 -0.674579
2.100689 1.748551 -0.674097
2.145628 1.747168 -0.674480
2.145575 1.714651 -0.654187
2.100625 1.716164 -0.653942
2.100824 1.748285 -0.653460
2.145764 1.746903 -0.653843
2.100369 1.716488 -0.674577
2.055391 1.716745 -0.674054
2.055776 1.750586 -0.673332
2.100568 1.748609 -0.674095
2.100655 1.716109 -0.653943
2.055678 1.716365 -0.653420
2.056062 1.750207 -0.652698
2.100855 1.748230 -0.653461
2.055669 1.716573 -0.674055
2.010505 1.715366 -0.674182
2.011578 1.750591 -0.674763
2.056053 1.750414 -0.673333
2.055310 1.716538 -0.653419
2.010147 1.715332 -0.653546
2.011220 1.750556 -0.654127
2.055695 1.750379 -0.652697
2.010882 1.700028 -0.660914
2.010354 1.707626 -0.670728
2.055518 1.708832 -0.670600
2.055610 1.699350 -0.661259
2.010825 1.715432 -0.647177
2.010297 1.723029 -0.656991
2.055461 1.724236 -0.656864
2.055553 1.714753 -0.647522
2.055483 1.699848 -0.661779
2.055391 1.709330 -0.671120
2.100369 1.709073 -0.671644
2.100124 1.698451 -0.661381
2.055770 1.714255 -0.647002
2.055677 1.723737 -0.656344
2.100655 1.723480 -0.656867
2.100410 1.712858 -0.646605
2.100062 1.698415 -0.661344
2.100307 1.709037 -0.671606
2.145257 1.707524 -0.671851
2.144475 1.697077 -0.661330
2.100562 1.712893 -0.646642
2.100807 1.723515 -0.656905
2.145757 1.722001 -0.657150
2.144975 1.711555 -0.646629
2.144501 1.696914 -0.661167
2.145284 1.707360 -0.671687
2.190240 1.705667 -0.671886
2.189138 1.695561 -0.661172
2.145037 1.711716 -0.646793
2.145820 1.722162 -0.657314
2.190776 1.720469 -0.657512
2.189674 1.710363 -0.646798
2.189004 1.695426 -0.661023
2.190106 1.705531 -0.671737
2.235013 1.702896 -0.671938
2.233599 1.692931 -0.661007
2.189897 1.710494 -0.646947
2.190999 1.720600 -0.657661
2.235906 1.717964 -0.657862
2.234492 1.708000 -0.646931
2.233633 1.692809 -0.660876
2.235048 1.702774 -0.671807
2.279957 1.700105 -0.672024
2.278227 1.690309 -0.660850
2.234547 1.708117 -0.647062
2.235961 1.718081 -0.657993
2.280870 1.715412 -0.658209
2.279140 1.705617 -0.647036
2.278250 1.690154 -0.660676
2.279980 1.699949 -0.671849
2.324988 1.697501 -0.672515
2.322687 1.687495 -0.660440
2.279206 1.705767 -0.647211
2.280936 1.715563 -0.658384
2.325944 1.713114 -0.659050
2.323644 1.703108 -0.646976
2.322560 1.687354 -0.660262
2.324860 1.697360 -0.672336
2.369703 1.694002 -0.673002
2.367107 1.684084 -0.660435
2.323861 1.703244 -0.647155
2.326161 1.713250 -0.659230
2.371004 1.709893 -0.659895
2.368408 1.699974 -0.647329
2.366835 1.684050 -0.660360
2.369431 1.693968 -0.672927
2.414146 1.688966 -0.673474
2.410940 1.679614 -0.661448
2.368769 1.700001 -0.647405
2.371365 1.709919 -0.659972
2.416080 1.704916 -0.660519
2.412873 1.695565 -0.648494
2.010833 1.712309 -0.663287
2.055562 1.711631 -0.663631
2.054955 1.697413 -0.670780
2.010514 1.697244 -0.670682
2.010873 1.703127 -0.644802
2.055601 1.702449 -0.645147
2.054994 1.688231 -0.652296
2.010553 1.688062 -0.652198
2.055833 1.711720 -0.663584
2.100473 1.710324 -0.663186
2.099623 1.696919 -0.670133
2.055226 1.697502 -0.670733
2.055419 1.702358 -0.645195
2.100059 1.700962 -0.644797
2.099209 1.687557 -0.651743
2.054812 1.688140 -0.652343
2.100478 1.710321 -0.663188
2.144891 1.708983 -0.663174
2.143924 1.695384 -0.670000
2.099627 1.696916 -0.670134
2.100144 1.700962 -0.644795
2.144557 1.699625 -0.644782
2.143591 1.686025 -0.651608
2.099294 1.687558 -0.651741
2.144922 1.708880 -0.663226
2.189559 1.707528 -0.663231
2.188334 1.693667 -0.670033
2.143956 1.695280 -0.670052
2.144614 1.699725 -0.644730
2.189251 1.698373 -0.644735
2.188026 1.684513 -0.651538
2.143648 1.686126 -0.651556
2.189724 1.707418 -0.663280
2.234319 1.704923 -0.663265
2.232875 1.691232 -0.669785
2.188500 1.693558 -0.670083
2.189174 1.698479 -0.644685
2.233769 1.695984 -0.644670
2.232325 1.682293 -0.651190
2.187950 1.684619 -0.651488
2.234359 1.704809 -0.663317
2.278952 1.702309 -0.663292
2.277265 1.688782 -0.669546
2.232915 1.691118 -0.669838
2.233818 1.696094 -0.644616
2.278411 1.693593 -0.644591
2.276724 1.680066 -0.650845
2.232374 1.682403 -0.651137
2.279089 1.702057 -0.663400
2.323527 1.699398 -0.663165
2.321769 1.685192 -0.669088
2.277402 1.688530 -0.669655
2.278363 1.693840 -0.644481
2.322801 1.691181 -0.644246
2.321043 1.676975 -0.650169
2.276676 1.680313 -0.650736
2.323511 1.699054 -0.663308
2.368057 1.695785 -0.663481
2.366027 1.681139 -0.668998
2.321753 1.684847 -0.669231
2.322906 1.691519 -0.644102
2.367453 1.688249 -0.644276
2.365422 1.673604 -0.649793
2.321148 1.677312 -0.650026
2.367926 1.695631 -0.663543
2.412031 1.691195 -0.664632
2.410070 1.676498 -0.670152
2.365896 1.680985 -0.669060
2.367672 1.688395 -0.644215
2.411777 1.683960 -0.645304
2.409816 1.669263 -0.650824
2.365642 1.673750 -0.649732
1.864494 0.452909 -0.914210
1.870540 0.458635 -0.886619
1.868022 0.445998 -0.888794
1.864995 0.443128 -0.902588
1.844468 0.456267 -0.910517
1.850514 0.461994 -0.882926
1.847996 0.449356 -0.885101
1.844968 0.446486 -0.898895
1.864991 0.443098 -0.902581
1.868019 0.445968 -0.888787
1.865474 0.433330 -0.890953
1.844970 0.446497 -0.898894
1.847998 0.449367 -0.885100
1.845454 0.436729 -0.887266
1.865598 0.525402 -0.947249
1.870243 0.537495 -0.920835
1.870665 0.498023 -0.904957
1.865002 0.488749 -0.932649
1.845275 0.526781 -0.943921
1.849920 0.538873 -0.917508
1.850342 0.499402 -0.901629
1.844679 0.490128 -0.929322
1.864940 0.488407 -0.932838
1.870603 0.497681 -0.905145
1.870628 0.459344 -0.886653
1.864582 0.453618 -0.914245
1.844740 0.490396 -0.929099
1.850403 0.499669 -0.901407
1.850427 0.461333 -0.882914
1.844382 0.455606 -0.910506
1.870399 0.572752 -0.929488
1.870250 0.537837 -0.920899
1.865605 0.525745 -0.947313
1.865077 0.575150 -0.959993
1.850061 0.573525 -0.926059
1.849913 0.538611 -0.917470
1.845268 0.526519 -0.943883
1.844739 0.575924 -0.956564
1.871060 0.661920 -0.935832
1.870798 0.617432 -0.932432
1.866529 0.618344 -0.964609
1.867811 0.661387 -0.969700
1.850561 0.662508 -0.933495
1.850300 0.618020 -0.930095
1.846031 0.618932 -0.962273
1.847312 0.661974 -0.967363
1.870741 0.617330 -0.932837
1.870423 0.572829 -0.929359
1.865101 0.575228 -0.959864
1.866472 0.618242 -0.965015
1.850356 0.618035 -0.929681
1.850038 0.573534 -0.926203
1.844716 0.575932 -0.956708
1.846087 0.618947 -0.961859
1.865063 0.756045 -0.969811
1.870486 0.754546 -0.941565
1.871033 0.723834 -0.939351
1.867825 0.723872 -0.966735
1.844680 0.755237 -0.966671
1.850103 0.753738 -0.938424
1.850649 0.723026 -0.936211
1.847442 0.723064 -0.963595
1.867874 0.723155 -0.966410
1.871082 0.723117 -0.939025
1.870703 0.692554 -0.936280
1.867507 0.691152 -0.961136
1.847394 0.723719 -0.963914
1.850602 0.723681 -0.936529
1.850223 0.693118 -0.933784
1.847027 0.691716 -0.958641
1.867521 0.691668 -0.961023
1.870717 0.693071 -0.936166
1.871065 0.662517 -0.935797
1.867815 0.661983 -0.969665
1.847013 0.691138 -0.958755
1.850209 0.692541 -0.933898
1.850557 0.661986 -0.933529
1.847308 0.661452 -0.967397
1.869846 1.026241 -0.927866
1.872184 0.981431 -0.933884
1.870883 0.980882 -0.961766
1.869012 1.025784 -0.957536
1.849249 1.025186 -0.927083
1.851586 0.980375 -0.933101
1.850285 0.979827 -0.960983
1.848414 1.024728 -0.956753
1.872157 0.980478 -0.934419
1.871375 0.935271 -0.938088
1.867542 0.935314 -0.967244
1.870856 0.979930 -0.962300
1.851614 0.981238 -0.932576
1.850832 0.936031 -0.936246
1.846999 0.936074 -0.965402
1.850313 0.980689 -0.960458
1.871318 0.935616 -0.938633
1.871277 0.890327 -0.941603
1.866770 0.890736 -0.970701
1.867485 0.935659 -0.967789
1.850887 0.935596 -0.935708
1.850846 0.890307 -0.938678
1.846339 0.890717 -0.967776
1.847054 0.935640 -0.964864
1.871282 0.890040 -0.941548
1.869454 0.844741 -0.943614
1.866115 0.845479 -0.971779
1.866775 0.890450 -0.970646
1.850840 0.890504 -0.938738
1.849013 0.845204 -0.940803
1.845673 0.845943 -0.968969
1.846333 0.890913 -0.967836
1.869468 0.844841 -0.943525
1.869339 0.799394 -0.943677
1.865638 0.800542 -0.970397
1.866129 0.845579 -0.971690
1.848998 0.845014 -0.940893
1.848869 0.799567 -0.941045
1.845168 0.800715 -0.967765
1.845659 0.845752 -0.969059
1.869284 0.799449 -0.944049
1.870474 0.754194 -0.941686
1.865051 0.755694 -0.969932
1.865584 0.800598 -0.970769
1.848923 0.799421 -0.940671
1.850113 0.754166 -0.938308
1.844690 0.755665 -0.966554
1.845223 0.800569 -0.967391
1.871149 1.174040 -0.883655
1.872651 1.137159 -0.895737
1.869260 1.143102 -0.924056
1.870431 1.181030 -0.909172
1.850568 1.173435 -0.882229
1.852070 1.136554 -0.894311
1.848679 1.142497 -0.922631
1.849850 1.180425 -0.907746
1.872611 1.137235 -0.896159
1.872659 1.100709 -0.908797
1.869164 1.105207 -0.939533
1.869220 1.143178 -0.924479
1.852111 1.136404 -0.893916
1.852158 1.099878 -0.906554
1.848664 1.104375 -0.937290
1.848720 1.142346 -0.922236
1.872647 1.100476 -0.908962
1.872481 1.063367 -0.920131
1.868472 1.065186 -0.948593
1.869152 1.104973 -0.939698
1.852170 1.100036 -0.906413
1.852004 1.062928 -0.917582
1.847995 1.064746 -0.946045
1.848675 1.104533 -0.937149
1.872525 1.063019 -0.919725
1.869830 1.025665 -0.928326
1.868996 1.025207 -0.957996
1.868516 1.064837 -0.948188
1.851959 1.063199 -0.918007
1.849264 1.025846 -0.926608
1.848429 1.025388 -0.956278
1.847949 1.065018 -0.946470
1.908299 1.665627 -0.707573
1.903459 1.627421 -0.728483
1.901500 1.642314 -0.754399
1.905415 1.681432 -0.733559
1.887833 1.666602 -0.705087
1.882993 1.628396 -0.725996
1.881034 1.643289 -0.751912
1.884950 1.682407 -0.731073
1.903455 1.627368 -0.728490
1.899635 1.588286 -0.747874
1.896955 1.601619 -0.772039
1.901496 1.642261 -0.754406
1.882988 1.628371 -0.726028
1.879167 1.589290 -0.745412
1.876487 1.602622 -0.769577
1.881029 1.643264 -0.751944
1.899591 1.588388 -0.748227
1.895996 1.548578 -0.766133
1.891982 1.561909 -0.791701
1.896911 1.601721 -0.772392
1.879203 1.589108 -0.745097
1.875608 1.549297 -0.763003
1.871594 1.562629 -0.788572
1.876523 1.602440 -0.769262
1.895987 1.548724 -0.766212
1.892390 1.508593 -0.783459
1.888745 1.520985 -0.808627
1.891974 1.562055 -0.791781
1.875609 1.549071 -0.762960
1.872012 1.508941 -0.780207
1.868366 1.521332 -0.805374
1.871595 1.562402 -0.788528
1.892397 1.508466 -0.783395
1.888803 1.467791 -0.799287
1.885473 1.479391 -0.824200
1.888752 1.520857 -0.808562
1.871997 1.508987 -0.780304
1.868403 1.468311 -0.796196
1.865073 1.479912 -0.821109
1.868352 1.521378 -0.805471
1.888813 1.467745 -0.799213
1.885508 1.426767 -0.814376
1.882298 1.437725 -0.839447
1.885483 1.479345 -0.824126
1.868386 1.468275 -0.796301
1.865082 1.427297 -0.811464
1.861872 1.438256 -0.836535
1.865057 1.479875 -0.821214
1.885531 1.426693 -0.814189
1.882255 1.385016 -0.827327
1.879777 1.395701 -0.853825
1.882321 1.437652 -0.839260
1.865053 1.427287 -0.811681
1.861778 1.385610 -0.824819
1.859299 1.396295 -0.851317
1.861843 1.438246 -0.836752
1.882281 1.384881 -0.827046
1.879086 1.343154 -0.839884
1.877305 1.353318 -0.867438
1.879802 1.395566 -0.853544
1.861746 1.385662 -0.825127
1.858551 1.343935 -0.837964
1.856770 1.354099 -0.865519
1.859267 1.396347 -0.851625
1.879095 1.343188 -0.839791
1.877016 1.301056 -0.851736
1.874849 1.310457 -0.878886
1.877315 1.353353 -0.867345
1.858536 1.343816 -0.838083
1.856457 1.301683 -0.850028
1.854290 1.311085 -0.877178
1.856756 1.353980 -0.865637
1.877010 1.301099 -0.851819
1.875151 1.258696 -0.862789
1.872785 1.267536 -0.890501
1.874843 1.310501 -0.878969
1.856459 1.301555 -0.849969
1.854600 1.259152 -0.860940
1.852234 1.267991 -0.888652
1.854292 1.310956 -0.877119
1.875132 1.258814 -0.862994
1.874318 1.216165 -0.873383
1.870757 1.224495 -0.901060
1.872767 1.267653 -0.890706
1.854615 1.258948 -0.860757
1.853801 1.216300 -0.871145
1.850239 1.224629 -0.898823
1.852250 1.267788 -0.888469
1.874337 1.215964 -0.873166
1.871138 1.173552 -0.883822
1.870420 1.180542 -0.909339
1.870775 1.224293 -0.900843
1.853780 1.216415 -0.871382
1.850581 1.174004 -0.882038
1.849863 1.180993 -0.907556
1.850218 1.224745 -0.899059
1.969254 1.713029 -0.676014
1.960144 1.750203 -0.674797
2.011558 1.750686 -0.674763
2.010484 1.715461 -0.674182
1.968845 1.712802 -0.655380
1.959735 1.749976 -0.654163
2.011149 1.750459 -0.654129
2.010076 1.715235 -0.653548
1.969609 1.719231 -0.673825
1.934495 1.703647 -0.688581
1.937696 1.723214 -0.673074
1.968409 1.706553 -0.657582
1.933295 1.690970 -0.672338
1.936496 1.710537 -0.656831
1.938253 1.723127 -0.673080
1.935052 1.703560 -0.688588
1.908377 1.726198 -0.675048
1.935898 1.710629 -0.656825
1.932696 1.691062 -0.672333
1.906021 1.713701 -0.658793
1.941558 1.679565 -0.676983
1.939235 1.692134 -0.687625
1.974348 1.707717 -0.672868
1.975552 1.698602 -0.665257
1.930890 1.689895 -0.662649
1.928567 1.702465 -0.673291
1.963680 1.718048 -0.658534
1.964883 1.708933 -0.650924
1.971343 1.696426 -0.665242
1.970139 1.705541 -0.672853
2.011370 1.707974 -0.671020
2.011898 1.700376 -0.661207
1.969168 1.711130 -0.650923
1.967964 1.720245 -0.658533
2.009195 1.722678 -0.656701
2.009723 1.715080 -0.646887
2.011262 1.712157 -0.663351
2.010942 1.697091 -0.670747
1.977234 1.694326 -0.673503
1.970707 1.708206 -0.667386
2.010363 1.703277 -0.644741
2.010043 1.688211 -0.652137
1.976335 1.685446 -0.654893
1.969808 1.699326 -0.648776
1.970967 1.708073 -0.667432
1.977495 1.694192 -0.673548
1.950283 1.677220 -0.683335
1.936974 1.689036 -0.679157
1.969479 1.699438 -0.648745
1.976007 1.685558 -0.654861
1.948795 1.668585 -0.664648
1.935486 1.680401 -0.660470
1.908264 1.665703 -0.707856
1.905380 1.681509 -0.733842
1.910970 1.720878 -0.705976
1.912747 1.692972 -0.688653
1.887878 1.666597 -0.704760
1.884994 1.682403 -0.730745
1.890584 1.721772 -0.702879
1.892360 1.693866 -0.685557
1.912716 1.692945 -0.688831
1.910940 1.720851 -0.706154
1.918924 1.752914 -0.670143
1.917335 1.719455 -0.668684
1.892402 1.693956 -0.685327
1.890625 1.721862 -0.702649
1.898610 1.753924 -0.666638
1.897020 1.720466 -0.665179
1.913590 1.667534 -0.713451
1.899684 1.671521 -0.714954
1.904166 1.698790 -0.695751
1.920922 1.687281 -0.701212
1.910383 1.656763 -0.696140
1.896476 1.660750 -0.697643
1.900958 1.688019 -0.678439
1.917714 1.676510 -0.683901
1.920354 1.687879 -0.700902
1.903598 1.699387 -0.695440
1.908217 1.725897 -0.675293
1.934892 1.703258 -0.688833
1.918298 1.675958 -0.684179
1.901542 1.687466 -0.678718
1.906160 1.713976 -0.658570
1.932836 1.691337 -0.672110
1.944258 1.681490 -0.675411
1.932490 1.666135 -0.683559
1.927397 1.678679 -0.698122
1.941935 1.694059 -0.686053
1.928142 1.687938 -0.664244
1.916374 1.672583 -0.672393
1.911281 1.685127 -0.686956
1.925819 1.700507 -0.674886
1.933829 1.667764 -0.681923
1.926337 1.649735 -0.689965
1.921404 1.660561 -0.708725
1.928736 1.680308 -0.696486
1.915014 1.670920 -0.674049
1.907521 1.652891 -0.682091
1.902589 1.663717 -0.700851
1.909921 1.683464 -0.688612
1.935206 1.650071 -0.695492
1.917932 1.655032 -0.695591
1.925424 1.673061 -0.687549
1.941218 1.664314 -0.689562
1.933222 1.642613 -0.676350
1.915948 1.647575 -0.676449
1.923440 1.665604 -0.668407
1.939233 1.656856 -0.670419
1.941143 1.664721 -0.689400
1.925350 1.673469 -0.687388
1.937118 1.688824 -0.679240
1.950427 1.677008 -0.683418
1.939325 1.656478 -0.670566
1.923532 1.665226 -0.668554
1.935300 1.680581 -0.660406
1.948609 1.668765 -0.664584
1.878818 1.179441 -0.887036
1.863540 1.175870 -0.892660
1.866739 1.218281 -0.882004
1.879895 1.221693 -0.878330
1.873473 1.175253 -0.867546
1.858195 1.171682 -0.873169
1.861394 1.214093 -0.862513
1.874551 1.217506 -0.858839
1.879108 1.221926 -0.878461
1.865952 1.218514 -0.882134
1.866766 1.261163 -0.871746
1.880622 1.263927 -0.868846
1.875341 1.217357 -0.858689
1.862184 1.213945 -0.862363
1.862998 1.256594 -0.851974
1.876855 1.259358 -0.849074
1.880385 1.264193 -0.868823
1.866528 1.261429 -0.871724
1.868387 1.303832 -0.860753
1.882542 1.305829 -0.857778
1.877096 1.259176 -0.849075
1.863239 1.256413 -0.851975
1.865098 1.298816 -0.841005
1.879253 1.300813 -0.838030
1.882676 1.306087 -0.857687
1.868521 1.304089 -0.860661
1.870601 1.346222 -0.848715
1.885314 1.347409 -0.845568
1.879124 1.300639 -0.838099
1.864969 1.298642 -0.841073
1.867048 1.340774 -0.829127
1.881762 1.341961 -0.825980
1.885520 1.347610 -0.845471
1.870806 1.346423 -0.848618
1.874001 1.388150 -0.835781
1.888113 1.388648 -0.832550
1.881561 1.341843 -0.826053
1.866847 1.340656 -0.829200
1.870042 1.382383 -0.816363
1.884154 1.382882 -0.813132
1.888362 1.388714 -0.832476
1.874251 1.388215 -0.835707
1.877526 1.429892 -0.822569
1.890919 1.429739 -0.819350
1.883910 1.382899 -0.813179
1.869799 1.382401 -0.816410
1.873074 1.424078 -0.803272
1.886467 1.423925 -0.800054
1.891114 1.430213 -0.819148
1.877721 1.430366 -0.822366
1.881026 1.471344 -0.807203
1.894423 1.470452 -0.803943
1.886278 1.423532 -0.800228
1.872885 1.423686 -0.803446
1.876190 1.464663 -0.788283
1.889588 1.463772 -0.785023
1.894568 1.470607 -0.803849
1.881170 1.471499 -0.807109
1.884765 1.512174 -0.791217
1.897956 1.510619 -0.788125
1.889450 1.463698 -0.785086
1.876052 1.464590 -0.788346
1.879647 1.505265 -0.772454
1.892838 1.503710 -0.769362
1.897597 1.510897 -0.788110
1.884406 1.512452 -0.791202
1.888003 1.552582 -0.773955
1.899849 1.551026 -0.772410
1.893204 1.503513 -0.769344
1.880012 1.505068 -0.772436
1.883610 1.545198 -0.755189
1.895456 1.543642 -0.753644
1.899563 1.551431 -0.772305
1.887717 1.552987 -0.773850
1.891312 1.592797 -0.755944
1.903554 1.590409 -0.754267
1.895748 1.543317 -0.753715
1.883902 1.544873 -0.755260
1.887497 1.584683 -0.737354
1.899739 1.582296 -0.735677
1.903836 1.590724 -0.754061
1.891594 1.593112 -0.755738
1.895414 1.632194 -0.736353
1.908640 1.628916 -0.734615
1.899465 1.582059 -0.735845
1.887223 1.584447 -0.737522
1.891044 1.623528 -0.718138
1.904269 1.620251 -0.716400
1.908759 1.629222 -0.734434
1.895534 1.632499 -0.736173
1.900374 1.670704 -0.715263
1.914281 1.666718 -0.713761
1.904159 1.620022 -0.716540
1.890934 1.623300 -0.718279
1.895774 1.661505 -0.697370
1.909681 1.657518 -0.695867
1.894094 1.214387 -0.827035
1.887431 1.219624 -0.870143
1.888945 1.261625 -0.860528
1.895428 1.255520 -0.819258
1.873701 1.214420 -0.823853
1.867039 1.219657 -0.866961
1.868552 1.261658 -0.857346
1.875035 1.255553 -0.816077
1.895416 1.255445 -0.819325
1.888934 1.261550 -0.860594
1.891091 1.303186 -0.849549
1.897687 1.296100 -0.809872
1.875050 1.255711 -0.815991
1.868567 1.261815 -0.857261
1.870725 1.303452 -0.846215
1.877320 1.296366 -0.806538
1.897673 1.296103 -0.809954
1.891077 1.303189 -0.849632
1.893716 1.344511 -0.837513
1.900294 1.336611 -0.799634
1.877339 1.296445 -0.806434
1.870743 1.303531 -0.846112
1.873382 1.344853 -0.833993
1.879960 1.336953 -0.796114
1.900282 1.336708 -0.799708
1.893704 1.344608 -0.837587
1.896296 1.385647 -0.824666
1.903002 1.376935 -0.788449
1.879977 1.336937 -0.796016
1.873399 1.344837 -0.833896
1.875991 1.385876 -0.820975
1.882697 1.377164 -0.784757
1.902984 1.377026 -0.788549
1.896278 1.385738 -0.824767
1.898836 1.426763 -0.811641
1.905672 1.417244 -0.777189
1.882720 1.377154 -0.784633
1.876014 1.385866 -0.820850
1.878572 1.426891 -0.807725
1.885408 1.417372 -0.773273
1.905671 1.417301 -0.777196
1.898835 1.426821 -0.811647
1.902144 1.467060 -0.796442
1.908225 1.457075 -0.764272
1.885415 1.417395 -0.773240
1.878578 1.426915 -0.807692
1.881887 1.467154 -0.792487
1.887969 1.457168 -0.760317
1.908243 1.457083 -0.764181
1.902161 1.467068 -0.796351
1.905549 1.507080 -0.780627
1.910922 1.496647 -0.750830
1.887957 1.457240 -0.760379
1.881876 1.467226 -0.792549
1.885264 1.507238 -0.776826
1.890636 1.496805 -0.747029
1.910902 1.496828 -0.750932
1.905530 1.507261 -0.780728
1.907782 1.547390 -0.765028
1.914304 1.535740 -0.735826
1.890662 1.496703 -0.746898
1.885289 1.507136 -0.776694
1.887541 1.547266 -0.760994
1.894063 1.535616 -0.731792
1.914245 1.535711 -0.736100
1.907724 1.547361 -0.765302
1.911714 1.586340 -0.747264
1.918082 1.574258 -0.720215
1.894128 1.535723 -0.731486
1.887607 1.547373 -0.760687
1.891597 1.586351 -0.742650
1.897965 1.574270 -0.715601
1.918055 1.574246 -0.720328
1.911687 1.586327 -0.747377
1.916491 1.624520 -0.727931
1.922289 1.612731 -0.704369
1.898000 1.574359 -0.715453
1.891632 1.586441 -0.742502
1.896436 1.624633 -0.723057
1.902234 1.612844 -0.699494
1.922257 1.612730 -0.704497
1.916459 1.624519 -0.728060
1.921981 1.662015 -0.707387
1.926913 1.651189 -0.688626
1.902276 1.612921 -0.699330
1.896478 1.624710 -0.722892
1.902000 1.662206 -0.702219
1.906932 1.651380 -0.683458
1.917864 1.655197 -0.695532
1.935139 1.650236 -0.695433
1.931128 1.612546 -0.711834
1.913208 1.616738 -0.711404
1.916004 1.647356 -0.676531
1.933278 1.642395 -0.676432
1.929268 1.604705 -0.692833
1.911348 1.608897 -0.692403
1.912925 1.616676 -0.711453
1.930845 1.612484 -0.711883
1.927010 1.574538 -0.727713
1.908691 1.578191 -0.727412
1.911623 1.608883 -0.692385
1.929543 1.604691 -0.692816
1.925708 1.566745 -0.708646
1.907389 1.570398 -0.708344
1.908695 1.578104 -0.727447
1.927015 1.574451 -0.727748
1.923403 1.536410 -0.743225
1.904859 1.539557 -0.743332
1.907377 1.570409 -0.708341
1.925696 1.566756 -0.708642
1.922084 1.528714 -0.724120
1.903540 1.531862 -0.724226
1.904800 1.539387 -0.743403
1.923344 1.536239 -0.743296
1.920217 1.497969 -0.758451
1.901399 1.500474 -0.758508
1.903591 1.531955 -0.724186
1.922135 1.528808 -0.724079
1.919008 1.490537 -0.739234
1.900190 1.493043 -0.739291
1.901201 1.500017 -0.758684
1.920019 1.497511 -0.758627
1.916885 1.458605 -0.772003
1.898521 1.460453 -0.772035
1.900382 1.493422 -0.739144
1.919200 1.490916 -0.739087
1.916066 1.452010 -0.752463
1.897703 1.453858 -0.752495
1.898389 1.460312 -0.772086
1.916753 1.458464 -0.772055
1.913703 1.419395 -0.784983
1.895835 1.420539 -0.785010
1.897830 1.453920 -0.752470
1.916193 1.452072 -0.752438
1.913144 1.413003 -0.765366
1.895276 1.414146 -0.765393
1.895781 1.420078 -0.785150
1.913649 1.418935 -0.785123
1.911605 1.379220 -0.796198
1.893093 1.379860 -0.796510
1.895324 1.414528 -0.765277
1.913192 1.413384 -0.765250
1.911148 1.373669 -0.776325
1.892636 1.374310 -0.776636
1.893130 1.379806 -0.796524
1.911642 1.379166 -0.796213
1.909550 1.339424 -0.807298
1.890411 1.339579 -0.807783
1.892593 1.374284 -0.776644
1.911105 1.373643 -0.776333
1.909013 1.333902 -0.787419
1.889874 1.334057 -0.787903
1.890566 1.339230 -0.807869
1.909704 1.339075 -0.807384
1.907386 1.299002 -0.817005
1.887944 1.298723 -0.818190
1.889715 1.334326 -0.787839
1.908854 1.334170 -0.787354
1.906535 1.294097 -0.796975
1.887093 1.293818 -0.798160
1.888185 1.298486 -0.818232
