1.796657 1.416822 -0.766426
1.814521 1.426238 -0.764611
1.817793 1.421465 -0.775418
1.803684 1.411710 -0.777805
1.802513 1.405338 -0.758591
1.820377 1.414754 -0.756776
1.823649 1.409981 -0.767583
1.809540 1.400227 -0.769970
1.814304 1.426577 -0.763858
1.832175 1.435995 -0.762034
1.831779 1.431355 -0.772144
1.817575 1.421804 -0.774666
1.820627 1.414434 -0.757524
1.838498 1.423852 -0.755700
1.838102 1.419212 -0.765811
1.823898 1.409661 -0.768332
1.836885 1.436611 -0.762005
1.853973 1.431633 -0.764296
1.851179 1.427802 -0.773789
1.836489 1.431971 -0.772115
1.833819 1.423241 -0.755729
1.850907 1.418262 -0.758020
1.848113 1.414432 -0.767512
1.833423 1.418601 -0.765839
1.855489 1.431138 -0.764207
1.872280 1.420451 -0.768147
1.867602 1.419063 -0.776710
1.852695 1.427307 -0.773700
1.849422 1.418743 -0.758114
1.866214 1.408057 -0.762054
1.861536 1.406668 -0.770617
1.846629 1.414913 -0.767607
1.765948 1.439558 -0.747129
1.765607 1.435440 -0.735957
1.768505 1.462660 -0.725882
1.769673 1.466868 -0.737747
1.780908 1.437639 -0.746842
1.780566 1.433521 -0.735671
1.783465 1.460741 -0.725596
1.784632 1.464949 -0.737461
1.769717 1.467046 -0.738165
1.768550 1.462838 -0.726300
1.771463 1.490026 -0.716242
1.773447 1.494377 -0.728782
1.784594 1.464826 -0.737023
1.783427 1.460618 -0.725158
1.786340 1.487806 -0.715100
1.788324 1.492157 -0.727640
1.773502 1.494514 -0.729115
1.771518 1.490164 -0.716575
1.774446 1.517275 -0.706363
1.777068 1.521683 -0.719343
1.788276 1.492074 -0.727287
1.786292 1.487723 -0.714747
1.789219 1.514834 -0.704534
1.791841 1.519242 -0.717514
1.777053 1.521713 -0.719170
1.774432 1.517305 -0.706190
1.778069 1.543451 -0.693826
1.779566 1.547981 -0.706829
1.791862 1.519265 -0.717665
1.789240 1.514858 -0.704685
1.792878 1.541003 -0.692321
1.794374 1.545533 -0.705323
1.779495 1.547751 -0.706231
1.777999 1.543221 -0.693229
1.781723 1.569356 -0.680862
1.781999 1.574014 -0.693894
1.794451 1.545815 -0.705896
1.792955 1.541285 -0.692894
1.796679 1.567420 -0.680527
1.796956 1.572078 -0.693559
1.782024 1.574198 -0.693585
1.781748 1.569540 -0.680552
1.785769 1.596210 -0.669476
1.786411 1.600612 -0.682123
1.796938 1.571946 -0.693845
1.796662 1.567289 -0.680813
1.800682 1.593959 -0.669737
1.801325 1.598360 -0.682384
1.786454 1.600860 -0.682439
1.785812 1.596459 -0.669793
1.789870 1.623137 -0.658751
1.791414 1.627139 -0.670882
1.801291 1.598165 -0.682044
1.800648 1.593763 -0.669398
1.804707 1.620442 -0.658355
1.806251 1.624443 -0.670487
1.754140 1.281591 -0.793507
1.753198 1.291341 -0.777267
1.754857 1.320593 -0.771015
1.755256 1.313755 -0.786430
1.769155 1.280670 -0.792388
1.768213 1.290421 -0.776149
1.769872 1.319672 -0.769896
1.770271 1.312834 -0.785312
1.755266 1.313988 -0.786322
1.754867 1.320826 -0.770906
1.757014 1.349709 -0.763272
1.757511 1.345732 -0.778171
1.770264 1.312662 -0.785406
1.769865 1.319501 -0.769990
1.772013 1.348384 -0.762357
1.772509 1.344407 -0.777255
1.757533 1.345936 -0.778201
1.757037 1.349913 -0.763302
1.759652 1.378625 -0.755071
1.760462 1.377313 -0.768768
1.772492 1.344264 -0.777208
1.771996 1.348241 -0.762310
1.774611 1.376953 -0.754079
1.775421 1.375641 -0.767775
1.760459 1.377366 -0.768623
1.759650 1.378678 -0.754926
1.762766 1.407037 -0.745766
1.763239 1.408486 -0.758329
1.775429 1.375647 -0.767901
1.774619 1.376959 -0.754205
1.777736 1.405317 -0.745044
1.778208 1.406766 -0.757607
1.763220 1.408387 -0.758044
1.762747 1.406938 -0.745481
1.765577 1.435184 -0.735910
1.765919 1.439301 -0.747081
1.778233 1.406924 -0.757872
1.777760 1.405475 -0.745309
1.780590 1.433721 -0.735738
1.780931 1.437839 -0.746910
1.754121 1.280634 -0.793115
1.753616 1.275197 -0.754579
1.752786 1.288114 -0.756910
1.753180 1.290385 -0.776875
1.769172 1.281591 -0.792757
1.768667 1.276154 -0.754222
1.767837 1.289071 -0.756553
1.768230 1.291342 -0.776518
1.897015 1.442732 -0.770632
1.898721 1.469672 -0.760958
1.915778 1.468803 -0.762003
1.913533 1.442077 -0.771291
1.897506 1.437676 -0.756428
1.899213 1.464617 -0.746754
1.916270 1.463748 -0.747798
1.914024 1.437022 -0.757087
1.898609 1.469708 -0.760940
1.900324 1.496623 -0.751270
1.917924 1.495583 -0.752666
1.915666 1.468839 -0.761985
1.899329 1.464634 -0.746752
1.901044 1.491549 -0.737082
1.918645 1.490509 -0.738479
1.916386 1.463765 -0.747797
1.900228 1.496701 -0.751236
1.902119 1.523553 -0.741402
1.920232 1.522336 -0.743147
1.917828 1.495662 -0.752632
1.901145 1.491525 -0.737097
1.903036 1.518377 -0.727263
1.921148 1.517160 -0.729008
1.918745 1.490485 -0.738493
1.902045 1.523734 -0.741328
1.904462 1.550349 -0.730982
1.922931 1.548953 -0.733052
1.920158 1.522517 -0.743074
1.903114 1.518250 -0.727317
1.905531 1.544865 -0.716970
1.924000 1.543469 -0.719040
1.921227 1.517033 -0.729062
1.904379 1.550378 -0.730964
1.906788 1.577000 -0.720623
1.925612 1.575420 -0.723024
1.922848 1.548982 -0.733034
1.905619 1.544889 -0.716968
1.908027 1.571511 -0.706627
1.926852 1.569931 -0.709028
1.924088 1.543493 -0.719038
1.906874 1.577311 -0.720501
1.909740 1.603658 -0.709377
1.927196 1.601676 -0.711369
1.925698 1.575730 -0.722902
1.907946 1.571254 -0.706727
1.910813 1.597601 -0.695604
1.928268 1.595619 -0.697595
1.926771 1.569673 -0.709128
1.910399 1.603837 -0.709316
1.912969 1.630223 -0.698371
1.929201 1.627151 -0.698138
1.927854 1.601855 -0.711308
1.910158 1.597475 -0.695641
1.912728 1.623861 -0.684696
1.928961 1.620788 -0.684463
1.927614 1.595492 -0.697633
1.886722 1.438081 -0.761741
1.888749 1.465315 -0.752094
1.892534 1.468857 -0.757416
1.890827 1.441916 -0.767091
1.899567 1.434653 -0.754613
1.901595 1.461888 -0.744966
1.905379 1.465429 -0.750289
1.903673 1.438489 -0.759963
1.888641 1.465291 -0.751903
1.890686 1.492537 -0.742216
1.894141 1.495748 -0.747556
1.892426 1.468833 -0.757226
1.901707 1.461966 -0.745137
1.903751 1.489212 -0.735450
1.907207 1.492422 -0.740789
1.905491 1.465507 -0.750460
1.890623 1.492562 -0.742081
1.892564 1.519683 -0.732168
1.895970 1.522624 -0.737587
1.894079 1.495772 -0.747420
1.903817 1.489242 -0.735566
1.905758 1.516363 -0.725652
1.909164 1.519304 -0.731071
1.907273 1.492452 -0.740905
1.892641 1.519887 -0.732212
1.894183 1.546499 -0.720836
1.898463 1.549443 -0.727285
1.896046 1.522828 -0.737631
1.905686 1.516213 -0.725587
1.907227 1.542825 -0.714211
1.911508 1.545769 -0.720660
1.909091 1.519154 -0.731006
1.894320 1.546598 -0.721040
1.895845 1.573210 -0.709689
1.901008 1.576165 -0.717148
1.898600 1.549542 -0.727489
1.907095 1.542779 -0.713985
1.908620 1.569391 -0.702634
1.913783 1.572346 -0.710093
1.911375 1.545723 -0.720434
1.895882 1.573498 -0.709587
1.898751 1.599888 -0.698006
1.903912 1.602800 -0.705923
1.901045 1.576453 -0.717047
1.908587 1.569156 -0.702713
1.911457 1.595546 -0.691131
1.916618 1.598458 -0.699048
1.913751 1.572111 -0.710172
1.898503 1.599797 -0.697568
1.901885 1.625993 -0.685699
1.906234 1.629095 -0.694539
1.903664 1.602709 -0.705485
1.911710 1.595689 -0.691547
1.915092 1.621886 -0.679678
1.919441 1.624988 -0.688518
1.916871 1.598602 -0.699464
1.772842 1.441149 -0.754066
1.776566 1.468459 -0.744684
1.805857 1.468145 -0.747144
1.802769 1.441164 -0.756748
1.774045 1.436051 -0.739919
1.777769 1.463361 -0.730538
1.807060 1.463047 -0.732997
1.803971 1.436066 -0.742602
1.776629 1.468471 -0.744685
1.780359 1.495802 -0.735302
1.808949 1.495133 -0.737621
1.805920 1.468156 -0.747145
1.777713 1.463404 -0.730518
1.781443 1.490735 -0.721135
1.810033 1.490066 -0.723454
1.807004 1.463089 -0.732978
1.780414 1.495920 -0.735263
1.783980 1.523088 -0.725490
1.811967 1.522167 -0.727691
1.809004 1.495250 -0.737583
1.781394 1.490672 -0.721154
1.784960 1.517840 -0.711382
1.812946 1.516920 -0.713582
1.809984 1.490002 -0.723474
1.783975 1.523672 -0.725246
1.786487 1.549940 -0.712904
1.814714 1.549393 -0.715493
1.811962 1.522752 -0.727446
1.784971 1.517310 -0.711605
1.787483 1.543577 -0.699263
1.815710 1.543030 -0.701852
1.812957 1.516389 -0.713805
1.786337 1.549954 -0.712885
1.788841 1.576216 -0.700548
1.817296 1.576136 -0.703670
1.814563 1.549406 -0.715474
1.787639 1.543617 -0.699258
1.790143 1.569879 -0.686921
1.818598 1.569799 -0.690043
1.815866 1.543070 -0.701846
1.788774 1.576181 -0.700558
1.793161 1.602595 -0.689096
1.821149 1.602402 -0.692052
1.817229 1.576101 -0.703679
1.790216 1.569967 -0.686888
1.794603 1.596381 -0.675426
1.822591 1.596188 -0.678383
1.818671 1.569887 -0.690010
1.793193 1.602653 -0.689073
1.798153 1.628931 -0.677515
1.825156 1.628707 -0.680339
1.821181 1.602459 -0.692030
1.794580 1.596376 -0.675426
1.799540 1.622655 -0.663868
1.826543 1.622431 -0.666692
1.822568 1.596183 -0.678383
1.802793 1.441219 -0.756730
1.805881 1.468199 -0.747126
1.835153 1.467888 -0.749669
1.832727 1.441245 -0.759389
1.804007 1.436011 -0.742625
1.807095 1.462991 -0.733021
1.836368 1.462680 -0.735564
1.833942 1.436037 -0.745284
1.805936 1.468211 -0.747126
1.808965 1.495188 -0.737603
1.837544 1.494548 -0.739956
1.835208 1.467900 -0.749669
1.807046 1.463033 -0.733001
1.810075 1.490010 -0.723478
1.838654 1.489370 -0.725831
1.836318 1.462722 -0.735545
1.809025 1.495290 -0.737569
1.811987 1.522207 -0.727677
1.839959 1.521293 -0.729911
1.837604 1.494651 -0.739922
1.810020 1.489961 -0.723492
1.812983 1.516878 -0.713600
1.840954 1.515963 -0.715834
1.838600 1.489321 -0.725845
1.811949 1.522617 -0.727506
1.814701 1.549259 -0.715553
1.842908 1.548805 -0.718327
1.839920 1.521703 -0.729740
1.813027 1.516522 -0.713750
1.815779 1.543163 -0.701797
1.843986 1.542709 -0.704571
1.840998 1.515607 -0.715984
1.814543 1.549267 -0.715535
1.817276 1.575997 -0.703731
1.845689 1.575948 -0.706945
1.842750 1.548813 -0.718309
1.815943 1.543208 -0.701791
1.818675 1.569938 -0.689987
1.847088 1.569890 -0.693201
1.844150 1.542754 -0.704566
1.817249 1.576152 -0.703658
1.821169 1.602453 -0.692031
1.849151 1.602261 -0.694968
1.845663 1.576104 -0.706872
1.818708 1.569836 -0.690037
1.822627 1.596137 -0.678410
1.850610 1.595945 -0.681347
1.847121 1.569788 -0.693250
1.821225 1.602478 -0.692026
1.825200 1.628725 -0.680335
1.852625 1.628402 -0.683139
1.849207 1.602286 -0.694962
1.822579 1.596164 -0.678392
1.826554 1.622412 -0.666702
1.853979 1.622089 -0.669506
1.850561 1.595973 -0.681329
1.832763 1.441247 -0.759391
1.835189 1.467890 -0.749672
1.864600 1.467141 -0.752538
1.862623 1.440276 -0.762213
1.833965 1.436035 -0.745287
1.836391 1.462678 -0.735567
1.865803 1.461929 -0.738433
1.863825 1.435065 -0.748108
1.835162 1.467923 -0.749657
1.837498 1.494572 -0.739943
1.866571 1.494008 -0.742794
1.864573 1.467175 -0.752523
1.836423 1.462698 -0.735562
1.838759 1.489346 -0.725849
1.867832 1.488782 -0.728700
1.865834 1.461949 -0.738428
1.837474 1.494660 -0.739908
1.839828 1.521302 -0.729897
1.868625 1.520958 -0.732806
1.866547 1.494096 -0.742759
1.838788 1.489311 -0.725864
1.841142 1.515953 -0.715854
1.869939 1.515610 -0.718763
1.867861 1.488748 -0.728716
1.839821 1.521628 -0.729764
1.842809 1.548730 -0.718351
1.870957 1.548189 -0.721321
1.868618 1.521285 -0.732673
1.841153 1.515680 -0.715965
1.844142 1.542782 -0.704553
1.872289 1.542242 -0.707522
1.869950 1.515337 -0.718874
1.842812 1.548751 -0.718343
1.845750 1.575886 -0.706978
1.873310 1.575104 -0.709956
1.870959 1.548210 -0.721312
1.844145 1.542816 -0.704539
1.847083 1.569951 -0.693174
1.874643 1.569168 -0.696153
1.872292 1.542275 -0.707508
1.845738 1.576102 -0.706880
1.849227 1.602260 -0.694976
1.876591 1.601578 -0.698166
1.873298 1.575319 -0.709859
1.847101 1.569789 -0.693248
1.850589 1.595946 -0.681344
1.877954 1.595264 -0.684534
1.874661 1.569006 -0.696227
1.849268 1.602356 -0.694935
1.852686 1.628472 -0.683112
1.880119 1.627665 -0.685829
1.876632 1.601674 -0.698125
1.850555 1.595902 -0.681361
1.853973 1.622018 -0.669539
1.881407 1.621211 -0.672255
1.877920 1.595220 -0.684551
1.862636 1.440238 -0.762228
1.864613 1.467103 -0.752553
1.894537 1.466169 -0.755590
1.892509 1.438934 -0.765237
1.863872 1.435101 -0.748099
1.865849 1.461965 -0.738424
1.895773 1.461031 -0.741461
1.893746 1.433797 -0.751109
1.864575 1.467144 -0.752534
1.866574 1.493977 -0.742806
1.896544 1.493456 -0.745885
1.894499 1.466210 -0.755572
1.865891 1.461979 -0.738422
1.867889 1.488812 -0.728694
1.897860 1.488291 -0.731773
1.895815 1.461045 -0.741460
1.866539 1.494061 -0.742772
1.868617 1.520923 -0.732819
1.898451 1.520661 -0.735937
1.896510 1.493540 -0.745850
1.867927 1.488782 -0.728709
1.870005 1.515644 -0.718756
1.899839 1.515383 -0.721874
1.897898 1.488261 -0.731788
1.868627 1.521289 -0.732672
1.870966 1.548193 -0.721320
1.900002 1.547639 -0.724414
1.898460 1.521027 -0.735791
1.869999 1.515332 -0.718881
1.872338 1.542237 -0.707529
1.901375 1.541682 -0.710623
1.899833 1.515070 -0.722000
1.870980 1.548218 -0.721311
1.873331 1.575111 -0.709955
1.901542 1.574276 -0.713054
1.900017 1.547663 -0.724405
1.872328 1.542266 -0.707516
1.874678 1.569159 -0.696160
1.902889 1.568323 -0.699258
1.901364 1.541711 -0.710610
1.873322 1.575266 -0.709886
1.876615 1.601524 -0.698193
1.904402 1.600820 -0.701403
1.901533 1.574430 -0.712984
1.874692 1.569058 -0.696206
1.877985 1.595316 -0.684513
1.905773 1.594612 -0.687724
1.902903 1.568222 -0.699305
1.876538 1.601682 -0.698111
1.880025 1.627673 -0.685815
1.907707 1.627174 -0.689453
1.904325 1.600977 -0.701322
1.878069 1.595211 -0.684571
1.881556 1.621202 -0.672275
1.909238 1.620703 -0.675913
1.905856 1.594506 -0.687781
1.888049 1.280765 -0.815636
1.889109 1.307828 -0.808831
1.905712 1.307409 -0.809665
1.904128 1.280332 -0.816166
1.888565 1.277144 -0.801001
1.889625 1.304206 -0.794196
1.906228 1.303787 -0.795030
1.904644 1.276711 -0.801531
1.889094 1.307919 -0.808807
1.890467 1.334962 -0.802018
1.907115 1.334475 -0.802666
1.905697 1.307500 -0.809642
1.889642 1.304170 -0.794206
1.891015 1.331213 -0.787417
1.907663 1.330726 -0.788064
1.906245 1.303751 -0.795040
1.890733 1.335085 -0.801991
1.892750 1.362091 -0.795179
1.908456 1.361370 -0.794902
1.907380 1.334597 -0.802639
1.890752 1.331145 -0.787430
1.892769 1.358151 -0.780618
1.908475 1.357429 -0.780341
1.907400 1.330657 -0.788077
1.893009 1.362254 -0.795129
1.894311 1.389001 -0.787355
1.910222 1.388302 -0.786962
1.908715 1.361532 -0.794852
1.892513 1.358042 -0.780653
1.893815 1.384789 -0.772878
1.909726 1.384091 -0.772485
1.908219 1.357321 -0.780376
1.894221 1.389084 -0.787333
1.895780 1.415653 -0.779090
1.911998 1.414969 -0.779203
1.910132 1.388385 -0.786940
1.893909 1.384760 -0.772884
1.895468 1.411329 -0.764641
1.911686 1.410645 -0.764754
1.909820 1.384061 -0.772491
1.895545 1.415700 -0.779077
1.897178 1.442360 -0.770758
1.913696 1.441706 -0.771417
1.911763 1.415016 -0.779190
1.895707 1.411335 -0.764638
1.897340 1.437994 -0.756320
1.913858 1.437340 -0.756979
1.911925 1.410650 -0.764751
1.879255 1.275519 -0.808165
1.879411 1.302617 -0.800802
1.882812 1.307101 -0.805099
1.881752 1.280038 -0.811904
1.892345 1.273348 -0.800990
1.892502 1.300446 -0.793627
1.895902 1.304930 -0.797923
1.894842 1.277867 -0.804728
1.879701 1.302823 -0.801225
1.880152 1.329894 -0.793819
1.884474 1.334351 -0.798733
1.883101 1.307307 -0.805522
1.892214 1.300293 -0.793190
1.892666 1.327364 -0.785783
1.896988 1.331821 -0.790697
1.895615 1.304777 -0.797486
1.880266 1.330142 -0.793908
1.881714 1.357154 -0.786386
1.886605 1.361605 -0.792011
1.884588 1.334599 -0.798823
1.892554 1.327170 -0.785679
1.894002 1.354182 -0.778156
1.898893 1.358633 -0.783781
1.896876 1.331627 -0.790593
1.881724 1.357197 -0.786385
1.883163 1.384207 -0.778650
1.887917 1.388395 -0.784235
1.886615 1.361648 -0.792010
1.893995 1.354193 -0.778142
1.895434 1.381204 -0.770407
1.900188 1.385391 -0.775992
1.898886 1.358644 -0.783767
1.883110 1.384348 -0.778517
1.884944 1.411214 -0.770407
1.889424 1.415105 -0.775859
1.887865 1.388536 -0.784102
1.895489 1.381116 -0.770525
1.897323 1.407982 -0.762415
1.901803 1.411873 -0.767867
1.900244 1.385304 -0.776110
1.884848 1.411243 -0.770243
1.886856 1.437958 -0.762026
1.890961 1.441794 -0.767376
1.889328 1.415134 -0.775694
1.897422 1.408006 -0.762563
1.899430 1.434722 -0.754347
1.903535 1.438557 -0.759696
1.901902 1.411898 -0.768015
1.797869 1.301748 -0.800822
1.787531 1.322201 -0.794151
1.793809 1.326925 -0.800822
1.801539 1.308183 -0.806664
1.808791 1.303509 -0.790568
1.798453 1.323962 -0.783897
1.804731 1.328686 -0.790567
1.812461 1.309944 -0.796409
1.787601 1.323312 -0.794295
1.781398 1.344575 -0.787574
1.789439 1.347346 -0.795213
1.793879 1.328036 -0.800966
1.798369 1.322891 -0.783740
1.792166 1.344154 -0.777018
1.800207 1.346925 -0.784657
1.804647 1.327615 -0.790411
1.781355 1.346179 -0.787213
1.782962 1.369016 -0.780454
1.790604 1.369187 -0.789024
1.789396 1.348949 -0.794852
1.792205 1.342592 -0.777366
1.793812 1.365430 -0.770607
1.801454 1.365601 -0.779177
1.800246 1.345363 -0.785005
1.782788 1.368997 -0.780262
1.784604 1.391787 -0.773579
1.791564 1.389444 -0.783072
1.790429 1.369168 -0.788832
1.793989 1.365492 -0.770786
1.795805 1.388282 -0.764103
1.802765 1.385938 -0.773596
1.801631 1.365663 -0.779356
1.785350 1.393624 -0.773366
1.794712 1.414634 -0.767044
1.801739 1.409523 -0.778423
1.792310 1.391280 -0.782860
1.795070 1.386486 -0.764303
1.804432 1.407496 -0.757981
1.811459 1.402385 -0.769360
1.802030 1.384143 -0.773797
1.771996 1.441170 -0.753936
1.785051 1.427430 -0.761705
1.779474 1.399148 -0.771278
1.769297 1.410256 -0.764899
1.774866 1.435960 -0.740074
1.787921 1.422220 -0.747842
1.782343 1.393937 -0.757416
1.772167 1.405046 -0.751036
1.785116 1.427466 -0.761705
1.798182 1.413724 -0.769429
1.788819 1.392713 -0.775751
1.779539 1.399183 -0.771278
1.787879 1.422162 -0.747856
1.800944 1.408420 -0.755580
1.791582 1.387410 -0.761902
1.782301 1.393880 -0.757429
1.769143 1.410013 -0.764953
1.779319 1.398905 -0.771332
1.776491 1.373976 -0.778977
1.766364 1.378894 -0.775247
1.772315 1.405231 -0.751002
1.782491 1.394122 -0.757381
1.779662 1.369194 -0.765026
1.769535 1.374111 -0.761296
1.779303 1.398769 -0.771374
1.788584 1.392300 -0.775846
1.786768 1.369510 -0.782530
1.776475 1.373841 -0.779018
1.782527 1.394244 -0.757349
1.791808 1.387775 -0.761822
1.789992 1.364985 -0.768505
1.779698 1.369316 -0.764994
1.766476 1.378719 -0.775329
1.776603 1.373801 -0.779060
1.774376 1.346847 -0.787126
1.763548 1.347342 -0.784762
1.769417 1.374229 -0.761231
1.779544 1.369312 -0.764962
1.777317 1.342358 -0.773029
1.766489 1.342852 -0.770664
1.776654 1.373768 -0.779080
1.786948 1.369438 -0.782592
1.785341 1.346600 -0.789351
1.774427 1.346814 -0.787147
1.779514 1.369340 -0.764947
1.789808 1.365009 -0.768458
1.788201 1.342171 -0.775218
1.777287 1.342385 -0.773014
1.763593 1.346988 -0.784875
1.774421 1.346493 -0.787239
1.776260 1.319954 -0.794653
1.761348 1.315244 -0.793026
1.766441 1.343148 -0.770568
1.777269 1.342653 -0.772932
1.779108 1.316113 -0.780346
1.764195 1.311403 -0.778719
1.774490 1.346466 -0.787260
1.785404 1.346252 -0.789464
1.791607 1.324989 -0.796186
1.776330 1.319926 -0.794674
1.777225 1.342685 -0.772915
1.788139 1.342471 -0.775119
1.794342 1.321208 -0.781841
1.779065 1.316145 -0.780329
1.761425 1.314949 -0.793114
1.776338 1.319659 -0.794741
1.780844 1.293583 -0.801616
1.760310 1.282784 -0.800190
1.764119 1.311640 -0.778645
1.779032 1.316350 -0.780273
1.783538 1.290274 -0.787147
1.763004 1.279475 -0.785722
1.776409 1.319706 -0.794744
1.791687 1.324769 -0.796255
1.802025 1.304316 -0.802926
1.780916 1.293630 -0.801618
1.778996 1.316318 -0.780273
1.794274 1.321381 -0.781785
1.804612 1.300928 -0.788456
1.783503 1.290243 -0.787148
1.892682 1.439348 -0.765086
1.880748 1.428320 -0.768576
1.857449 1.434306 -0.765031
1.862809 1.440652 -0.762076
1.893562 1.433347 -0.751273
1.881628 1.422319 -0.754764
1.858329 1.428306 -0.751218
1.863689 1.434651 -0.748264
1.881017 1.428072 -0.768690
1.869091 1.417021 -0.772111
1.852300 1.427707 -0.768171
1.857718 1.434059 -0.765145
1.881341 1.422550 -0.754656
1.869415 1.411499 -0.758077
1.852624 1.422185 -0.754137
1.858042 1.428536 -0.751111
1.862870 1.441563 -0.761608
1.857511 1.435217 -0.764563
1.834024 1.438178 -0.762087
1.833010 1.442533 -0.758787
1.863574 1.433746 -0.748725
1.858214 1.427401 -0.751680
1.834727 1.430361 -0.749204
1.833713 1.434717 -0.745904
1.857841 1.435112 -0.764635
1.852422 1.428761 -0.767661
1.835335 1.433739 -0.765371
1.834354 1.438073 -0.762159
1.857880 1.427495 -0.751615
1.852461 1.421143 -0.754641
1.835374 1.426122 -0.752350
1.834393 1.430455 -0.749139
1.832623 1.442440 -0.758811
1.833637 1.438084 -0.762111
1.809732 1.433366 -0.761644
1.802689 1.442413 -0.756152
1.834047 1.434810 -0.745876
1.835061 1.430454 -0.749176
1.811155 1.425736 -0.748709
1.804112 1.434783 -0.743217
1.833332 1.437906 -0.762173
1.834313 1.433572 -0.765384
1.816442 1.424155 -0.767209
1.809427 1.433187 -0.761706
1.835374 1.430619 -0.749123
1.836355 1.426286 -0.752335
1.818483 1.416868 -0.754159
1.811468 1.425901 -0.748656
1.802696 1.441918 -0.756420
1.809739 1.432871 -0.761912
1.785824 1.428164 -0.761507
1.772769 1.441904 -0.753738
1.804051 1.435273 -0.742946
1.811094 1.426226 -0.748438
1.787180 1.421518 -0.748032
1.774124 1.435258 -0.740264
1.809577 1.432726 -0.761964
1.816592 1.423694 -0.767466
1.798728 1.414278 -0.769282
1.785662 1.428019 -0.761558
1.811276 1.426347 -0.748400
1.818291 1.417315 -0.753903
1.800427 1.407898 -0.755718
1.787361 1.421640 -0.747994
1.885896 1.276391 -0.811858
1.874314 1.288999 -0.808545
1.879307 1.312019 -0.802393
1.886052 1.303488 -0.804495
1.885693 1.272483 -0.797290
1.874111 1.285091 -0.793977
1.879104 1.308111 -0.787825
1.885849 1.299580 -0.789927
1.874258 1.288948 -0.808559
1.862675 1.301557 -0.805230
1.873415 1.319203 -0.800721
1.879251 1.311968 -0.802407
1.874149 1.285162 -0.793958
1.862566 1.297771 -0.790629
1.873306 1.315417 -0.786119
1.879142 1.308182 -0.787805
1.891220 1.411847 -0.773607
1.884145 1.404363 -0.776084
1.881293 1.427534 -0.768881
1.893227 1.438562 -0.765390
1.891037 1.407389 -0.759197
1.883962 1.399906 -0.761674
1.881110 1.423077 -0.754471
1.893044 1.434105 -0.750980
1.884071 1.404402 -0.776072
1.877973 1.398158 -0.778194
1.869293 1.416522 -0.772290
1.881219 1.427573 -0.768869
1.884018 1.399849 -0.761691
1.877920 1.393605 -0.763813
1.869239 1.411969 -0.757909
1.881165 1.423020 -0.754488
1.864969 1.296146 -0.804174
1.850162 1.288673 -0.805825
1.847231 1.296943 -0.811353
1.860011 1.302973 -0.810141
1.860234 1.303174 -0.791695
1.845427 1.295701 -0.793345
1.842496 1.303971 -0.798874
1.855276 1.310001 -0.797662
1.849240 1.288368 -0.805928
1.834431 1.284178 -0.806698
1.833576 1.292680 -0.812125
1.846309 1.296638 -0.811456
1.846321 1.295994 -0.793244
1.831512 1.291804 -0.794014
1.830658 1.300306 -0.799441
1.843390 1.304264 -0.798773
1.830086 1.284073 -0.806125
1.815288 1.291381 -0.803800
1.816670 1.298826 -0.809467
1.829231 1.292575 -0.811552
1.835829 1.291911 -0.794586
1.821032 1.299219 -0.792261
1.822414 1.306663 -0.797929
1.834975 1.300413 -0.800013
1.815289 1.291497 -0.803877
1.800484 1.298806 -0.801548
1.804154 1.305240 -0.807389
1.816671 1.298941 -0.809544
1.821004 1.299117 -0.792179
1.806199 1.306426 -0.789850
1.809869 1.312860 -0.795692
1.822385 1.306561 -0.797847
1.776190 1.274031 -0.808293
1.789667 1.288986 -0.805686
1.810770 1.285286 -0.807114
1.803542 1.273887 -0.808816
1.776571 1.271306 -0.793461
1.790048 1.286261 -0.790854
1.811151 1.282561 -0.792282
1.803923 1.271162 -0.793984
1.803542 1.273589 -0.808865
1.810770 1.284988 -0.807163
1.831882 1.281283 -0.808581
1.830889 1.273458 -0.809388
1.803971 1.271456 -0.793938
1.811200 1.282855 -0.792236
1.832311 1.279150 -0.793653
1.831318 1.271325 -0.794461
1.830820 1.273427 -0.809390
1.831813 1.281252 -0.808583
1.852853 1.283726 -0.808870
1.858157 1.274284 -0.810635
1.831436 1.271356 -0.794461
1.832428 1.279181 -0.793653
1.853468 1.281655 -0.793941
1.858773 1.272213 -0.795706
1.858133 1.274681 -0.810568
1.852828 1.284123 -0.808803
1.873842 1.288461 -0.808661
1.885424 1.275853 -0.811974
1.858846 1.271820 -0.795774
1.853541 1.281262 -0.794009
1.874556 1.285601 -0.793867
1.886138 1.272992 -0.797180
1.789538 1.289085 -0.805662
1.803005 1.304055 -0.803092
1.817811 1.296746 -0.805421
1.810641 1.285386 -0.807091
1.790197 1.286187 -0.790873
1.803664 1.301156 -0.788303
1.818470 1.293848 -0.790632
1.811301 1.282487 -0.792301
1.810559 1.285059 -0.807143
1.817728 1.296419 -0.805474
1.832525 1.289111 -0.807799
1.831670 1.281354 -0.808561
1.811419 1.282803 -0.792253
1.818588 1.294164 -0.790583
1.833385 1.286856 -0.792908
1.832531 1.279098 -0.793671
1.832016 1.281317 -0.808579
1.832871 1.289074 -0.807816
1.847680 1.293264 -0.807046
1.853056 1.283791 -0.808866
1.832221 1.279133 -0.793654
1.833076 1.286891 -0.792892
1.847885 1.291081 -0.792122
1.853261 1.281608 -0.793942
1.853018 1.284301 -0.808773
1.847643 1.293775 -0.806953
1.862450 1.301248 -0.805302
1.874033 1.288639 -0.808631
1.853334 1.281106 -0.794034
1.847958 1.290580 -0.792214
1.862765 1.298053 -0.790563
1.874348 1.285445 -0.793892
1.759741 1.283959 -0.799677
1.780276 1.294758 -0.801103
1.787918 1.290474 -0.804981
1.774440 1.275519 -0.807589
1.763585 1.278265 -0.786248
1.784120 1.289064 -0.787673
1.791762 1.284781 -0.791551
1.778285 1.269826 -0.794159
1.780367 1.294740 -0.801136
1.801476 1.305426 -0.802444
1.788009 1.290456 -0.805014
1.784057 1.289104 -0.787639
1.805166 1.299789 -0.788947
1.791699 1.284820 -0.791517
1.758317 1.274372 -0.793599
1.773017 1.265932 -0.801511
1.770790 1.264600 -0.756832
1.757812 1.268935 -0.755063
1.764991 1.287836 -0.792285
1.779690 1.279397 -0.800196
1.777464 1.278065 -0.755517
1.764486 1.282399 -0.753749
1.787875 1.118670 -0.813195
1.786934 1.120523 -0.785801
1.786001 1.150548 -0.776818
1.788164 1.152022 -0.816700
1.802944 1.118763 -0.812500
1.802003 1.120616 -0.785106
1.801070 1.150641 -0.776123
1.803233 1.152115 -0.816005
1.788205 1.151301 -0.816695
1.786042 1.149827 -0.776813
1.783126 1.180587 -0.774205
1.784595 1.180205 -0.815645
1.803189 1.152898 -0.816005
1.801026 1.151423 -0.776123
1.798111 1.182183 -0.773514
1.799579 1.181802 -0.814954
1.784625 1.179931 -0.815532
1.783157 1.180312 -0.774091
1.778642 1.211017 -0.771366
1.779860 1.210749 -0.812420
1.799540 1.182136 -0.815063
1.798072 1.182518 -0.773623
1.793557 1.213222 -0.770898
1.794775 1.212955 -0.811952
1.779867 1.210702 -0.812421
1.778649 1.210969 -0.771367
1.773503 1.241216 -0.764830
1.775000 1.241434 -0.808260
1.794758 1.213064 -0.811943
1.793540 1.213331 -0.770889
1.788394 1.243577 -0.764353
1.789891 1.243796 -0.807783
1.775061 1.241121 -0.808354
1.773563 1.240902 -0.764924
1.766758 1.269790 -0.756519
1.768985 1.271122 -0.801198
1.789819 1.244170 -0.807676
1.788321 1.243951 -0.764247
1.781516 1.272839 -0.755842
1.783743 1.274171 -0.800521
1.737830 1.091876 -0.807697
1.734906 1.091699 -0.783242
1.762714 1.109173 -0.784582
1.764593 1.108463 -0.810500
1.745852 1.079132 -0.806797
1.742928 1.078956 -0.782342
1.770736 1.096429 -0.783682
1.772615 1.095720 -0.809600
1.764592 1.108457 -0.810571
1.762713 1.109167 -0.784653
1.790416 1.126894 -0.785972
1.791358 1.125041 -0.813367
1.772669 1.095759 -0.809533
1.770790 1.096469 -0.783615
1.798493 1.114196 -0.784935
1.799435 1.112343 -0.812329
1.795034 1.118002 -0.820363
1.791386 1.090174 -0.817663
1.766448 1.087504 -0.816225
1.768269 1.101418 -0.817567
1.795757 1.119360 -0.805357
1.792109 1.091532 -0.802657
1.767171 1.088863 -0.801219
1.768992 1.102777 -0.802561
1.768242 1.101414 -0.817566
1.766421 1.087500 -0.816224
1.741479 1.084826 -0.814763
1.768976 1.102765 -0.802559
1.767155 1.088851 -0.801217
1.742213 1.086178 -0.799756
1.734345 1.086196 -0.807896
1.732183 1.072351 -0.807061
1.730814 1.072720 -0.781950
1.731421 1.086020 -0.783441
1.749307 1.084781 -0.806595
1.747145 1.070936 -0.805759
1.745776 1.071305 -0.780649
1.746383 1.084605 -0.782140
1.791657 1.089401 -0.817562
1.791428 1.069348 -0.813058
1.765518 1.069783 -0.813454
1.766719 1.086732 -0.816124
1.791834 1.092266 -0.802752
1.791606 1.072212 -0.798249
1.765695 1.072648 -0.798644
1.766896 1.089596 -0.801315
1.766659 1.087323 -0.816213
1.765458 1.070375 -0.813543
1.739555 1.070804 -0.813917
1.741717 1.084650 -0.814753
1.766905 1.089003 -0.801224
1.765704 1.072054 -0.798554
1.739801 1.072484 -0.798928
1.741963 1.086329 -0.799763
1.906519 1.088918 -0.826412
1.896634 1.119436 -0.829962
1.913910 1.119926 -0.830373
1.923741 1.089527 -0.827176
1.906971 1.090722 -0.811442
1.897086 1.121241 -0.814993
1.914363 1.121731 -0.815404
1.924193 1.091331 -0.812206
1.896763 1.119644 -0.829988
1.889831 1.151003 -0.833099
1.906553 1.151206 -0.833155
1.914040 1.120133 -0.830399
1.896940 1.121095 -0.814974
1.890007 1.152455 -0.818085
1.906729 1.152658 -0.818141
1.914216 1.121585 -0.815385
1.889822 1.151881 -0.833134
1.886749 1.183759 -0.832442
1.903279 1.183789 -0.832785
1.906545 1.152084 -0.833190
1.890005 1.151639 -0.818052
1.886931 1.183516 -0.817361
1.903461 1.183547 -0.817703
1.906727 1.151842 -0.818108
1.886651 1.184548 -0.832388
1.885875 1.216519 -0.828552
1.902892 1.216441 -0.829053
1.903181 1.184578 -0.832731
1.887025 1.182791 -0.817411
1.886249 1.214763 -0.813574
1.903266 1.214685 -0.814075
1.903555 1.182821 -0.817753
1.885735 1.217190 -0.828439
1.886003 1.248751 -0.821696
1.903583 1.248617 -0.822772
1.902752 1.217112 -0.828940
1.886389 1.214156 -0.813677
1.886658 1.245717 -0.806934
1.904237 1.245583 -0.808010
1.903406 1.214078 -0.814178
1.886004 1.248745 -0.821697
1.887978 1.280405 -0.815713
1.904057 1.279972 -0.816243
1.903583 1.248611 -0.822773
1.886659 1.245786 -0.806920
1.888633 1.277445 -0.800936
1.904712 1.277012 -0.801466
1.904239 1.245652 -0.807996
1.906640 1.088704 -0.826386
1.923862 1.089312 -0.827150
1.927415 1.069900 -0.823951
1.911814 1.065173 -0.823441
1.906864 1.090884 -0.811462
1.924086 1.091493 -0.812225
1.927640 1.072081 -0.809027
1.912039 1.067354 -0.808517
1.901494 1.065212 -0.812550
1.896439 1.087323 -0.817077
1.900604 1.087779 -0.822814
1.905779 1.064249 -0.819869
1.913770 1.069238 -0.804762
1.908714 1.091350 -0.809290
1.912879 1.091806 -0.815026
1.918054 1.068275 -0.812081
1.791774 1.089152 -0.817510
1.819468 1.088741 -0.817495
1.820598 1.069586 -0.813027
1.791546 1.069098 -0.813006
1.791771 1.092516 -0.802805
1.819465 1.092106 -0.802790
1.820595 1.072951 -0.798322
1.791543 1.072463 -0.798301
1.819423 1.088706 -0.817487
1.847111 1.088278 -0.817657
1.849601 1.069751 -0.813349
1.820554 1.069551 -0.813019
1.819567 1.092141 -0.802799
1.847254 1.091713 -0.802970
1.849744 1.073186 -0.798661
1.820697 1.072986 -0.798331
1.846687 1.088339 -0.817654
1.874340 1.087986 -0.819242
1.878090 1.067593 -0.815213
1.849177 1.069811 -0.813345
1.847735 1.091652 -0.802975
1.875388 1.091299 -0.804563
1.879137 1.070906 -0.800534
1.850225 1.073124 -0.798666
1.874561 1.088088 -0.819277
1.902229 1.087784 -0.820553
1.907285 1.065673 -0.816026
1.878311 1.067696 -0.815248
1.875223 1.091194 -0.804530
1.902891 1.090890 -0.805806
1.907947 1.068779 -0.801279
1.878973 1.070801 -0.800501
1.776293 1.274340 -0.808231
1.803645 1.274196 -0.808754
1.808086 1.244774 -0.815409
1.782369 1.244339 -0.815387
1.776463 1.270954 -0.793532
1.803814 1.270810 -0.794055
1.808255 1.241388 -0.800710
1.782539 1.240953 -0.800688
1.803650 1.274128 -0.808770
1.830997 1.273997 -0.809293
1.833725 1.244640 -0.815711
1.808090 1.244705 -0.815424
1.803863 1.270878 -0.794040
1.831210 1.270747 -0.794564
1.833939 1.241390 -0.800982
1.808304 1.241456 -0.800695
1.830838 1.273875 -0.809315
1.858175 1.274732 -0.810560
1.858088 1.244697 -0.816327
1.833566 1.244518 -0.815732
1.831422 1.270870 -0.794544
1.858759 1.271727 -0.795789
1.858672 1.241692 -0.801556
1.834150 1.241513 -0.800961
1.858134 1.274580 -0.810587
1.885426 1.275752 -0.811993
1.882606 1.244798 -0.817196
1.858047 1.244545 -0.816355
1.858851 1.271880 -0.795763
1.886143 1.273052 -0.797169
1.883323 1.242098 -0.802372
1.858764 1.241845 -0.801531
1.782336 1.243689 -0.815508
1.808053 1.244124 -0.815530
1.811344 1.213956 -0.820258
1.787203 1.212956 -0.819668
1.782581 1.241542 -0.800578
1.808298 1.241977 -0.800600
1.811589 1.211809 -0.805328
1.787448 1.210810 -0.804739
1.808036 1.244271 -0.815507
1.833671 1.244205 -0.815793
1.835395 1.214093 -0.821059
1.811326 1.214103 -0.820235
1.808365 1.241831 -0.800624
1.834000 1.241765 -0.800911
1.835724 1.211653 -0.806177
1.811656 1.211663 -0.805352
1.833617 1.244312 -0.815774
1.858139 1.244491 -0.816368
1.858607 1.213998 -0.822008
1.835342 1.214200 -0.821040
1.834101 1.241659 -0.800932
1.858623 1.241838 -0.801526
1.859092 1.211345 -0.807166
1.835826 1.211547 -0.806198
1.858112 1.244550 -0.816357
1.882671 1.244803 -0.817198
1.882057 1.213825 -0.823049
1.858581 1.214057 -0.821996
1.858697 1.241779 -0.801540
1.883256 1.242032 -0.802381
1.882643 1.211054 -0.808232
1.859166 1.211286 -0.807179
1.787068 1.212607 -0.819707
1.811208 1.213606 -0.820297
1.814661 1.183287 -0.823619
1.791833 1.181788 -0.822818
1.787592 1.211099 -0.804707
1.811732 1.212098 -0.805297
1.815186 1.181780 -0.808619
1.792357 1.180280 -0.807818
1.811216 1.213659 -0.820292
1.835284 1.213650 -0.821116
1.837593 1.183190 -0.824549
1.814669 1.183341 -0.823614
1.811772 1.212046 -0.805304
1.835840 1.212037 -0.806128
1.838149 1.181577 -0.809561
1.815225 1.181728 -0.808626
1.835279 1.213665 -0.821115
1.858545 1.213463 -0.822083
1.860073 1.182617 -0.825537
1.837588 1.183206 -0.824547
1.835892 1.212021 -0.806132
1.859157 1.211819 -0.807100
1.860686 1.180972 -0.810554
1.838201 1.181561 -0.809564
1.858532 1.213473 -0.822081
1.882009 1.213241 -0.823134
1.882885 1.181948 -0.826698
1.860060 1.182627 -0.825535
1.859216 1.211808 -0.807104
1.882693 1.211576 -0.808156
1.883569 1.180282 -0.811721
1.860744 1.180962 -0.810558
1.791867 1.181212 -0.822856
1.814696 1.182712 -0.823657
1.817913 1.151884 -0.824467
1.795478 1.152308 -0.823907
1.792330 1.180796 -0.807784
1.815159 1.182295 -0.808585
1.818376 1.151468 -0.809395
1.795940 1.151892 -0.808835
1.814705 1.182630 -0.823659
1.837629 1.182480 -0.824594
1.840591 1.151289 -0.825028
1.817922 1.151803 -0.824469
1.815195 1.182377 -0.808584
1.838120 1.182226 -0.809519
1.841081 1.151035 -0.809953
1.818413 1.151549 -0.809394
1.837561 1.182430 -0.824592
1.860045 1.181841 -0.825582
1.863223 1.150644 -0.826065
1.840523 1.151239 -0.825026
1.838233 1.182275 -0.809523
1.860718 1.181686 -0.810513
1.863896 1.150489 -0.810996
1.841195 1.151084 -0.809957
1.860039 1.181831 -0.825582
1.882864 1.181151 -0.826745
1.886554 1.150058 -0.827152
1.863217 1.150633 -0.826065
1.860770 1.181696 -0.810515
1.883594 1.181016 -0.811678
1.887284 1.149923 -0.812085
1.863948 1.150499 -0.810998
1.795525 1.151272 -0.823868
1.817960 1.150848 -0.824428
1.819623 1.119593 -0.821100
1.795236 1.117920 -0.820363
1.795898 1.152866 -0.808872
1.818333 1.152442 -0.809432
1.819996 1.121187 -0.806105
1.795609 1.119514 -0.805367
1.817982 1.150826 -0.824426
1.840651 1.150312 -0.824985
1.844176 1.118841 -0.821591
1.819645 1.119571 -0.821099
1.818359 1.152464 -0.809435
1.841028 1.151949 -0.809994
1.844553 1.120479 -0.806600
1.820022 1.121209 -0.806108
1.840464 1.150303 -0.824977
1.863164 1.149708 -0.826016
1.868374 1.118790 -0.822983
1.843989 1.118832 -0.821582
1.841262 1.151957 -0.810004
1.863962 1.151362 -0.811043
1.869172 1.120444 -0.808011
1.844788 1.120486 -0.806610
1.863200 1.149749 -0.826022
1.886537 1.149174 -0.827109
1.893482 1.118556 -0.824316
1.868410 1.118831 -0.822990
1.863974 1.151321 -0.811039
1.887311 1.150745 -0.812126
1.894256 1.120128 -0.809334
1.869184 1.120402 -0.808007
1.795337 1.117893 -0.820362
1.819724 1.119566 -0.821099
1.819382 1.089654 -0.817646
1.791688 1.090065 -0.817661
1.795506 1.119480 -0.805361
1.819894 1.121153 -0.806099
1.819552 1.091241 -0.802646
1.791858 1.091652 -0.802661
1.819720 1.119445 -0.821086
1.844252 1.118715 -0.821578
1.847066 1.089106 -0.817804
1.819378 1.089534 -0.817633
1.819950 1.121273 -0.806114
1.844482 1.120543 -0.806606
1.847296 1.090934 -0.802832
1.819609 1.091362 -0.802661
1.843957 1.118640 -0.821557
1.868341 1.118598 -0.822958
1.874424 1.088679 -0.819371
1.846771 1.089032 -0.817783
1.844829 1.120617 -0.806628
1.869214 1.120575 -0.808029
1.875296 1.090655 -0.804442
1.847643 1.091008 -0.802854
1.868424 1.118592 -0.822962
1.893496 1.118317 -0.824289
1.902175 1.088368 -0.820651
1.874507 1.088672 -0.819375
1.869183 1.120581 -0.808028
1.894255 1.120306 -0.809355
1.902934 1.090358 -0.805717
1.875266 1.090662 -0.804441
1.867339 1.298365 -0.803663
1.862381 1.305192 -0.809630
1.871993 1.321651 -0.805135
1.878079 1.316011 -0.799153
1.857888 1.300979 -0.792200
1.852930 1.307806 -0.798167
1.862542 1.324265 -0.793673
1.868627 1.318625 -0.787691
1.878473 1.316927 -0.798949
1.872387 1.322568 -0.804931
1.879000 1.340100 -0.800171
1.885566 1.335972 -0.793744
1.868251 1.317744 -0.787886
1.862165 1.323384 -0.793868
1.868778 1.340916 -0.789108
1.875344 1.336789 -0.782680
1.885936 1.336746 -0.793382
1.879370 1.340873 -0.799810
1.883154 1.359422 -0.794807
1.889852 1.356804 -0.787652
1.874984 1.336053 -0.783032
1.868418 1.340180 -0.789459
1.872202 1.358729 -0.784456
1.878900 1.356111 -0.777301
1.890205 1.358025 -0.787002
1.883507 1.360644 -0.794157
1.883095 1.379335 -0.788861
1.888849 1.378251 -0.781268
1.878550 1.354928 -0.777940
1.871852 1.357546 -0.785095
1.871440 1.376237 -0.779799
1.877194 1.375153 -0.772206
1.888808 1.379446 -0.780724
1.883055 1.380530 -0.788317
1.878323 1.398463 -0.782950
1.883736 1.398584 -0.775007
1.877229 1.373996 -0.772739
1.871475 1.375080 -0.780332
1.866743 1.393013 -0.774964
1.872156 1.393134 -0.767022
1.883385 1.399588 -0.774678
1.877972 1.399468 -0.782620
1.870027 1.416563 -0.777337
1.874705 1.417952 -0.768774
1.872494 1.392166 -0.767340
1.867080 1.392046 -0.775283
1.859135 1.409141 -0.769999
1.863813 1.410530 -0.761436
1.879577 1.312030 -0.802381
1.880834 1.338309 -0.795490
1.886774 1.330570 -0.797077
1.886322 1.303499 -0.804484
1.878837 1.308151 -0.787822
1.880094 1.334431 -0.780931
1.886034 1.326691 -0.782518
1.885582 1.299621 -0.789925
1.884378 1.404293 -0.776099
1.891453 1.411776 -0.773622
1.889619 1.384911 -0.781731
1.883353 1.378911 -0.783937
1.883728 1.399925 -0.761675
1.890803 1.407409 -0.759197
1.888969 1.380543 -0.767307
1.882703 1.374544 -0.769513
1.883261 1.378942 -0.783932
1.878189 1.398080 -0.778215
1.884287 1.404323 -0.776093
1.882784 1.374510 -0.769520
1.877712 1.393648 -0.763803
1.883810 1.399892 -0.761682
1.879451 1.311994 -0.802396
1.873615 1.319229 -0.800710
1.880708 1.338273 -0.795505
1.878953 1.308192 -0.787807
1.873116 1.315427 -0.786121
1.880209 1.334471 -0.780915
1.881177 1.338355 -0.795452
1.885093 1.358413 -0.789722
1.888565 1.357628 -0.789517
1.887117 1.330615 -0.797039
1.879755 1.334436 -0.780955
1.883671 1.354494 -0.775225
1.887142 1.353708 -0.775019
1.885694 1.326696 -0.782542
1.885070 1.358535 -0.789690
1.883714 1.378761 -0.783956
1.889980 1.384761 -0.781750
1.888542 1.357750 -0.789485
1.883696 1.354418 -0.775243
1.882340 1.374644 -0.769509
1.888607 1.380644 -0.767303
1.887168 1.353633 -0.775038
1.896620 1.087058 -0.817210
1.887941 1.117007 -0.820848
1.890900 1.118033 -0.826497
1.900785 1.087515 -0.822947
1.908519 1.091668 -0.809165
1.899840 1.121616 -0.812803
1.902799 1.122643 -0.818452
1.912684 1.092124 -0.814902
1.887534 1.117572 -0.820495
1.880589 1.148189 -0.823287
1.883560 1.149957 -0.829256
1.890492 1.118598 -0.826144
1.900231 1.121113 -0.813162
1.893286 1.151731 -0.815954
1.896258 1.153499 -0.821922
1.903190 1.122139 -0.818811
1.880484 1.149366 -0.823484
1.876794 1.180459 -0.823077
1.880382 1.183011 -0.828760
1.883455 1.151134 -0.829452
1.893381 1.150616 -0.815760
1.889691 1.181710 -0.815353
1.893279 1.184262 -0.821037
1.896352 1.152385 -0.821728
1.876866 1.181420 -0.823234
1.875990 1.212713 -0.819669
1.879678 1.215944 -0.825081
1.880454 1.183972 -0.828918
1.889614 1.180812 -0.815191
1.888738 1.212105 -0.811627
1.892426 1.215336 -0.817039
1.893202 1.183364 -0.820875
1.875970 1.213317 -0.819548
1.876584 1.244295 -0.813697
1.879927 1.248109 -0.818216
1.879658 1.216548 -0.824959
1.888757 1.211564 -0.811739
1.889371 1.242543 -0.805888
1.892713 1.246356 -0.810407
1.892445 1.214795 -0.817151
1.876400 1.244581 -0.813298
1.879220 1.275535 -0.808095
1.881717 1.280054 -0.811833
1.879743 1.248395 -0.817817
1.889558 1.242319 -0.806276
1.892378 1.273273 -0.801073
1.894875 1.277792 -0.804811
1.892900 1.246133 -0.810795
