2.974181 0.469566 -0.723272
2.983910 0.485876 -0.723224
2.991971 0.488151 -0.748769
2.983044 0.471785 -0.753248
3.026204 0.438020 -0.709968
3.035933 0.454330 -0.709921
3.043994 0.456605 -0.735466
3.035066 0.440239 -0.739945
2.992854 0.471297 -0.768369
3.001782 0.487663 -0.763890
3.023327 0.487154 -0.779946
3.017162 0.469679 -0.787995
3.025287 0.440729 -0.724869
3.034214 0.457095 -0.720390
3.055760 0.456587 -0.736446
3.049595 0.439111 -0.744495
3.032278 0.468215 -0.794136
3.038443 0.485690 -0.786087
3.065218 0.483129 -0.788073
3.063244 0.464431 -0.797628
3.034531 0.440571 -0.738375
3.040696 0.458047 -0.730326
3.067471 0.455486 -0.732312
3.065497 0.436788 -0.741867
3.078865 0.462600 -0.794571
3.080840 0.481297 -0.785016
3.104329 0.477846 -0.772369
3.106681 0.458999 -0.780729
3.049930 0.438613 -0.744913
3.051904 0.457311 -0.735358
3.075393 0.453859 -0.722711
3.077745 0.435012 -0.731072
3.118773 0.456653 -0.769002
3.116420 0.475500 -0.760641
3.128884 0.472460 -0.736922
3.133301 0.455377 -0.741296
3.065693 0.437353 -0.742760
3.063341 0.456200 -0.734400
3.075805 0.453160 -0.710681
3.080222 0.436077 -0.715054
3.134344 0.446438 -0.742614
3.134162 0.438608 -0.743368
3.119625 0.439884 -0.771066
3.119815 0.447715 -0.770320
3.079182 0.444989 -0.713743
3.079000 0.437158 -0.714496
3.064463 0.438435 -0.742194
3.064654 0.446265 -0.741448
3.106265 0.449218 -0.783604
3.106075 0.441387 -0.784349
3.078242 0.444985 -0.798161
3.078450 0.452818 -0.797446
3.078161 0.444767 -0.728207
3.077970 0.436937 -0.728952
3.050138 0.440534 -0.742764
3.050345 0.448368 -0.742048
3.061243 0.453494 -0.800598
3.061035 0.445660 -0.801313
3.030070 0.449445 -0.797820
3.030277 0.457277 -0.797106
3.067493 0.447699 -0.738906
3.067286 0.439866 -0.739622
3.036321 0.443650 -0.736129
3.036527 0.451483 -0.735414
3.014018 0.457171 -0.790480
3.013811 0.449339 -0.791194
2.989481 0.450958 -0.771595
2.989710 0.458789 -0.770854
3.052731 0.451594 -0.742017
3.052524 0.443761 -0.742731
3.028194 0.445381 -0.723131
3.028423 0.453212 -0.722391
2.979203 0.457727 -0.755303
2.978974 0.449896 -0.756043
2.970097 0.447679 -0.726072
2.970340 0.455508 -0.725326
3.038898 0.454273 -0.737893
3.038669 0.446442 -0.738634
3.029792 0.444225 -0.708663
3.030035 0.452054 -0.707917
3.133345 0.381843 -0.645564
3.140837 0.372992 -0.646610
3.138323 0.399126 -0.669590
3.131439 0.405976 -0.667947
3.091438 0.349002 -0.677872
3.098931 0.340151 -0.678918
3.096417 0.366285 -0.701898
3.089532 0.373135 -0.700255
3.130455 0.406526 -0.667283
3.137339 0.399676 -0.668926
3.134815 0.425836 -0.691884
3.128540 0.430658 -0.689665
3.090512 0.372635 -0.700965
3.097396 0.365785 -0.702608
3.094873 0.391945 -0.725566
3.088598 0.396767 -0.723347
3.127245 0.431340 -0.688896
3.133519 0.426519 -0.691115
3.130939 0.452657 -0.714091
3.125270 0.455467 -0.711276
3.089889 0.396134 -0.724161
3.096164 0.391313 -0.726380
3.093584 0.417451 -0.749356
3.087914 0.420262 -0.746541
3.005611 0.494299 -0.661356
3.030707 0.497246 -0.659042
3.031007 0.498677 -0.677748
3.005934 0.496507 -0.678728
3.012297 0.432682 -0.667457
3.037393 0.435629 -0.665143
3.037693 0.437061 -0.683849
3.012620 0.434891 -0.684829
3.006994 0.496597 -0.678662
3.032067 0.498767 -0.677682
3.032086 0.500250 -0.696390
3.007322 0.498800 -0.696031
3.011561 0.434804 -0.684931
3.036634 0.436974 -0.683951
3.036653 0.438457 -0.702659
3.011890 0.437007 -0.702300
3.009931 0.499028 -0.698272
3.034694 0.500479 -0.698631
3.033335 0.499346 -0.717448
3.010260 0.501233 -0.715638
3.009281 0.436781 -0.700096
3.034044 0.438231 -0.700455
3.032685 0.437098 -0.719272
3.009609 0.438985 -0.717463
3.037186 0.497341 -0.659867
3.061732 0.494845 -0.657918
3.061991 0.496149 -0.677994
3.037486 0.498772 -0.678573
3.030964 0.435535 -0.664316
3.055511 0.433039 -0.662367
3.055770 0.434342 -0.682443
3.031264 0.436966 -0.683021
3.037567 0.498743 -0.678295
3.062073 0.496119 -0.677717
3.061931 0.497804 -0.697643
3.037586 0.500226 -0.697004
3.031183 0.436998 -0.683337
3.055689 0.434375 -0.682759
3.055548 0.436059 -0.702685
3.031202 0.438481 -0.702045
3.035465 0.500467 -0.698853
3.059810 0.498045 -0.699493
3.057420 0.500163 -0.719223
3.034105 0.499334 -0.717671
3.033321 0.438242 -0.700234
3.057667 0.435820 -0.700874
3.055277 0.437938 -0.720604
3.031962 0.437109 -0.719052
3.062409 0.494610 -0.656303
3.086771 0.490217 -0.654485
3.087201 0.494002 -0.675746
3.062668 0.495914 -0.676379
3.054883 0.433267 -0.663979
3.079246 0.428874 -0.662160
3.079675 0.432659 -0.683422
3.055142 0.434571 -0.684055
3.061384 0.496189 -0.677799
3.085917 0.494276 -0.677166
3.085662 0.495865 -0.698373
3.061243 0.497873 -0.697726
3.056426 0.434301 -0.682676
3.080959 0.432388 -0.682043
3.080704 0.433977 -0.703250
3.056285 0.435985 -0.702603
3.061395 0.497815 -0.697206
3.085815 0.495807 -0.697853
3.082087 0.498128 -0.718739
3.059005 0.499933 -0.716936
3.056129 0.436047 -0.703163
3.080548 0.434039 -0.703810
3.076821 0.436359 -0.724696
3.053739 0.438165 -0.722893
3.086054 0.490338 -0.654830
3.110724 0.489103 -0.652796
3.110990 0.490238 -0.675530
3.086484 0.494122 -0.676091
3.080012 0.428748 -0.661813
3.104682 0.427513 -0.659779
3.104948 0.428649 -0.682512
3.080441 0.432533 -0.683074
3.088556 0.493989 -0.677691
3.113063 0.490105 -0.677129
3.112539 0.491382 -0.699754
3.088301 0.495578 -0.698898
3.078369 0.432670 -0.681518
3.102875 0.428786 -0.680957
3.102352 0.430062 -0.703581
3.078114 0.434258 -0.702725
3.088916 0.495467 -0.698868
3.113154 0.491271 -0.699724
3.108051 0.493366 -0.721810
3.085189 0.497788 -0.719754
3.077494 0.434372 -0.702798
3.101732 0.430176 -0.703654
3.096629 0.432271 -0.725740
3.073767 0.436693 -0.723684
3.107247 0.486336 -0.595290
3.107994 0.487342 -0.615080
3.083346 0.488847 -0.617731
3.082609 0.487952 -0.598252
3.103673 0.424241 -0.598431
3.104419 0.425247 -0.618221
3.079771 0.426752 -0.620871
3.079035 0.425857 -0.601393
3.107860 0.487352 -0.615126
3.108607 0.488357 -0.634916
3.083949 0.489725 -0.637257
3.083213 0.488857 -0.617777
3.104554 0.425239 -0.618213
3.105300 0.426244 -0.638003
3.080642 0.427612 -0.640344
3.079906 0.426744 -0.620864
3.108457 0.488366 -0.634937
3.109205 0.489371 -0.654725
3.084535 0.490606 -0.656758
3.083799 0.489733 -0.637278
3.105452 0.426237 -0.638021
3.106200 0.427242 -0.657809
3.081530 0.428477 -0.659842
3.080794 0.427605 -0.640362
3.082601 0.487960 -0.598409
3.083338 0.488855 -0.617887
3.058690 0.490359 -0.620539
3.057963 0.489576 -0.601371
3.078993 0.425852 -0.601242
3.079730 0.426747 -0.620720
3.055081 0.428250 -0.623372
3.054355 0.427468 -0.604204
3.083216 0.488865 -0.617960
3.083952 0.489733 -0.637440
3.059294 0.491118 -0.639781
3.058568 0.490369 -0.620613
3.079853 0.426738 -0.620686
3.080589 0.427606 -0.640165
3.055931 0.428990 -0.642507
3.055205 0.428242 -0.623338
3.085556 0.489384 -0.634873
3.086292 0.490256 -0.654354
3.061930 0.494649 -0.656173
3.060897 0.490768 -0.637215
3.078987 0.427959 -0.642771
3.079723 0.428831 -0.662251
3.055361 0.433224 -0.664070
3.054328 0.429343 -0.645112
3.057960 0.489583 -0.601529
3.058687 0.490366 -0.620698
3.034039 0.491875 -0.623348
3.033322 0.491199 -0.604492
3.054309 0.427464 -0.604052
3.055035 0.428247 -0.623220
3.030388 0.429756 -0.625871
3.029670 0.429079 -0.607014
3.058582 0.490375 -0.620766
3.059308 0.491123 -0.639935
3.034648 0.492539 -0.642274
3.033934 0.491884 -0.623417
3.055141 0.428239 -0.623189
3.055867 0.428988 -0.642358
3.031208 0.430403 -0.644697
3.030494 0.429748 -0.625840
3.059362 0.490294 -0.633938
3.060395 0.494175 -0.652896
3.035848 0.496671 -0.654845
3.034703 0.491710 -0.636277
3.055814 0.429822 -0.648393
3.056847 0.433702 -0.667351
3.032301 0.436198 -0.669300
3.031155 0.431237 -0.650732
3.033319 0.491205 -0.604644
3.034037 0.491881 -0.623501
3.009389 0.493398 -0.626152
3.008681 0.492821 -0.607606
3.029623 0.429077 -0.606867
3.030341 0.429753 -0.625724
3.005693 0.431270 -0.628375
3.004985 0.430693 -0.609830
3.033941 0.491888 -0.623543
3.034655 0.492543 -0.642400
3.010001 0.493980 -0.644740
3.009293 0.493405 -0.626194
3.030438 0.429747 -0.625719
3.031152 0.430402 -0.644576
3.006499 0.431839 -0.646915
3.005790 0.431264 -0.628370
3.031547 0.492252 -0.638981
3.032692 0.497214 -0.657548
3.007596 0.494266 -0.659862
3.006893 0.493689 -0.641320
3.034262 0.430696 -0.648033
3.035408 0.435657 -0.666601
3.010311 0.432710 -0.668914
3.009609 0.432133 -0.650372
2.970353 0.461240 -0.609300
2.980014 0.477592 -0.609244
2.980722 0.478169 -0.627789
2.971055 0.461820 -0.627842
3.023957 0.429554 -0.608251
3.033618 0.445907 -0.608195
3.034326 0.446484 -0.626741
3.024660 0.430135 -0.626793
2.971066 0.461838 -0.627854
2.980732 0.478187 -0.627801
2.981440 0.478761 -0.646346
2.971759 0.462420 -0.646397
3.024651 0.430119 -0.626819
3.034317 0.446468 -0.626766
3.035025 0.447042 -0.645311
3.025344 0.430701 -0.645362
2.971768 0.462436 -0.646415
2.981450 0.478777 -0.646364
2.982153 0.479354 -0.664906
2.972468 0.463017 -0.664960
3.025335 0.430686 -0.645381
3.035017 0.447028 -0.645330
3.035720 0.447605 -0.663873
3.026035 0.431268 -0.663926
2.972504 0.463013 -0.662924
2.982189 0.479350 -0.662870
2.982512 0.481559 -0.680242
2.972811 0.465231 -0.680286
3.025999 0.431274 -0.665998
3.035684 0.447612 -0.665944
3.036007 0.449820 -0.683316
3.026306 0.433492 -0.683361
2.972835 0.465273 -0.680296
2.982536 0.481600 -0.680252
2.982865 0.483803 -0.697621
2.973132 0.467492 -0.697664
3.026283 0.433456 -0.683385
3.035984 0.449783 -0.683341
3.036313 0.451986 -0.700710
3.026580 0.435676 -0.700753
2.973145 0.467519 -0.697711
2.982878 0.483829 -0.697669
2.983206 0.486033 -0.715035
2.973477 0.469724 -0.715083
3.026567 0.435654 -0.700740
3.036300 0.451964 -0.700698
3.036629 0.454168 -0.718064
3.026899 0.437858 -0.718112
3.138082 0.465146 -0.655431
3.141872 0.447836 -0.655637
3.142174 0.450026 -0.679623
3.138348 0.466282 -0.678164
3.077353 0.451451 -0.657144
3.081143 0.434140 -0.657350
3.081445 0.436331 -0.681336
3.077619 0.452586 -0.679877
3.138303 0.466521 -0.679406
3.142129 0.450266 -0.680864
3.141367 0.452113 -0.704793
3.137779 0.467798 -0.702030
3.077663 0.452350 -0.678682
3.081489 0.436095 -0.680141
3.080728 0.437942 -0.704069
3.077140 0.453626 -0.701307
3.136927 0.469116 -0.707216
3.140515 0.453431 -0.709978
3.136241 0.454127 -0.733675
3.131825 0.471210 -0.729301
3.077986 0.452311 -0.696168
3.081574 0.436627 -0.698930
3.077300 0.437323 -0.722627
3.072883 0.454406 -0.718253
3.141754 0.448963 -0.594067
3.141352 0.450018 -0.614581
3.135287 0.467428 -0.615829
3.134541 0.466423 -0.596040
3.083624 0.426676 -0.595704
3.083222 0.427731 -0.616219
3.077157 0.445141 -0.617467
3.076411 0.444135 -0.597677
3.141958 0.448295 -0.614677
3.141568 0.449350 -0.635192
3.136639 0.466710 -0.635714
3.135893 0.465705 -0.615925
3.082617 0.429456 -0.616164
3.082227 0.430512 -0.636679
3.077298 0.447872 -0.637201
3.076552 0.446867 -0.617412
3.142088 0.447530 -0.635299
3.141698 0.448585 -0.655816
3.137907 0.465895 -0.655609
3.137159 0.464890 -0.635821
3.081707 0.432333 -0.636612
3.081317 0.433388 -0.657128
3.077527 0.450698 -0.656922
3.076778 0.449693 -0.637134
3.143464 0.366176 -0.663537
3.141559 0.390309 -0.685921
3.141485 0.402003 -0.682722
3.143053 0.385118 -0.662533
3.081311 0.364692 -0.659895
3.079405 0.388825 -0.682278
3.079331 0.400519 -0.679080
3.080900 0.383634 -0.658890
3.143059 0.385347 -0.662316
3.141490 0.402232 -0.682505
3.141184 0.415104 -0.680889
3.142530 0.404201 -0.661215
3.080893 0.383436 -0.659103
3.079325 0.400321 -0.679293
3.079019 0.413193 -0.677677
3.080365 0.402290 -0.658003
3.142523 0.403542 -0.661569
3.141177 0.414445 -0.681243
3.141071 0.428298 -0.681039
3.142440 0.422346 -0.660102
3.080371 0.402981 -0.657647
3.079025 0.413884 -0.677321
3.078919 0.427737 -0.677117
3.080288 0.421785 -0.656180
3.142434 0.420300 -0.659202
3.141065 0.426252 -0.680138
3.142880 0.441379 -0.681541
3.142579 0.439189 -0.657555
3.080295 0.423865 -0.657079
3.078926 0.429816 -0.678016
3.080741 0.444944 -0.679419
3.080439 0.442754 -0.655433
3.141553 0.390258 -0.686030
3.139639 0.414389 -0.708412
3.140001 0.417677 -0.701662
3.141479 0.401952 -0.682831
3.079407 0.388917 -0.682211
3.077493 0.413048 -0.704593
3.077855 0.416336 -0.697843
3.079333 0.400611 -0.679013
3.141488 0.402195 -0.682574
3.140009 0.417920 -0.701405
3.139926 0.425015 -0.699414
3.141182 0.415067 -0.680958
3.079325 0.400385 -0.679263
3.077846 0.416110 -0.698093
3.077763 0.423205 -0.696103
3.079018 0.413257 -0.677647
3.141175 0.414450 -0.681273
3.139920 0.424398 -0.699729
3.139778 0.433593 -0.700590
3.141069 0.428303 -0.681069
3.079025 0.413895 -0.677330
3.077769 0.423843 -0.695786
3.077628 0.433038 -0.696646
3.078919 0.427748 -0.677125
3.140579 0.422668 -0.681426
3.139288 0.427958 -0.700947
3.141632 0.439643 -0.706757
3.142394 0.437796 -0.682828
3.079411 0.433408 -0.676773
3.078120 0.438698 -0.696293
3.080464 0.450383 -0.702103
3.081226 0.448535 -0.678175
3.139628 0.414314 -0.708603
3.137653 0.438441 -0.730983
3.138821 0.432561 -0.715612
3.139990 0.417601 -0.701853
3.077500 0.413164 -0.704441
3.075525 0.437291 -0.726821
3.076693 0.431411 -0.711451
3.077862 0.416451 -0.697691
3.139917 0.424421 -0.699773
3.138831 0.432285 -0.715523
3.138788 0.437299 -0.715430
3.139775 0.433616 -0.700633
3.077770 0.423834 -0.695777
3.076684 0.431699 -0.711527
3.076642 0.436713 -0.711434
3.077629 0.433029 -0.696637
3.138653 0.426352 -0.703528
3.137666 0.430035 -0.718324
3.136723 0.438732 -0.733035
3.140997 0.438036 -0.709338
3.078752 0.440310 -0.693753
3.077765 0.443994 -0.708549
3.076822 0.452691 -0.723260
3.081096 0.451995 -0.699563
3.138812 0.431809 -0.715812
3.137644 0.437689 -0.731182
3.137826 0.445520 -0.730428
3.138769 0.436823 -0.715718
3.076701 0.432188 -0.711270
3.075533 0.438068 -0.726640
3.075716 0.445899 -0.725886
3.076659 0.437202 -0.711176
3.082831 0.498196 -0.721226
3.093229 0.496814 -0.747001
3.069740 0.500265 -0.759648
3.059749 0.500001 -0.719423
3.076084 0.436293 -0.722262
3.086482 0.434911 -0.748037
3.062994 0.438362 -0.760684
3.053002 0.438099 -0.720459
3.057296 0.500031 -0.716937
3.040512 0.502856 -0.755176
3.018966 0.503364 -0.739120
3.033981 0.499202 -0.715385
3.055383 0.438073 -0.722940
3.038599 0.440898 -0.761179
3.017053 0.441406 -0.745123
3.032068 0.437244 -0.721388
3.085454 0.497791 -0.720964
3.108316 0.493369 -0.723020
3.095852 0.496409 -0.746739
3.073496 0.436692 -0.722512
3.096359 0.432270 -0.724568
3.083894 0.435310 -0.748287
3.069382 0.500292 -0.759218
3.042606 0.502853 -0.757232
3.059390 0.500028 -0.718993
3.063314 0.438340 -0.761132
3.036539 0.440901 -0.759146
3.053323 0.438076 -0.720906
3.035812 0.499023 -0.714750
3.020796 0.503185 -0.738485
3.012736 0.500910 -0.712940
3.030205 0.437424 -0.722005
3.015190 0.441586 -0.745740
3.007130 0.439311 -0.720195
2.969085 0.455244 -0.717205
2.968841 0.447416 -0.717950
2.968081 0.441100 -0.699973
2.968753 0.453040 -0.699833
3.031281 0.452311 -0.715991
3.031038 0.444483 -0.716737
3.030278 0.438167 -0.698759
3.030949 0.450107 -0.698619
2.968749 0.453071 -0.699377
2.968077 0.441132 -0.699517
2.967654 0.432288 -0.682800
2.968452 0.450852 -0.682010
3.030953 0.450065 -0.699040
3.030281 0.438125 -0.699180
3.029858 0.429281 -0.682463
3.030656 0.447845 -0.681672
2.968436 0.450485 -0.682012
2.967639 0.431921 -0.682802
2.967271 0.421210 -0.667018
2.968129 0.448267 -0.664650
3.030671 0.448199 -0.681636
3.029873 0.429636 -0.682426
3.029505 0.418924 -0.666642
3.030364 0.445981 -0.664274
2.967285 0.421236 -0.667752
2.965718 0.393977 -0.650929
2.965856 0.402865 -0.643964
2.966665 0.415056 -0.655399
3.029488 0.418839 -0.665868
3.027921 0.391580 -0.649044
3.028059 0.400468 -0.642079
3.028868 0.412659 -0.653515
2.965718 0.394014 -0.650871
2.964111 0.366756 -0.634046
2.964808 0.387590 -0.628400
2.965856 0.402902 -0.643906
3.027918 0.391502 -0.649072
3.026312 0.364245 -0.632246
3.027009 0.385079 -0.626600
3.028057 0.400391 -0.642106
2.964115 0.366684 -0.634234
2.962714 0.350158 -0.610203
2.963549 0.374247 -0.610123
2.964811 0.387517 -0.628588
3.026307 0.364281 -0.632020
3.024906 0.347756 -0.607990
3.025741 0.371845 -0.607910
3.027003 0.385115 -0.626375
2.965855 0.402936 -0.643820
2.964807 0.387624 -0.628314
2.965560 0.406915 -0.626411
2.966295 0.415384 -0.641631
3.028059 0.400387 -0.642184
3.027011 0.385075 -0.626678
3.027764 0.404365 -0.624775
3.028499 0.412834 -0.639996
2.964825 0.387541 -0.628899
2.963562 0.374270 -0.610434
2.964396 0.398359 -0.610354
2.965578 0.406831 -0.626996
3.026991 0.385136 -0.626060
3.025729 0.371865 -0.607595
3.026563 0.395954 -0.607515
3.027745 0.404426 -0.624157
2.967282 0.421164 -0.667742
2.966662 0.414984 -0.655389
2.967308 0.433305 -0.654136
2.968141 0.448221 -0.665374
3.029493 0.418954 -0.665890
3.028873 0.412773 -0.653537
3.029519 0.431095 -0.652284
3.030351 0.446010 -0.663522
2.966662 0.415063 -0.655265
2.966293 0.415320 -0.641641
2.966915 0.430623 -0.642193
2.967308 0.433384 -0.654012
3.028873 0.412682 -0.653636
3.028503 0.412939 -0.640012
3.029126 0.428243 -0.640564
3.029519 0.431004 -0.652383
2.966294 0.415391 -0.641581
2.965560 0.406922 -0.626360
2.966378 0.426613 -0.626502
2.966916 0.430694 -0.642133
3.028501 0.412860 -0.640044
3.027767 0.404391 -0.624824
3.028585 0.424082 -0.624966
3.029123 0.428164 -0.640596
2.965594 0.406821 -0.627315
2.964412 0.398349 -0.610673
2.965247 0.422437 -0.610593
2.966412 0.426512 -0.627456
3.027730 0.404480 -0.623838
3.026549 0.396008 -0.607196
3.027383 0.420096 -0.607116
3.028549 0.424171 -0.623979
2.967303 0.433024 -0.654231
2.966910 0.430262 -0.642412
2.967435 0.447358 -0.646924
2.968135 0.447939 -0.665469
3.029525 0.431397 -0.652172
3.029132 0.428636 -0.640353
3.029658 0.445732 -0.644864
3.030357 0.446313 -0.663410
2.966904 0.430018 -0.642409
2.966366 0.425937 -0.626779
2.966737 0.446532 -0.628378
2.967430 0.447114 -0.646921
3.029137 0.428876 -0.640323
3.028598 0.424795 -0.624693
3.028969 0.445390 -0.626292
3.029662 0.445972 -0.644835
2.966390 0.426150 -0.627255
2.965225 0.422075 -0.610392
2.966059 0.446164 -0.610312
2.966761 0.446745 -0.628854
3.028572 0.424577 -0.624181
3.027407 0.420503 -0.607318
3.028241 0.444591 -0.607238
3.028943 0.445172 -0.625780
3.139932 0.337002 -0.597143
3.142498 0.344882 -0.618779
3.142172 0.365464 -0.617854
3.141933 0.361837 -0.596911
3.077796 0.339383 -0.600593
3.080362 0.347262 -0.622229
3.080036 0.367844 -0.621304
3.079797 0.364217 -0.600361
3.142541 0.346815 -0.619419
3.143243 0.356203 -0.639942
3.142577 0.374773 -0.639035
3.142216 0.367398 -0.618494
3.080320 0.345342 -0.621631
3.081022 0.354730 -0.642154
3.080356 0.373300 -0.641247
3.079995 0.365925 -0.620706
3.143245 0.356319 -0.640075
3.143500 0.366262 -0.660701
3.143089 0.385203 -0.659697
3.142578 0.374888 -0.639168
3.081021 0.354633 -0.642062
3.081277 0.364576 -0.662689
3.080866 0.383518 -0.661684
3.080355 0.373202 -0.641155
3.141963 0.361741 -0.599571
3.142202 0.365368 -0.620514
3.142478 0.387929 -0.619154
3.143733 0.386549 -0.599288
3.079769 0.364361 -0.597701
3.080008 0.367987 -0.618644
3.080283 0.390549 -0.617284
3.081538 0.389169 -0.597418
3.142243 0.366604 -0.619423
3.142604 0.373979 -0.639964
3.142424 0.395846 -0.638534
3.142519 0.389166 -0.618064
3.079967 0.366760 -0.619775
3.080328 0.374135 -0.640316
3.080148 0.396002 -0.638886
3.080242 0.389322 -0.618416
3.142593 0.374562 -0.639443
3.143103 0.384877 -0.659972
3.142574 0.403731 -0.658872
3.142413 0.396429 -0.638014
3.080340 0.373568 -0.640878
3.080850 0.383883 -0.661407
3.080321 0.402736 -0.660306
3.080160 0.395434 -0.639448
3.143682 0.387567 -0.600731
3.142427 0.388947 -0.620598
3.142566 0.415584 -0.619023
3.144279 0.412385 -0.599558
3.081590 0.388200 -0.595972
3.080335 0.389580 -0.615839
3.080474 0.416217 -0.614265
3.082186 0.413018 -0.594799
3.142518 0.389229 -0.618533
3.142423 0.395909 -0.639003
3.142375 0.419077 -0.637520
3.142657 0.415866 -0.616959
3.080243 0.389306 -0.617944
3.080149 0.395986 -0.638414
3.080100 0.419154 -0.636930
3.080382 0.415943 -0.616370
3.142424 0.396034 -0.638494
3.142586 0.403336 -0.659352
3.142502 0.422140 -0.657885
3.142375 0.419202 -0.637010
3.080148 0.395871 -0.638965
3.080310 0.403173 -0.659823
3.080227 0.421978 -0.658356
3.080100 0.419039 -0.637481
3.144328 0.412699 -0.598824
3.142615 0.415898 -0.618290
3.143386 0.438826 -0.617047
3.143787 0.437771 -0.596533
3.082138 0.412754 -0.595530
3.080425 0.415953 -0.614995
3.081195 0.438881 -0.613753
3.081597 0.437826 -0.593238
3.142637 0.414943 -0.617274
3.142355 0.418154 -0.637835
3.143017 0.438927 -0.636547
3.143407 0.437871 -0.616032
3.080402 0.416912 -0.616052
3.080121 0.420123 -0.636612
3.080782 0.440896 -0.635324
3.081173 0.439840 -0.614809
3.142369 0.418527 -0.637501
3.142496 0.421465 -0.658376
3.142641 0.440354 -0.656730
3.143031 0.439299 -0.636213
3.080106 0.419755 -0.636987
3.080233 0.422694 -0.657862
3.080378 0.441582 -0.656215
3.080768 0.440527 -0.635699
3.135585 0.384021 -0.652467
3.135329 0.374079 -0.631840
3.142368 0.365503 -0.632159
3.143077 0.375171 -0.653513
3.089200 0.346789 -0.670925
3.088945 0.336846 -0.650298
3.095983 0.328270 -0.650617
3.096693 0.337938 -0.671971
3.135181 0.374221 -0.631758
3.134480 0.364833 -0.611235
3.141530 0.356006 -0.610709
3.142220 0.365645 -0.632077
3.089091 0.336684 -0.650338
3.088390 0.327296 -0.629815
3.095440 0.318470 -0.629288
3.096130 0.328108 -0.650657
2.966665 0.415111 -0.655316
2.965856 0.402921 -0.643880
2.966296 0.415368 -0.641692
3.028868 0.412609 -0.653583
3.028059 0.400418 -0.642147
3.028499 0.412866 -0.639959
3.140007 0.417872 -0.701484
3.138837 0.432832 -0.715244
3.139923 0.424967 -0.699493
3.077847 0.416178 -0.698043
3.076678 0.431138 -0.711803
3.077764 0.423273 -0.696052
