1.946461 0.532049 0.853127
1.926028 0.556082 0.851303
1.896964 0.555813 0.852377
1.914806 0.532830 0.854354
1.944689 0.526917 0.807495
1.924256 0.550951 0.805671
1.895192 0.550682 0.806745
1.913034 0.527698 0.808721
1.914781 0.533023 0.854332
1.896939 0.556006 0.852355
1.867878 0.555728 0.853419
1.883125 0.533806 0.855583
1.912998 0.527506 0.808745
1.895156 0.550489 0.806769
1.866095 0.550211 0.807832
1.881341 0.528289 0.809996
1.883087 0.534004 0.855559
1.867840 0.555927 0.853395
1.838781 0.555660 0.854468
1.851427 0.534778 0.856779
1.881318 0.528091 0.810021
1.866072 0.550014 0.807858
1.837012 0.549747 0.808930
1.849658 0.528865 0.811241
1.851388 0.534967 0.856755
1.838742 0.555849 0.854444
1.809680 0.555576 0.855511
1.819730 0.535748 0.857956
1.849637 0.528676 0.811268
1.836991 0.549558 0.808956
1.807929 0.549285 0.810023
1.817979 0.529457 0.812468
1.819712 0.535975 0.857924
1.809662 0.555802 0.855479
1.780602 0.555536 0.856550
1.788054 0.536752 0.859152
1.817936 0.529232 0.812502
1.807885 0.549059 0.810057
1.778826 0.548792 0.811128
1.786278 0.530009 0.813730
1.788023 0.537010 0.859113
1.780571 0.555794 0.856511
1.751509 0.555518 0.857581
1.756369 0.537792 0.860341
1.786248 0.529752 0.813771
1.778796 0.548535 0.811169
1.749733 0.548260 0.812238
1.754593 0.530534 0.814998
1.950896 0.575879 0.608902
1.951529 0.574569 0.640279
1.966585 0.554500 0.642664
1.966043 0.553818 0.611369
1.913526 0.549138 0.609334
1.914159 0.547827 0.640711
1.929215 0.527758 0.643096
1.928674 0.527077 0.611801
1.950876 0.575438 0.640354
1.951448 0.574059 0.671696
1.966501 0.556060 0.674070
1.965932 0.555369 0.642740
1.914813 0.546958 0.640698
1.915385 0.545579 0.672040
1.930438 0.527580 0.674414
1.929869 0.526889 0.643083
1.950664 0.574999 0.671748
1.951294 0.573673 0.703108
1.966232 0.557647 0.705432
1.965717 0.557000 0.674123
1.916170 0.544638 0.672050
1.916800 0.543311 0.703409
1.931737 0.527286 0.705734
1.931223 0.526638 0.674424
1.950835 0.574071 0.705121
1.948930 0.572794 0.736388
1.964974 0.554904 0.738583
1.965773 0.558045 0.707445
1.917258 0.542911 0.701459
1.915352 0.541634 0.732726
1.931396 0.523744 0.734922
1.932195 0.526885 0.703784
1.949162 0.572518 0.736562
1.946847 0.571298 0.767834
1.964336 0.551344 0.769907
1.965206 0.554628 0.738757
1.915117 0.541906 0.732615
1.912801 0.540686 0.763888
1.930290 0.520732 0.765960
1.931161 0.524016 0.734811
1.946990 0.571134 0.767857
1.944641 0.569880 0.799138
1.963656 0.547932 0.801073
1.964479 0.551180 0.769929
1.912654 0.540845 0.763928
1.910305 0.539591 0.795209
1.929321 0.517643 0.797144
1.930143 0.520891 0.766000
1.944765 0.569732 0.799179
1.942452 0.568516 0.830446
1.962885 0.544483 0.832270
1.963781 0.547784 0.801114
1.910177 0.539734 0.795230
1.907864 0.538519 0.826496
1.928297 0.514485 0.828320
1.929193 0.517787 0.797165
1.914429 0.573852 0.828468
1.916742 0.575068 0.797201
1.911380 0.572262 0.785934
1.907613 0.570255 0.797481
1.935861 0.533202 0.828451
1.938174 0.534418 0.797185
1.932812 0.531612 0.785918
1.929045 0.529605 0.797464
1.907652 0.570275 0.797475
1.911420 0.572283 0.785929
1.909777 0.571435 0.763131
1.900845 0.566763 0.766471
1.928996 0.529579 0.797422
1.932763 0.531586 0.785875
1.931120 0.530738 0.763077
1.922189 0.526066 0.766417
1.900841 0.566761 0.766424
1.909773 0.571433 0.763084
1.907779 0.570413 0.734134
1.894025 0.563186 0.735430
1.922184 0.526064 0.766407
1.931116 0.530736 0.763067
1.929122 0.529716 0.734117
1.915369 0.522489 0.735413
1.894067 0.563206 0.735659
1.907820 0.570433 0.734364
1.905705 0.569698 0.703678
1.887662 0.560310 0.704551
1.915319 0.522465 0.735122
1.929072 0.529692 0.733827
1.926957 0.528958 0.703141
1.908914 0.519569 0.704015
1.888037 0.560439 0.705887
1.906081 0.569828 0.705013
1.903664 0.570814 0.673743
1.884032 0.561265 0.674206
1.908531 0.519438 0.702617
1.926574 0.528827 0.701743
1.924157 0.529812 0.670473
1.904526 0.520264 0.670936
1.884518 0.561505 0.674138
1.904149 0.571054 0.673675
1.901795 0.572096 0.642217
1.880533 0.562348 0.642477
1.904035 0.520025 0.670940
1.923666 0.529574 0.670477
1.921312 0.530615 0.639019
1.900050 0.520868 0.639279
1.880974 0.562555 0.642408
1.902236 0.572303 0.642148
1.899967 0.573364 0.610719
1.876963 0.563408 0.610711
1.899604 0.520663 0.639284
1.920866 0.530411 0.639024
1.918596 0.531472 0.607595
1.895593 0.521516 0.607587
1.911420 0.572283 0.785915
1.916782 0.575089 0.797182
1.919131 0.576343 0.765901
1.909777 0.571435 0.763117
1.932776 0.531593 0.785888
1.938138 0.534399 0.797155
1.940487 0.535653 0.765874
1.931133 0.530745 0.763090
1.909793 0.571444 0.763086
1.919147 0.576352 0.765870
1.921463 0.577572 0.734597
1.907800 0.570424 0.734136
1.931118 0.530737 0.763065
1.940472 0.535645 0.765849
1.942788 0.536865 0.734576
1.929124 0.529717 0.734115
1.907857 0.570452 0.734309
1.921520 0.577601 0.734770
1.923426 0.578877 0.703503
1.905742 0.569718 0.703623
1.929067 0.529688 0.733880
1.942731 0.536837 0.734341
1.944636 0.538113 0.703074
1.926952 0.528954 0.703194
1.906059 0.569844 0.704635
1.923743 0.579003 0.704515
1.923113 0.580329 0.673155
1.903642 0.570829 0.673365
1.926633 0.528830 0.702120
1.944318 0.537989 0.702000
1.943688 0.539315 0.670641
1.924216 0.529815 0.670850
1.904094 0.571052 0.673333
1.923566 0.580552 0.673124
1.922994 0.581931 0.641782
1.901741 0.572094 0.641875
1.923761 0.529595 0.670819
1.943232 0.539095 0.670610
1.942660 0.540474 0.639268
1.921408 0.530637 0.639361
1.902137 0.572281 0.641812
1.923389 0.582118 0.641719
1.922756 0.583428 0.610343
1.899868 0.573342 0.610383
1.921009 0.530452 0.639360
1.942261 0.540289 0.639268
1.941629 0.541600 0.607891
1.918740 0.531514 0.607931
1.776482 0.565456 0.708899
1.796937 0.565109 0.709058
1.799373 0.566491 0.677753
1.780251 0.566948 0.677954
1.775549 0.519565 0.706687
1.796004 0.519218 0.706846
1.798440 0.520600 0.675542
1.779318 0.521056 0.675743
1.780370 0.566944 0.677966
1.799492 0.566488 0.677765
1.801941 0.567975 0.646450
1.784133 0.568418 0.647032
1.779205 0.521062 0.675668
1.798327 0.520606 0.675467
1.800776 0.522093 0.644151
1.782967 0.522536 0.644734
1.784206 0.568422 0.646906
1.802014 0.567979 0.646323
1.804457 0.569310 0.615016
1.787973 0.569773 0.615953
1.782900 0.522535 0.644799
1.800709 0.522092 0.644216
1.803152 0.523423 0.612909
1.786668 0.523886 0.613846
1.801580 0.564543 0.709001
1.821857 0.560396 0.709087
1.822961 0.561164 0.677384
1.804015 0.565925 0.677696
1.791401 0.519780 0.706903
1.811679 0.515633 0.706989
1.812782 0.516400 0.675285
1.793837 0.521162 0.675598
1.802304 0.566106 0.679366
1.821249 0.561345 0.679053
1.822550 0.566964 0.647477
1.804753 0.567593 0.648050
1.795551 0.520985 0.673865
1.814496 0.516224 0.673553
1.815797 0.521843 0.641976
1.798000 0.522472 0.642550
1.802186 0.567973 0.646328
1.819983 0.567344 0.645754
1.821118 0.568797 0.614069
1.804629 0.569304 0.615021
1.800571 0.522097 0.644209
1.818368 0.521467 0.643635
1.819503 0.522920 0.611950
1.803014 0.523428 0.612902
1.817849 0.560957 0.708613
1.838281 0.560032 0.708763
1.838053 0.560823 0.676700
1.818952 0.561724 0.676910
1.815727 0.515067 0.707463
1.836159 0.514141 0.707613
1.835931 0.514932 0.675550
1.816830 0.515834 0.675759
1.822018 0.561264 0.678634
1.841119 0.560363 0.678425
1.840893 0.561149 0.646344
1.823319 0.566883 0.647058
1.813765 0.516298 0.673971
1.832866 0.515397 0.673761
1.832640 0.516183 0.641680
1.815066 0.521917 0.642394
1.823598 0.566773 0.647547
1.841172 0.561039 0.646833
1.841205 0.567467 0.614915
1.824733 0.568226 0.615862
1.814787 0.522034 0.641841
1.832361 0.516300 0.641127
1.832394 0.522728 0.609210
1.815922 0.523487 0.610156
1.838300 0.560031 0.708763
1.858729 0.559060 0.708918
1.857178 0.559968 0.676474
1.838072 0.560822 0.676700
1.836180 0.514140 0.707613
1.856608 0.513169 0.707767
1.855057 0.514078 0.675324
1.835951 0.514932 0.675550
1.834846 0.560618 0.678578
1.853951 0.559764 0.678352
1.852663 0.565870 0.646047
1.834620 0.561405 0.646496
1.839176 0.515140 0.673608
1.858282 0.514286 0.673382
1.856993 0.520391 0.641077
1.838950 0.515926 0.641527
1.834516 0.561372 0.646693
1.852559 0.565837 0.646244
1.851035 0.566955 0.613789
1.834549 0.567800 0.614776
1.839051 0.515966 0.641265
1.857095 0.520431 0.640816
1.855570 0.521549 0.608361
1.839084 0.522394 0.609348
1.852890 0.558564 0.709352
1.873563 0.562751 0.709621
1.870709 0.563836 0.676823
1.851339 0.559472 0.676909
1.862487 0.513669 0.707332
1.883160 0.517856 0.707601
1.880305 0.518941 0.674803
1.860936 0.514577 0.674889
1.853961 0.559750 0.678488
1.873331 0.564114 0.678402
1.870474 0.565127 0.645578
1.852673 0.565855 0.646183
1.858309 0.514304 0.673245
1.877679 0.518668 0.673159
1.874821 0.519680 0.640334
1.857020 0.520409 0.640940
1.855998 0.566074 0.644159
1.873799 0.565345 0.643553
1.870934 0.566239 0.610767
1.854474 0.567192 0.611705
1.853690 0.520195 0.642899
1.871491 0.519466 0.642293
1.868626 0.520361 0.609507
1.852166 0.521313 0.610445
1.879095 0.563263 0.709214
1.898979 0.562892 0.704859
1.894974 0.563718 0.673177
1.876241 0.564349 0.676416
1.877667 0.517347 0.708005
1.897551 0.516976 0.703650
1.893546 0.517802 0.671968
1.874812 0.518433 0.675207
1.876508 0.564341 0.676335
1.895242 0.563710 0.673096
1.891258 0.564553 0.641435
1.873651 0.565353 0.643510
1.874538 0.518442 0.675224
1.893271 0.517812 0.671985
1.889287 0.518654 0.640324
1.871681 0.519455 0.642399
1.873813 0.565348 0.643421
1.891420 0.564547 0.641346
1.887409 0.565400 0.609649
1.870948 0.566242 0.610635
1.871512 0.519462 0.642423
1.889118 0.518662 0.640348
1.885108 0.519515 0.608651
1.868646 0.520356 0.609637
1.924910 0.576363 0.825948
1.918094 0.572766 0.794961
1.891431 0.572823 0.796818
1.895846 0.576095 0.827021
1.925349 0.530689 0.830994
1.918533 0.527092 0.800007
1.891870 0.527149 0.801864
1.896285 0.530421 0.832068
1.918265 0.572765 0.794946
1.911458 0.569253 0.763942
1.887184 0.569596 0.766603
1.891602 0.572822 0.796803
1.918351 0.527086 0.799960
1.911544 0.523573 0.768956
1.887270 0.523916 0.771617
1.891688 0.527143 0.801817
1.911652 0.569241 0.763842
1.904837 0.565666 0.732848
1.882963 0.566330 0.736301
1.887378 0.569584 0.766503
1.911339 0.523578 0.768995
1.904523 0.520003 0.738000
1.882649 0.520667 0.741453
1.887064 0.523921 0.771655
1.904812 0.565693 0.733100
1.898407 0.562797 0.701992
1.878523 0.563168 0.706348
1.882938 0.566357 0.736553
1.904537 0.519970 0.737687
1.898132 0.517074 0.706579
1.878248 0.517444 0.710934
1.882663 0.520634 0.741140
1.895805 0.576110 0.827174
1.891389 0.572839 0.796970
1.864480 0.572735 0.797735
1.866743 0.575833 0.828237
1.896271 0.530404 0.831918
1.891856 0.527133 0.801714
1.864947 0.527029 0.802479
1.867210 0.530127 0.832981
1.891566 0.572840 0.796968
1.887148 0.569613 0.766767
1.862392 0.569720 0.767215
1.864657 0.572736 0.797733
1.891673 0.527125 0.801656
1.887254 0.523899 0.771455
1.862499 0.524006 0.771903
1.864764 0.527022 0.802420
1.887368 0.569604 0.766688
1.882953 0.566351 0.736486
1.860348 0.566659 0.736626
1.862613 0.569712 0.767136
1.887027 0.523901 0.771473
1.882612 0.520648 0.741271
1.860006 0.520956 0.741411
1.862271 0.524009 0.771921
1.880768 0.566065 0.735041
1.876353 0.562876 0.704836
1.855680 0.558689 0.704567
1.858162 0.566373 0.735181
1.884791 0.520925 0.742655
1.880376 0.517736 0.712450
1.859703 0.513549 0.712181
1.862185 0.521233 0.742795
1.866738 0.575847 0.828381
1.864475 0.572749 0.797878
1.837565 0.572678 0.798634
1.837678 0.575580 0.829453
1.867160 0.530112 0.832840
1.864897 0.527014 0.802337
1.837987 0.526943 0.803092
1.838100 0.529845 0.833912
1.864637 0.572751 0.797886
1.862372 0.569736 0.767369
1.837616 0.569815 0.767824
1.837726 0.572679 0.798641
1.864732 0.527007 0.802268
1.862467 0.523991 0.771750
1.837712 0.524070 0.772206
1.837822 0.526935 0.803023
1.862551 0.569730 0.767312
1.860286 0.566677 0.736802
1.837680 0.566930 0.736946
1.837795 0.569809 0.767767
1.862286 0.523991 0.771746
1.860021 0.520938 0.741236
1.837415 0.521191 0.741381
1.837530 0.524070 0.772202
1.860788 0.566139 0.733641
1.858306 0.558455 0.703026
1.837878 0.559426 0.702872
1.838183 0.566392 0.733786
1.859515 0.521465 0.744336
1.857033 0.513781 0.713721
1.836605 0.514752 0.713567
1.836910 0.521718 0.744480
1.837632 0.575593 0.829589
1.837519 0.572690 0.798770
1.810611 0.572572 0.799536
1.808570 0.575319 0.830656
1.838090 0.529832 0.833778
1.837977 0.526930 0.802958
1.811069 0.526811 0.803724
1.809028 0.529559 0.834844
1.837693 0.572694 0.798795
1.837582 0.569829 0.767979
1.812823 0.569929 0.768428
1.810785 0.572575 0.799561
1.837805 0.526921 0.802870
1.837694 0.524056 0.772053
1.812935 0.524157 0.772503
1.810897 0.526802 0.803636
1.837798 0.569824 0.767930
1.837683 0.566945 0.737109
1.815081 0.567227 0.737255
1.813039 0.569925 0.768379
1.837480 0.524055 0.772040
1.837365 0.521176 0.741219
1.814763 0.521459 0.741365
1.812721 0.524156 0.772489
1.838156 0.566519 0.734343
1.837850 0.559553 0.703430
1.817418 0.560478 0.703280
1.815554 0.566802 0.734489
1.836894 0.521592 0.743923
1.836589 0.514626 0.713009
1.816156 0.515551 0.712859
1.814292 0.521875 0.744069
1.808581 0.575332 0.830804
1.810623 0.572585 0.799683
1.783712 0.572543 0.800438
1.779522 0.575066 0.831875
1.808960 0.529545 0.834699
1.811002 0.526798 0.803578
1.784091 0.526756 0.804333
1.779900 0.529279 0.835770
1.810809 0.572589 0.799724
1.812847 0.569943 0.768590
1.788092 0.570070 0.769041
1.783898 0.572548 0.800478
1.810821 0.526788 0.803475
1.812859 0.524143 0.772342
1.788104 0.524269 0.772793
1.783910 0.526747 0.804229
1.813031 0.569938 0.768535
1.815073 0.567241 0.737411
1.792467 0.567525 0.737552
1.788276 0.570065 0.768986
1.812681 0.524143 0.772334
1.814723 0.521445 0.741210
1.792117 0.521730 0.741350
1.787926 0.524269 0.772785
1.817240 0.567006 0.736327
1.819104 0.560682 0.705117
1.798827 0.564829 0.705031
1.794634 0.567290 0.736467
1.812563 0.521673 0.742231
1.814427 0.515350 0.711022
1.794150 0.519497 0.710936
1.789957 0.521958 0.742372
1.779457 0.575076 0.832008
1.783647 0.572554 0.800571
1.756740 0.572421 0.801337
1.750394 0.574801 0.833077
1.779909 0.529268 0.835638
1.784100 0.526746 0.804201
1.757193 0.526613 0.804966
1.750847 0.528993 0.836707
1.783782 0.572556 0.800593
1.787976 0.570079 0.769156
1.763218 0.570087 0.769612
1.756875 0.572424 0.801358
1.783975 0.526738 0.804116
1.788169 0.524260 0.772679
1.763411 0.524269 0.773136
1.757068 0.526606 0.804882
1.788165 0.570077 0.769134
1.792355 0.567538 0.737700
1.769751 0.567755 0.737848
1.763406 0.570086 0.769591
1.787991 0.524257 0.772638
1.792182 0.521718 0.741203
1.769578 0.521935 0.741351
1.763233 0.524266 0.773094
1.792574 0.567538 0.737731
1.796767 0.565077 0.706295
1.776312 0.565424 0.706136
1.769970 0.567755 0.737880
1.791973 0.521712 0.741108
1.796166 0.519251 0.709672
1.775711 0.519598 0.709512
1.769370 0.521930 0.741256
1.728137 0.547669 0.837207
1.726463 0.547234 0.808020
1.729186 0.528408 0.812237
1.732996 0.529943 0.839967
1.773072 0.556108 0.832585
1.771399 0.555672 0.803398
1.774121 0.536847 0.807615
1.777932 0.538382 0.835345
1.726103 0.550108 0.807953
1.724417 0.549675 0.778765
1.724963 0.529733 0.784447
1.728826 0.531283 0.812169
1.771753 0.552796 0.803408
1.770067 0.552362 0.774220
1.770612 0.532420 0.779902
1.774475 0.533970 0.807625
1.724403 0.552306 0.778645
1.722720 0.551874 0.749458
1.721085 0.530815 0.756604
1.724948 0.532365 0.784326
1.770076 0.549728 0.774284
1.768394 0.549295 0.745097
1.766759 0.528236 0.752243
1.770622 0.529786 0.779965
1.722957 0.554186 0.749328
1.721267 0.553757 0.720139
1.717459 0.531576 0.728749
1.721321 0.533127 0.756474
1.768151 0.546981 0.745169
1.766462 0.546552 0.715981
1.762654 0.524372 0.724590
1.766516 0.525922 0.752316
1.721499 0.555386 0.718673
1.721419 0.553773 0.689491
1.715681 0.532894 0.699309
1.717690 0.533205 0.727282
1.766227 0.544921 0.717391
1.766148 0.543308 0.688209
1.760410 0.522430 0.698027
1.762419 0.522741 0.726000
1.722190 0.556394 0.688739
1.723295 0.553916 0.659623
1.714586 0.535299 0.670585
1.716452 0.535516 0.698556
1.765375 0.540684 0.688904
1.766480 0.538206 0.659789
1.757771 0.519589 0.670750
1.759637 0.519806 0.698722
1.724966 0.557505 0.659390
1.726094 0.555002 0.630275
1.714391 0.538671 0.642381
1.716257 0.538888 0.670352
1.764809 0.534614 0.659965
1.765936 0.532111 0.630850
1.754234 0.515780 0.642956
1.756100 0.515997 0.670927
1.786550 0.569792 0.615175
1.765920 0.568162 0.623003
1.763470 0.568588 0.653198
1.782782 0.568441 0.646127
1.788054 0.523866 0.614633
1.767424 0.522235 0.622461
1.764974 0.522661 0.652656
1.784287 0.522515 0.645585
1.765533 0.568116 0.621540
1.744911 0.566484 0.629354
1.743784 0.568987 0.658469
1.763084 0.568542 0.651736
1.767770 0.522279 0.623938
1.747149 0.520648 0.631752
1.746021 0.523150 0.660867
1.765321 0.522705 0.654134
1.785018 0.568399 0.646474
1.765705 0.568545 0.653545
1.763282 0.568850 0.683878
1.781255 0.566925 0.677408
1.782045 0.522556 0.645299
1.762733 0.522703 0.652370
1.760310 0.523007 0.682703
1.778282 0.521083 0.676233
1.765760 0.568528 0.651985
1.746461 0.568973 0.658718
1.745356 0.571451 0.687834
1.763337 0.568832 0.682318
1.762640 0.522722 0.653944
1.743340 0.523167 0.660677
1.742236 0.525645 0.689793
1.760217 0.523026 0.684276
1.783887 0.566595 0.677612
1.765915 0.568519 0.684082
1.763773 0.569029 0.714329
1.780119 0.565103 0.708557
1.775644 0.521412 0.676091
1.757671 0.523336 0.682560
1.755530 0.523846 0.712807
1.771875 0.519921 0.707035
1.765828 0.568538 0.682660
1.747846 0.571157 0.688176
1.747925 0.572770 0.717358
1.763686 0.569047 0.712907
1.757724 0.523324 0.683994
1.739743 0.525942 0.689510
1.739822 0.527556 0.718692
1.755583 0.523833 0.714241
1.781140 0.564898 0.707218
1.764794 0.568823 0.712990
1.762631 0.570118 0.742703
1.774798 0.567229 0.738962
1.770847 0.520128 0.708436
1.754502 0.524053 0.714208
1.752339 0.525348 0.743921
1.764506 0.522459 0.740180
1.764771 0.568828 0.712989
1.749010 0.572551 0.717440
1.750699 0.572979 0.746629
1.762608 0.570123 0.742703
1.754497 0.524054 0.714217
1.738736 0.527777 0.718668
1.740425 0.528206 0.747856
1.752334 0.525349 0.743931
1.774799 0.567230 0.738976
1.762632 0.570118 0.742718
1.760546 0.571398 0.770800
1.768453 0.569560 0.770718
1.764497 0.522463 0.740226
1.752330 0.525351 0.743968
1.750244 0.526631 0.772050
1.758152 0.524793 0.771968
1.762620 0.570121 0.742713
1.750711 0.572977 0.746639
1.752394 0.573410 0.775826
1.760534 0.571401 0.770795
1.752322 0.525353 0.743979
1.740413 0.528210 0.747905
1.742096 0.528642 0.777092
1.750236 0.526633 0.772062
1.768479 0.569556 0.770763
1.760571 0.571393 0.770845
1.758902 0.572377 0.792977
1.762137 0.571893 0.802509
1.758118 0.524802 0.771981
1.750210 0.526639 0.772063
1.748541 0.527623 0.794195
1.751775 0.527138 0.803727
1.760568 0.571394 0.770836
1.752428 0.573403 0.775866
1.754114 0.573837 0.805054
1.758899 0.572378 0.792968
1.750201 0.526642 0.772076
1.742061 0.528651 0.777106
1.743747 0.529085 0.806293
1.748532 0.527626 0.794208
1.762171 0.571885 0.802509
1.758937 0.572369 0.792977
1.754152 0.573828 0.805063
1.755825 0.574264 0.834250
1.751731 0.527150 0.803775
1.748497 0.527635 0.794243
1.743712 0.529094 0.806329
1.745385 0.529529 0.835516
