4.304263 0.564903 -0.764861
4.428210 0.606758 -0.389787
4.412765 0.607234 -0.392546
4.415378 0.606880 -0.369640
4.433780 0.606143 -0.356190
4.426611 0.552840 -0.390480
4.411166 0.553316 -0.393239
4.413778 0.552962 -0.370332
4.432180 0.552226 -0.356882
4.412634 0.607238 -0.392629
4.397186 0.607603 -0.395390
4.396842 0.607544 -0.383178
4.415247 0.606885 -0.369722
4.411263 0.553312 -0.393173
4.395814 0.553677 -0.395934
4.395471 0.553619 -0.383722
4.413875 0.552959 -0.370266
4.425560 0.592274 0.390749
4.430959 0.592866 0.360156
4.412482 0.593083 0.373525
4.410099 0.592590 0.393437
4.424055 0.538367 0.389359
4.429454 0.538959 0.358766
4.410977 0.539176 0.372135
4.408593 0.538683 0.392048
4.408893 0.592606 0.392632
4.411276 0.593099 0.372719
4.392799 0.592317 0.386088
4.393430 0.592910 0.395320
4.409766 0.538667 0.392869
4.412149 0.539160 0.372956
4.393672 0.538378 0.386325
4.394303 0.538971 0.395558
4.341671 0.587655 0.745690
4.322427 0.588849 0.756108
4.316687 0.589545 0.772626
4.332357 0.587167 0.771962
4.335595 0.534085 0.743812
4.316351 0.535279 0.754230
4.310611 0.535975 0.770748
4.326281 0.533597 0.770084
4.321205 0.588911 0.753301
4.301962 0.590104 0.763718
4.299574 0.591515 0.769445
4.315465 0.589607 0.769819
4.317538 0.535220 0.757047
4.298295 0.536413 0.767465
4.295906 0.537824 0.773191
4.311798 0.535916 0.773566
4.290653 0.384491 -0.791660
4.299130 0.384722 -0.761229
4.291215 0.384003 -0.758600
4.284713 0.383793 -0.786627
4.285651 0.438197 -0.790783
4.294128 0.438428 -0.760352
4.286212 0.437710 -0.757723
4.279711 0.437500 -0.785751
4.298875 0.384698 -0.761130
4.307349 0.384964 -0.730700
4.297465 0.384160 -0.730472
4.290960 0.383979 -0.758500
4.294398 0.438453 -0.760393
4.302871 0.438718 -0.729963
4.292988 0.437915 -0.729736
4.286482 0.437734 -0.757764
4.284756 0.383796 -0.786540
4.291257 0.384006 -0.758513
4.283345 0.383257 -0.755883
4.278811 0.383128 -0.781508
4.279654 0.437496 -0.785830
4.286156 0.437705 -0.757803
4.278243 0.436956 -0.755173
4.273710 0.436827 -0.780798
4.290966 0.383979 -0.758425
4.297471 0.384160 -0.730397
4.287584 0.383386 -0.730170
4.283053 0.383230 -0.755795
4.286459 0.437733 -0.757836
4.292964 0.437914 -0.729808
4.283077 0.437140 -0.729581
4.278546 0.436984 -0.755206
4.386168 0.377565 -0.433821
4.395661 0.373330 -0.392905
4.387028 0.372285 -0.395154
4.381172 0.374360 -0.425028
4.373518 0.429486 -0.426450
4.383010 0.425251 -0.385534
4.374377 0.424206 -0.387784
4.368522 0.426281 -0.417657
4.379388 0.373769 -0.422749
4.385243 0.371694 -0.392875
4.376562 0.371817 -0.395091
4.375043 0.371012 -0.412931
4.370293 0.426868 -0.419929
4.376148 0.424793 -0.390055
4.367467 0.424916 -0.392271
4.365948 0.424111 -0.410111
4.394101 0.372742 -0.388812
4.403177 0.375480 -0.347640
4.390908 0.372553 -0.361475
4.385468 0.371697 -0.391061
4.384585 0.425837 -0.389556
4.393661 0.428575 -0.348384
4.381391 0.425648 -0.362220
4.375952 0.424792 -0.391806
4.381240 0.371279 -0.391060
4.386680 0.372135 -0.361474
4.374399 0.371365 -0.375288
4.372559 0.371401 -0.393275
4.380158 0.425209 -0.391823
4.385598 0.426064 -0.362237
4.373317 0.425295 -0.376052
4.371477 0.425331 -0.394039
4.379457 0.356100 0.427600
4.374440 0.355824 0.418172
4.380635 0.354378 0.388837
4.389271 0.355837 0.386653
4.373993 0.409709 0.425052
4.368977 0.409432 0.415624
4.375171 0.407986 0.386288
4.383807 0.409445 0.384104
4.389811 0.355875 0.384705
4.381175 0.354415 0.386889
4.386848 0.356164 0.357408
4.399203 0.357642 0.343717
4.383283 0.409409 0.385981
4.374647 0.407949 0.388165
4.380321 0.409698 0.358684
4.392676 0.411177 0.344993
4.377710 0.356418 0.419020
4.373024 0.354100 0.409687
4.375290 0.353658 0.391838
4.383904 0.354971 0.389685
4.365694 0.408836 0.414768
4.361008 0.406518 0.405436
4.363273 0.406077 0.387586
4.371888 0.407390 0.385433
4.380309 0.354358 0.386027
4.371694 0.353045 0.388180
4.373625 0.354646 0.370239
4.385983 0.356107 0.356545
4.375492 0.408004 0.389044
4.366877 0.406690 0.391197
4.368808 0.408291 0.373256
4.381165 0.409753 0.359562
4.285890 0.355249 0.786554
4.279974 0.354673 0.781476
4.286571 0.355978 0.753499
4.294474 0.356632 0.756184
4.280510 0.408915 0.787626
4.274594 0.408339 0.782548
4.281191 0.409644 0.754571
4.289094 0.410298 0.757256
4.280008 0.354679 0.781373
4.274086 0.354167 0.776297
4.278709 0.355272 0.750711
4.286606 0.355983 0.753396
4.274545 0.408332 0.782643
4.268623 0.407820 0.777567
4.273246 0.408926 0.751981
4.281143 0.409637 0.754666
4.294267 0.356615 0.756032
4.286364 0.355961 0.753348
4.292963 0.357247 0.725371
4.302836 0.358158 0.725665
4.289317 0.410317 0.757349
4.281414 0.409663 0.754664
4.288013 0.410949 0.726687
4.297885 0.411861 0.726982
4.286336 0.355960 0.753292
4.278439 0.355248 0.750607
4.283056 0.356410 0.725022
4.292935 0.357246 0.725315
4.281424 0.409663 0.754717
4.273527 0.408951 0.752032
4.278144 0.410113 0.726447
4.288023 0.410949 0.726740
4.127238 0.608815 0.955274
4.125828 0.598182 0.961568
4.154445 0.596115 0.957910
4.155414 0.607985 0.951012
4.119421 0.582438 0.908871
4.118011 0.571805 0.915165
4.146628 0.569738 0.911506
4.147597 0.581608 0.904608
4.155444 0.607950 0.951027
4.154475 0.596080 0.957925
4.183093 0.594013 0.954267
4.183619 0.607120 0.946764
4.147625 0.581641 0.904585
4.146655 0.569771 0.911483
4.175273 0.567704 0.907825
4.175800 0.580811 0.900322
4.127552 0.623165 0.939261
4.126590 0.618249 0.946400
4.154766 0.617420 0.942137
4.155022 0.622933 0.932546
4.121033 0.577936 0.910591
4.120071 0.573020 0.917730
4.148247 0.572190 0.913467
4.148503 0.577704 0.903876
4.154744 0.623952 0.930865
4.154488 0.618439 0.940456
4.182664 0.617609 0.936193
4.182214 0.623711 0.924144
4.148837 0.576684 0.905547
4.148581 0.571171 0.915138
4.176756 0.570341 0.910875
4.176307 0.576442 0.898826
4.183646 0.607084 0.946780
4.183120 0.593976 0.954283
4.211737 0.591910 0.950622
4.211822 0.606259 0.942523
4.175830 0.580845 0.900298
4.175303 0.567737 0.907801
4.203920 0.565671 0.904140
4.204006 0.580020 0.896041
4.211853 0.606222 0.942539
4.211767 0.591873 0.950638
4.240385 0.589806 0.946976
4.240029 0.605396 0.938280
4.204032 0.580055 0.896017
4.203947 0.565705 0.904116
4.232564 0.563638 0.900454
4.232209 0.579229 0.891758
4.182010 0.624305 0.923017
4.182460 0.618203 0.935066
4.210636 0.617378 0.930808
4.209484 0.624096 0.916314
4.176566 0.575847 0.899942
4.177016 0.569746 0.911991
4.205192 0.568921 0.907734
4.204040 0.575639 0.893240
4.209375 0.624478 0.915502
4.210527 0.617761 0.929996
4.238703 0.616935 0.925738
4.236845 0.624243 0.908786
4.204205 0.575256 0.894041
4.205356 0.568538 0.908535
4.233533 0.567712 0.904277
4.231674 0.575021 0.887325
4.240058 0.605365 0.938293
4.240414 0.589774 0.946989
4.269031 0.587708 0.943327
4.268235 0.604540 0.934034
4.232236 0.579257 0.891738
4.232592 0.563667 0.900434
4.261209 0.561600 0.896772
4.260412 0.578432 0.887479
4.268265 0.604513 0.934044
4.269062 0.587681 0.943337
4.297679 0.585614 0.939674
4.296442 0.603686 0.929783
4.260439 0.578455 0.887461
4.261236 0.561623 0.896754
4.289853 0.559556 0.893092
4.288616 0.577628 0.883201
4.236744 0.624509 0.908180
4.238603 0.617201 0.925131
4.266779 0.616375 0.920872
4.264217 0.624303 0.901475
4.231830 0.574754 0.887921
4.233689 0.567445 0.904872
4.261865 0.566620 0.900614
4.259303 0.574547 0.881217
4.264156 0.624487 0.901026
4.266718 0.616559 0.920423
4.294896 0.615732 0.916163
4.291628 0.624293 0.894322
4.259420 0.574362 0.881654
4.261982 0.566435 0.901051
4.290159 0.565608 0.896791
4.286892 0.574168 0.874950
4.306889 0.602559 0.925986
4.308126 0.584487 0.935877
4.346637 0.583864 0.908201
4.341359 0.601930 0.900827
4.278235 0.578753 0.886968
4.279471 0.560680 0.896859
4.317982 0.560058 0.869184
4.312705 0.578123 0.861810
4.341286 0.602314 0.900641
4.346564 0.584249 0.908016
4.385072 0.583626 0.880336
4.375760 0.601690 0.875486
4.312850 0.577738 0.861942
4.318128 0.559672 0.869317
4.356636 0.559050 0.841637
4.347324 0.577114 0.836788
4.296006 0.624652 0.890629
4.299274 0.616092 0.912470
4.333744 0.615462 0.887311
4.313637 0.622730 0.868311
4.282568 0.573807 0.878614
4.285835 0.565247 0.900455
4.320305 0.564617 0.875296
4.300199 0.571885 0.856297
4.311137 0.623748 0.865561
4.331244 0.616481 0.884561
4.365717 0.615856 0.859406
4.328801 0.621992 0.843265
4.302751 0.570864 0.859000
4.322857 0.563596 0.877999
4.357330 0.562972 0.852844
4.320414 0.569107 0.836704
4.383131 0.602823 0.865184
4.392443 0.584759 0.870034
4.405294 0.585265 0.838490
4.395872 0.603737 0.833825
4.340002 0.575981 0.847032
4.349314 0.557917 0.851881
4.362165 0.558422 0.820337
4.352742 0.576895 0.815672
4.395986 0.603548 0.833829
4.405409 0.585076 0.838494
4.418263 0.585581 0.806950
4.408723 0.604457 0.802468
4.352653 0.577084 0.815606
4.362076 0.558612 0.820271
4.374930 0.559117 0.788727
4.365390 0.577993 0.784245
4.364968 0.616092 0.858122
4.377709 0.617006 0.826762
4.339443 0.622953 0.810883
4.328052 0.622227 0.841981
4.358117 0.562736 0.854074
4.370858 0.563650 0.822714
4.332592 0.569597 0.806835
4.321201 0.568871 0.837933
4.377525 0.617037 0.826654
4.390262 0.617945 0.795293
4.350650 0.623711 0.779677
4.339259 0.622984 0.810775
4.371066 0.563621 0.822760
4.383802 0.564529 0.791399
4.344190 0.570295 0.775784
4.332800 0.569568 0.806881
4.390341 0.617967 0.794798
4.401103 0.618601 0.759716
4.360757 0.624362 0.745388
4.350728 0.623733 0.779183
4.383746 0.564508 0.791828
4.394509 0.565142 0.756746
4.354163 0.570903 0.742418
4.344134 0.570274 0.776213
4.401101 0.618603 0.759677
4.411862 0.619234 0.724594
4.370782 0.624994 0.711554
4.360755 0.624364 0.745349
4.394532 0.565141 0.756716
4.405293 0.565771 0.721633
4.364213 0.571531 0.708593
4.354186 0.570902 0.742388
4.409492 0.604384 0.800505
4.419031 0.585508 0.804987
4.429960 0.586064 0.770165
4.420254 0.605018 0.765423
4.364645 0.578066 0.786141
4.374185 0.559190 0.790624
4.385113 0.559746 0.755801
4.375408 0.578700 0.751059
4.420166 0.605202 0.765358
4.429871 0.586248 0.770101
4.440800 0.586803 0.735278
4.430927 0.605833 0.730275
4.375518 0.578517 0.751053
4.385223 0.559563 0.755796
4.396152 0.560118 0.720973
4.386279 0.579148 0.715970
4.479294 0.622342 0.461436
4.486651 0.622839 0.427405
4.444778 0.629371 0.420647
4.438086 0.629026 0.454443
4.471204 0.569057 0.459099
4.478562 0.569554 0.425067
4.436689 0.576086 0.418310
4.429997 0.575741 0.452106
4.486514 0.622862 0.427339
4.493869 0.623355 0.393307
4.451333 0.629738 0.386785
4.444642 0.629394 0.420582
4.478713 0.569532 0.425065
4.486068 0.570025 0.391033
4.443531 0.576407 0.384512
4.436840 0.576064 0.418308
4.497791 0.609713 0.465156
4.508539 0.591686 0.468693
4.516088 0.591347 0.433545
4.505149 0.610210 0.431124
4.452759 0.581661 0.455389
4.463507 0.563634 0.458926
4.471056 0.563296 0.423778
4.460117 0.582158 0.421357
4.505444 0.609715 0.431149
4.516384 0.590852 0.433569
4.523932 0.590512 0.398421
4.512799 0.610208 0.397117
4.459836 0.582653 0.421264
4.470775 0.563791 0.423684
4.478323 0.563450 0.388536
4.467191 0.583147 0.387232
4.513270 0.609797 0.395881
4.524403 0.590100 0.397185
4.530320 0.590138 0.358792
4.519143 0.610633 0.357913
4.466733 0.583559 0.388395
4.477866 0.563862 0.389699
4.483783 0.563899 0.351306
4.472606 0.584395 0.350427
4.519371 0.610224 0.357903
4.530548 0.589729 0.358781
4.536463 0.589764 0.320387
4.525242 0.611060 0.319936
4.472390 0.584805 0.350362
4.483568 0.564309 0.351240
4.489482 0.564345 0.312846
4.478261 0.585640 0.312395
4.493811 0.623363 0.393337
4.499684 0.624199 0.355369
4.456299 0.630584 0.352812
4.451274 0.629745 0.386815
4.486138 0.570019 0.390933
4.492011 0.570856 0.352966
4.448627 0.577240 0.350409
4.443602 0.576402 0.384412
4.499724 0.624195 0.355337
4.505595 0.625030 0.317370
4.461364 0.631416 0.318776
4.456339 0.630580 0.352780
4.491982 0.570862 0.352926
4.497853 0.571697 0.314959
4.453621 0.578083 0.316365
4.448597 0.577246 0.350369
4.501417 0.626455 -0.460068
4.508529 0.625713 -0.425986
4.519373 0.606880 -0.428990
4.512087 0.608499 -0.464159
4.456151 0.598353 -0.451615
4.463263 0.597612 -0.417533
4.474107 0.578779 -0.420537
4.466821 0.580398 -0.455706
4.508822 0.625219 -0.426023
4.515926 0.624466 -0.391938
4.526954 0.604762 -0.393858
4.519666 0.606386 -0.429027
4.462984 0.598104 -0.417427
4.470088 0.597352 -0.383342
4.481117 0.577648 -0.385263
4.473828 0.579271 -0.420431
4.482952 0.639061 -0.456026
4.441732 0.645733 -0.449096
4.448175 0.644825 -0.415262
4.490063 0.638319 -0.421944
4.474564 0.585772 -0.455646
4.433344 0.592444 -0.448716
4.439788 0.591537 -0.414882
4.481676 0.585031 -0.421564
4.489913 0.638343 -0.421872
4.448024 0.644849 -0.415190
4.454461 0.643939 -0.381356
4.497016 0.637591 -0.387788
4.481840 0.585005 -0.421568
4.439952 0.591511 -0.414886
4.446389 0.590601 -0.381052
4.488944 0.584253 -0.387484
4.496947 0.637601 -0.387811
4.454392 0.643949 -0.381380
4.459160 0.643530 -0.347333
4.502535 0.637051 -0.349792
4.489025 0.584241 -0.387390
4.446470 0.590590 -0.380959
4.451238 0.590171 -0.346912
4.494613 0.583691 -0.349371
4.502566 0.637047 -0.349755
4.459191 0.643526 -0.347296
4.463953 0.643105 -0.313248
4.508147 0.636488 -0.311737
4.494592 0.583695 -0.349335
4.451217 0.590174 -0.346877
4.455979 0.589753 -0.312829
4.500173 0.583137 -0.311317
4.516380 0.624019 -0.390709
4.521968 0.623469 -0.352689
4.533046 0.602958 -0.354216
4.527408 0.604315 -0.392629
4.469647 0.597797 -0.384499
4.475235 0.597247 -0.346479
4.486313 0.576736 -0.348007
4.480675 0.578093 -0.386419
4.522183 0.623079 -0.352687
4.527763 0.622521 -0.314669
4.538900 0.601206 -0.315802
4.533261 0.602568 -0.354214
4.475031 0.597635 -0.346405
4.480611 0.597077 -0.308386
4.491748 0.575763 -0.309520
4.486109 0.577124 -0.347932
4.371501 0.647407 -0.853500
4.334497 0.653154 -0.837414
4.345665 0.652723 -0.806232
4.384016 0.647141 -0.822038
4.364359 0.593978 -0.851395
4.327355 0.599725 -0.835309
4.338523 0.599294 -0.804126
4.376874 0.593711 -0.819933
4.383835 0.647168 -0.821935
4.345484 0.652751 -0.806128
4.356650 0.652325 -0.774945
4.396346 0.646900 -0.790472
4.377079 0.593683 -0.819974
4.338728 0.599266 -0.804167
4.349894 0.598839 -0.772985
4.389590 0.593415 -0.788511
4.396426 0.646903 -0.789980
4.356730 0.652328 -0.774453
4.366514 0.651721 -0.740588
4.406934 0.646241 -0.754821
4.389532 0.593410 -0.788937
4.349836 0.598835 -0.773410
4.359620 0.598228 -0.739545
4.400041 0.592748 -0.753778
4.406938 0.646241 -0.754785
4.366518 0.651722 -0.740553
4.376300 0.651118 -0.706687
4.417443 0.645579 -0.719625
4.400057 0.592746 -0.753744
4.359637 0.598226 -0.739512
4.369420 0.597622 -0.705646
4.410563 0.592084 -0.718584
4.415545 0.633430 -0.796021
4.426053 0.632768 -0.760862
4.435700 0.613944 -0.766202
4.425021 0.614674 -0.801099
4.370463 0.606859 -0.782915
4.380971 0.606196 -0.747756
4.390618 0.587372 -0.753096
4.379939 0.588102 -0.787993
4.425965 0.632951 -0.760790
4.436471 0.632288 -0.725630
4.446284 0.613395 -0.731230
4.435612 0.614126 -0.766130
4.381080 0.606013 -0.747758
4.391585 0.605350 -0.712598
4.401399 0.586457 -0.718198
4.390727 0.587188 -0.753098
4.389658 0.634286 -0.860908
4.402173 0.634019 -0.829446
4.411531 0.615671 -0.834693
4.398895 0.616345 -0.866323
4.346250 0.607076 -0.844009
4.358765 0.606809 -0.812547
4.368124 0.588461 -0.817795
4.355487 0.589135 -0.849424
4.402282 0.633841 -0.829450
4.414793 0.633572 -0.797987
4.424269 0.614816 -0.803065
4.411640 0.615493 -0.834697
4.358681 0.606986 -0.812480
4.371192 0.606718 -0.781017
4.380668 0.587961 -0.786095
4.368040 0.588638 -0.817727
4.301955 0.608115 0.832427
4.313346 0.608841 0.801329
4.296248 0.574102 0.792695
4.286010 0.571898 0.821845
4.347244 0.582954 0.847461
4.358635 0.583680 0.816364
4.341536 0.548941 0.807730
4.331299 0.546737 0.836880
4.313682 0.609016 0.800649
4.325073 0.609743 0.769551
4.307008 0.573154 0.762884
4.296584 0.574277 0.792015
4.358320 0.583506 0.816984
4.369711 0.584233 0.785886
4.351646 0.547644 0.779219
4.341222 0.548767 0.808350
4.334186 0.609796 0.737658
4.344214 0.610426 0.703863
4.326265 0.573536 0.696156
4.315407 0.573067 0.738513
4.380695 0.585439 0.750062
4.390722 0.586068 0.716267
4.372773 0.549178 0.708561
4.361915 0.548710 0.750917
4.393936 0.576767 0.432473
4.410424 0.614794 0.449173
4.417116 0.615139 0.415378
4.397581 0.577267 0.409243
4.441111 0.551914 0.440657
4.457599 0.589942 0.457357
4.464292 0.590287 0.423562
4.444757 0.552415 0.417427
4.397913 0.577891 0.409282
4.417449 0.615763 0.415416
4.424140 0.616107 0.381620
4.401562 0.578388 0.386052
4.444434 0.551792 0.417332
4.463970 0.589664 0.423466
4.470661 0.590007 0.389670
4.448083 0.552289 0.394102
4.429126 0.617165 0.348710
4.434151 0.618001 0.314706
4.413695 0.581215 0.307781
4.406923 0.579199 0.356552
4.475745 0.590630 0.354439
4.480769 0.591467 0.320435
4.460313 0.554681 0.313510
4.453541 0.552665 0.362281
4.431853 0.630017 -0.343925
4.409687 0.592386 -0.353327
4.416057 0.592614 -0.304466
4.436615 0.629597 -0.309877
4.478490 0.603651 -0.350249
4.456324 0.566020 -0.359651
4.462694 0.566247 -0.310790
4.483252 0.603231 -0.316201
4.404114 0.592678 -0.385824
4.427082 0.630114 -0.376871
4.420645 0.631025 -0.410705
4.400482 0.593078 -0.410064
4.450736 0.566958 -0.394488
4.473704 0.604395 -0.385535
4.467267 0.605305 -0.419369
4.447104 0.567358 -0.418728
4.400218 0.592536 -0.409923
4.420381 0.630482 -0.410563
4.413938 0.631390 -0.444397
4.397161 0.592860 -0.429202
4.447359 0.567902 -0.418925
4.467522 0.605848 -0.419566
4.461079 0.606756 -0.453400
4.444303 0.568226 -0.438205
4.339831 0.637072 -0.733562
4.320807 0.600528 -0.735817
4.331380 0.599451 -0.693399
4.349613 0.636468 -0.699696
4.386265 0.612844 -0.746487
4.367242 0.576301 -0.748741
4.377814 0.575223 -0.706324
4.396048 0.612241 -0.712621
4.330868 0.638074 -0.765561
4.319702 0.638500 -0.796744
4.301202 0.603268 -0.792774
4.310228 0.601519 -0.766900
4.375618 0.613060 -0.782351
4.364452 0.613486 -0.813534
4.345952 0.578254 -0.809564
4.354978 0.576505 -0.783690
4.319444 0.638398 -0.797301
4.308276 0.638829 -0.828483
4.292040 0.602363 -0.819287
4.300945 0.603166 -0.793331
4.364689 0.613589 -0.813035
4.353521 0.614020 -0.844217
4.337285 0.577554 -0.835021
4.346190 0.578357 -0.809065
4.302921 0.657568 -0.886272
4.320384 0.654792 -0.863918
4.340561 0.647968 -0.883012
4.306259 0.649682 -0.908354
4.288998 0.606478 -0.875972
4.306462 0.603701 -0.853618
4.326639 0.596878 -0.872712
4.292337 0.598592 -0.898054
4.317873 0.655754 -0.861025
4.335331 0.652951 -0.838670
4.372336 0.647204 -0.854756
4.338050 0.648930 -0.880119
4.309025 0.602734 -0.856463
4.326483 0.599931 -0.834108
4.363487 0.594184 -0.850194
4.329202 0.595911 -0.875557
4.313841 0.636563 -0.922233
4.348143 0.634849 -0.896891
4.353344 0.617003 -0.904832
4.315011 0.618818 -0.932705
4.284770 0.611686 -0.884205
4.319072 0.609972 -0.858862
4.324273 0.592125 -0.866803
4.285940 0.593941 -0.894677
4.348075 0.635255 -0.896671
4.382361 0.633528 -0.871309
4.391598 0.615588 -0.876724
4.353276 0.617409 -0.904612
4.319212 0.609562 -0.859029
4.353498 0.607835 -0.833666
4.362735 0.589895 -0.839081
4.324413 0.591715 -0.866970
4.247071 0.640212 -0.934834
4.275220 0.639058 -0.930457
4.275954 0.622528 -0.940282
4.247370 0.624905 -0.944020
4.238827 0.612682 -0.889179
4.266976 0.611529 -0.884803
4.267710 0.594998 -0.894627
4.239126 0.597375 -0.898366
4.275260 0.639042 -0.930459
4.303407 0.637877 -0.926068
4.304577 0.620132 -0.936540
4.275994 0.622512 -0.940284
4.266993 0.611541 -0.884792
4.295139 0.610376 -0.880401
4.296309 0.592630 -0.890873
4.267727 0.595010 -0.894617
4.243729 0.658411 -0.904168
4.271160 0.657807 -0.897332
4.273776 0.650468 -0.916953
4.245627 0.651622 -0.921329
4.238371 0.608085 -0.885494
4.265801 0.607481 -0.878658
4.268417 0.600142 -0.898279
4.240269 0.601295 -0.902655
4.271118 0.657980 -0.896867
4.298542 0.657361 -0.890014
4.301881 0.649475 -0.912096
4.273734 0.650640 -0.916488
4.265899 0.607307 -0.879112
4.293323 0.606688 -0.872259
4.296661 0.598803 -0.894341
4.268515 0.599968 -0.898733
4.190710 0.642583 -0.943542
4.218859 0.641431 -0.939177
4.218719 0.627348 -0.947730
4.190134 0.629725 -0.951462
4.182484 0.614929 -0.897960
4.210633 0.613777 -0.893594
4.210493 0.599694 -0.902147
4.181908 0.602071 -0.905880
4.218893 0.641394 -0.939193
4.247040 0.640240 -0.934822
4.247338 0.624933 -0.944009
4.218754 0.627311 -0.947746
4.210655 0.613811 -0.893570
4.238802 0.612657 -0.889199
4.239101 0.597350 -0.898386
4.210516 0.599728 -0.902123
4.189080 0.659056 -0.919252
4.216513 0.658429 -0.912419
4.217696 0.652178 -0.927118
4.189548 0.653330 -0.931484
4.183178 0.609927 -0.897765
4.210611 0.609300 -0.890932
4.211794 0.603049 -0.905631
4.183646 0.604201 -0.909996
4.216384 0.658786 -0.911600
4.243817 0.658171 -0.904766
4.245715 0.651382 -0.921928
4.217568 0.652535 -0.926299
4.210795 0.608941 -0.891740
4.238228 0.608327 -0.884906
4.240126 0.601537 -0.902068
4.211979 0.602690 -0.906439
4.134689 0.658802 -0.935761
4.162122 0.658157 -0.928922
4.161877 0.652965 -0.938691
4.133730 0.654122 -0.943057
4.127720 0.612712 -0.908608
4.155153 0.612067 -0.901769
4.154909 0.606875 -0.911538
4.126762 0.608032 -0.915904
4.161822 0.659119 -0.927223
4.189258 0.658501 -0.920397
4.189726 0.652774 -0.932628
4.161578 0.653927 -0.936992
4.155508 0.611103 -0.903458
4.182944 0.610485 -0.896632
4.183412 0.604758 -0.908863
4.155264 0.605911 -0.913227
4.134354 0.644977 -0.952231
4.162501 0.643820 -0.947865
4.161489 0.632187 -0.955151
4.132902 0.634563 -0.958873
4.126136 0.617161 -0.906746
4.154283 0.616004 -0.902380
4.153271 0.604371 -0.909665
4.124685 0.606747 -0.913388
4.162531 0.643779 -0.947885
4.190680 0.642626 -0.943521
4.190103 0.629768 -0.951441
4.161519 0.632146 -0.955170
4.154310 0.616042 -0.902352
4.182459 0.614889 -0.897988
4.181882 0.602031 -0.905908
4.153298 0.604409 -0.909637
4.431253 0.605886 0.729045
4.441127 0.586857 0.734049
4.449567 0.587383 0.701048
4.439582 0.606286 0.696228
4.385971 0.579096 0.717132
4.395844 0.560066 0.722135
4.404284 0.560592 0.689135
4.394300 0.579496 0.684314
4.439522 0.606410 0.696177
4.449506 0.587507 0.700998
4.457944 0.588032 0.667997
4.447849 0.606809 0.663359
4.394378 0.579372 0.684298
4.404362 0.560469 0.689119
4.412800 0.560994 0.656118
4.402705 0.579771 0.651480
4.447787 0.606934 0.663309
4.457882 0.588158 0.667947
4.466319 0.588682 0.634946
4.456114 0.607332 0.630490
4.402784 0.579647 0.651464
4.412879 0.560870 0.656102
4.421316 0.561395 0.623101
4.411111 0.580045 0.618646
4.456050 0.607458 0.630440
4.466256 0.588808 0.634895
4.474692 0.589333 0.601893
4.464375 0.607856 0.597621
4.411191 0.579920 0.618631
4.421396 0.561270 0.623086
4.429832 0.561795 0.590084
4.419516 0.580318 0.585812
4.464311 0.607981 0.597570
4.474628 0.589458 0.601842
4.483061 0.589982 0.568840
4.472635 0.608380 0.564751
4.419596 0.580194 0.585797
4.429913 0.561671 0.590069
4.438346 0.562195 0.557067
4.427920 0.580593 0.552978
4.472571 0.608503 0.564701
4.482997 0.590105 0.568789
4.491428 0.590629 0.535786
4.480895 0.608903 0.531882
4.428000 0.580471 0.552963
4.438426 0.562073 0.557051
4.446857 0.562597 0.524048
4.436323 0.580871 0.520144
4.480831 0.609025 0.531831
4.491364 0.590751 0.535735
4.499793 0.591274 0.502732
4.489152 0.609425 0.499011
4.436404 0.580749 0.520128
4.446938 0.562475 0.524033
4.455367 0.562999 0.491029
4.444726 0.581149 0.487309
4.489088 0.609547 0.498959
4.499728 0.591397 0.502680
4.508155 0.591920 0.469676
4.497407 0.609947 0.466139
4.444807 0.581028 0.487294
4.455448 0.562877 0.491015
4.463875 0.563400 0.458011
4.453127 0.581427 0.454474
4.411986 0.619232 0.724328
4.420315 0.619632 0.691511
4.379219 0.625507 0.679227
4.370907 0.624992 0.711289
4.405187 0.565775 0.721831
4.413516 0.566174 0.689013
4.372420 0.572049 0.676730
4.364108 0.571534 0.708791
4.420412 0.619620 0.691500
4.428740 0.620019 0.658682
4.387627 0.626010 0.647155
4.379316 0.625495 0.679217
4.413436 0.566187 0.688958
4.421764 0.566586 0.656140
4.380651 0.572578 0.644613
4.372339 0.572062 0.676675
4.428838 0.620006 0.658672
4.437165 0.620404 0.625854
4.396036 0.626513 0.615082
4.387726 0.625998 0.647145
4.421682 0.566600 0.656085
4.430008 0.566998 0.623267
4.388880 0.573107 0.612495
4.380569 0.572591 0.644558
4.437264 0.620391 0.625844
4.445589 0.620789 0.593026
4.404444 0.627016 0.583010
4.396135 0.626500 0.615073
4.429926 0.567012 0.623211
4.438250 0.567410 0.590393
4.397106 0.573636 0.580377
4.388797 0.573121 0.612440
4.445688 0.620776 0.593016
4.454012 0.621175 0.560198
4.412852 0.627518 0.550937
4.404544 0.627003 0.583000
4.438168 0.567424 0.590337
4.446491 0.567823 0.557518
4.405331 0.574166 0.548258
4.397023 0.573651 0.580321
4.454111 0.621161 0.560188
4.462434 0.621561 0.527369
4.421258 0.628019 0.518864
4.412951 0.627504 0.550927
4.446409 0.567838 0.557463
4.454732 0.568237 0.524644
4.413556 0.574695 0.516139
4.405249 0.574180 0.548202
4.462533 0.621547 0.527359
4.470855 0.621947 0.494539
4.429662 0.628518 0.486790
4.421356 0.628005 0.518854
4.454650 0.568252 0.524589
4.462972 0.568652 0.491769
4.421779 0.575223 0.484019
4.413473 0.574710 0.516084
4.470954 0.621933 0.494529
4.479274 0.622332 0.461708
4.438066 0.629016 0.454715
4.429761 0.628504 0.486779
4.462889 0.568667 0.491714
4.471209 0.569067 0.458893
4.430001 0.575751 0.451900
4.421696 0.575238 0.483965
4.344291 0.610748 0.704228
4.352603 0.611263 0.672166
4.334463 0.574216 0.664792
4.326342 0.573858 0.696522
4.390664 0.585746 0.715832
4.398976 0.586261 0.683770
4.380835 0.549214 0.676396
4.372715 0.548856 0.708125
4.352617 0.611279 0.672142
4.360929 0.611794 0.640080
4.342585 0.574595 0.633036
4.334477 0.574231 0.664768
4.398978 0.586247 0.683730
4.407290 0.586762 0.651668
4.388946 0.549563 0.644623
4.380838 0.549200 0.676356
4.360946 0.611813 0.640051
4.369257 0.612328 0.607988
4.350712 0.574977 0.601274
4.342603 0.574614 0.633006
4.407289 0.586745 0.651633
4.415599 0.587260 0.619571
4.397055 0.549909 0.612857
4.388945 0.549546 0.644589
4.369273 0.612344 0.607957
4.377582 0.612860 0.575894
4.358842 0.575353 0.569513
4.350729 0.574993 0.601243
4.415599 0.587245 0.619538
4.423908 0.587761 0.587475
4.405168 0.550254 0.581094
4.397055 0.549894 0.612824
4.377597 0.612873 0.575862
4.385905 0.613388 0.543799
4.366975 0.575723 0.537751
4.358857 0.575366 0.569481
4.423910 0.587749 0.587443
4.432218 0.588264 0.555380
4.413287 0.550600 0.549333
4.405170 0.550242 0.581062
4.385918 0.613396 0.543765
4.394225 0.613911 0.511702
4.375111 0.576084 0.505991
4.366987 0.575731 0.537718
4.432221 0.588257 0.555350
4.440528 0.588771 0.523286
4.421414 0.550944 0.517575
4.413291 0.550592 0.549302
4.394236 0.613914 0.511665
4.402541 0.614427 0.479601
4.384747 0.576498 0.468397
4.375122 0.576087 0.505954
4.440534 0.588769 0.523256
4.448840 0.589282 0.491192
4.431045 0.551353 0.479987
4.421420 0.550942 0.517544
4.402550 0.614430 0.479572
4.410855 0.614943 0.447508
4.394367 0.576915 0.430807
4.384756 0.576501 0.468367
4.448849 0.589280 0.491151
4.457154 0.589792 0.459087
4.440666 0.551765 0.442386
4.431054 0.551350 0.479946
4.525463 0.610772 0.319487
4.536683 0.589477 0.319939
4.541198 0.589749 0.286174
4.529904 0.611609 0.285929
4.478051 0.585929 0.312771
4.489272 0.564633 0.313223
4.493786 0.564905 0.279458
4.482492 0.586766 0.279213
4.530018 0.611396 0.285906
4.541312 0.589536 0.286150
4.545826 0.589807 0.252385
4.534458 0.612232 0.252348
4.482388 0.586980 0.279169
4.493681 0.565119 0.279414
4.498196 0.565391 0.245649
4.486828 0.587816 0.245612
4.534565 0.612027 0.252323
4.545933 0.589602 0.252360
4.550445 0.589873 0.218595
4.539004 0.612863 0.218766
4.486729 0.588022 0.245569
4.498097 0.565597 0.245606
4.502609 0.565868 0.211840
4.491168 0.588858 0.212011
4.539105 0.612666 0.218741
4.550547 0.589676 0.218570
4.555059 0.589947 0.184805
4.543543 0.613501 0.185183
4.491076 0.589056 0.211968
4.502517 0.566066 0.211798
4.507029 0.566337 0.178032
4.495513 0.589891 0.178410
4.543638 0.613312 0.185158
4.555154 0.589758 0.184780
4.559665 0.590029 0.151014
4.548075 0.614147 0.151599
4.495426 0.590081 0.178368
4.506942 0.566527 0.177990
4.511453 0.566798 0.144225
4.499863 0.590916 0.144810
4.548166 0.613966 0.151573
4.559756 0.589848 0.150988
4.564267 0.590119 0.117222
4.552600 0.614799 0.118014
4.499782 0.591099 0.144769
4.511372 0.566981 0.144184
4.515883 0.567252 0.110418
4.504217 0.591933 0.111210
4.552686 0.614626 0.117987
4.564352 0.589945 0.117194
4.568861 0.590215 0.083429
4.557118 0.615459 0.084427
4.504140 0.592108 0.111170
4.515807 0.567427 0.110378
4.520315 0.567697 0.076612
4.508573 0.592941 0.077611
4.557198 0.615294 0.084400
4.568940 0.590050 0.083401
4.573452 0.590321 0.049635
4.561627 0.616125 0.050839
4.508502 0.593107 0.077571
4.520245 0.567864 0.076572
4.524756 0.568134 0.042806
4.512931 0.593938 0.044010
4.561692 0.615989 0.050814
4.573517 0.590185 0.049610
4.576803 0.590381 0.024997
4.565012 0.616611 0.025635
4.512874 0.594075 0.043976
4.524698 0.568271 0.042772
4.527985 0.568468 0.018159
4.516194 0.594698 0.018798
4.565176 0.616320 0.025373
4.576967 0.590090 0.024734
4.579748 0.590284 0.000121
4.568491 0.616937 0.000192
4.516037 0.594990 0.019010
4.527827 0.568759 0.018372
4.530609 0.568954 -0.006242
4.519351 0.595606 -0.006170
4.505694 0.625013 0.317421
4.510136 0.625850 0.283863
4.465663 0.632493 0.285986
4.461463 0.631399 0.318827
4.497764 0.571716 0.314839
4.502205 0.572553 0.281281
4.457732 0.579195 0.283404
4.453532 0.578102 0.316245
4.510290 0.625828 0.283847
4.514730 0.626664 0.250289
4.470015 0.633561 0.253128
4.465817 0.632470 0.285970
4.502060 0.572577 0.281231
4.506500 0.573413 0.247673
4.461785 0.580311 0.250512
4.457587 0.579220 0.283354
4.514881 0.626641 0.250273
4.519320 0.627476 0.216715
4.474363 0.634626 0.220271
4.470166 0.633538 0.253112
4.506357 0.573438 0.247623
4.510796 0.574274 0.214065
4.465839 0.581424 0.217621
4.461642 0.580336 0.250462
4.519468 0.627453 0.216698
4.523905 0.628288 0.183140
4.478707 0.635689 0.187413
4.474511 0.634603 0.220254
4.510656 0.574299 0.214015
4.515094 0.575134 0.180457
4.469895 0.582535 0.184729
4.465699 0.581449 0.217571
4.524052 0.628264 0.183124
4.528489 0.629099 0.149566
4.483047 0.636749 0.154555
4.478853 0.635665 0.187396
4.514956 0.575160 0.180407
4.519393 0.575995 0.146848
4.473951 0.583645 0.151838
4.469757 0.582561 0.184679
4.528633 0.629075 0.149549
4.533067 0.629909 0.115990
4.487384 0.637808 0.121697
4.483191 0.636725 0.154538
4.519258 0.576021 0.146799
4.523692 0.576855 0.113240
4.478009 0.584754 0.118947
4.473816 0.583671 0.151788
4.533211 0.629884 0.115973
4.537643 0.630718 0.082414
4.491718 0.638866 0.088839
4.487527 0.637783 0.121680
4.523558 0.576882 0.113190
4.527990 0.577715 0.079631
4.482065 0.585863 0.086056
4.477874 0.584781 0.118897
4.537785 0.630692 0.082396
4.542215 0.631523 0.048836
4.496048 0.639923 0.055980
4.491860 0.638840 0.088821
4.527857 0.577743 0.079582
4.532286 0.578574 0.046021
4.486120 0.586973 0.053166
4.481931 0.585891 0.086007
4.542344 0.631499 0.048828
4.545664 0.632122 0.023649
4.499754 0.640825 0.027907
4.496178 0.639899 0.055972
4.532164 0.578600 0.045970
4.535484 0.579222 0.020791
4.489574 0.587926 0.025049
4.485998 0.586999 0.053114
4.545780 0.632100 0.023632
4.549095 0.632716 -0.001549
4.503445 0.641731 -0.000176
4.499870 0.640804 0.027890
4.535375 0.579245 0.020754
4.538690 0.579861 -0.004426
4.493040 0.588876 -0.003053
4.489465 0.587949 0.025012
4.434184 0.618106 0.314928
4.438384 0.619199 0.282087
4.418228 0.582656 0.275590
4.413728 0.581320 0.308003
4.480746 0.591365 0.320140
4.484946 0.592459 0.287298
4.464789 0.555915 0.280802
4.460290 0.554579 0.313214
4.438329 0.619091 0.282027
4.442527 0.620182 0.249185
4.422704 0.583862 0.243120
4.418173 0.582547 0.275530
4.485010 0.592570 0.287293
4.489208 0.593661 0.254452
4.469384 0.557341 0.248387
4.464854 0.556026 0.280796
4.442465 0.620065 0.249149
4.446662 0.621153 0.216308
4.427150 0.585070 0.210672
4.422642 0.583745 0.243084
4.489278 0.593780 0.254422
4.493475 0.594868 0.221581
4.473963 0.558785 0.215945
4.469455 0.557460 0.248357
4.446603 0.621037 0.216255
4.450799 0.622123 0.183414
4.431613 0.586267 0.178208
4.427091 0.584954 0.210619
4.493543 0.594987 0.221568
4.497738 0.596072 0.188727
4.478553 0.560217 0.183521
4.474030 0.558903 0.215932
4.450737 0.622002 0.183373
4.454931 0.623086 0.150532
4.436061 0.587465 0.145755
4.431551 0.586147 0.178168
4.497809 0.596196 0.188702
4.502003 0.597280 0.155860
4.483133 0.561659 0.151083
4.478624 0.560340 0.183496
4.454869 0.622961 0.150478
4.459062 0.624044 0.117636
4.440525 0.588647 0.113289
4.435999 0.587340 0.145700
4.502074 0.597408 0.155849
4.506267 0.598490 0.123008
4.487730 0.563093 0.118661
4.483204 0.561786 0.151072
4.458997 0.623917 0.117603
4.463188 0.625000 0.084762
4.444960 0.589841 0.080841
4.440461 0.588520 0.113256
4.506340 0.598619 0.122976
4.510531 0.599702 0.090135
4.492303 0.564542 0.086214
4.487803 0.563222 0.118629
4.463126 0.624871 0.084705
4.467314 0.625953 0.051864
4.449422 0.591019 0.048372
4.444898 0.589712 0.080784
4.510601 0.599833 0.090126
4.514789 0.600916 0.057285
4.496897 0.565981 0.053793
4.492373 0.564674 0.086205
4.467247 0.625811 0.051803
4.470823 0.626738 0.023738
4.453170 0.591951 0.021209
4.449354 0.590876 0.048311
4.514865 0.601060 0.057286
4.518442 0.601987 0.029220
4.500788 0.567201 0.026692
4.496972 0.566125 0.053793
4.470750 0.626586 0.023689
4.474325 0.627513 -0.004376
4.456924 0.592871 -0.005940
4.453097 0.591800 0.021161
4.518522 0.602141 0.029213
4.522096 0.603068 0.001148
4.504696 0.568426 -0.000416
4.500869 0.567355 0.026685
4.527969 0.622238 -0.314225
4.532151 0.621846 -0.280625
4.543375 0.599968 -0.281572
4.539105 0.600924 -0.315358
4.480416 0.597358 -0.308758
4.484599 0.596966 -0.275158
4.495822 0.575088 -0.276105
4.491552 0.576044 -0.309891
4.532255 0.621650 -0.280605
4.536436 0.621258 -0.247006
4.547745 0.598816 -0.247767
4.543478 0.599772 -0.281553
4.484503 0.597160 -0.275110
4.488684 0.596768 -0.241510
4.499993 0.574327 -0.242271
4.495727 0.575283 -0.276057
4.536535 0.621067 -0.246986
4.540714 0.620677 -0.213387
4.552106 0.597669 -0.213961
4.547844 0.598625 -0.247747
4.488593 0.596958 -0.241462
4.492772 0.596568 -0.207863
4.504164 0.573560 -0.208437
4.499902 0.574517 -0.242223
4.540809 0.620491 -0.213367
4.544987 0.620101 -0.179767
4.556461 0.596527 -0.180154
4.552201 0.597483 -0.213941
4.492686 0.596753 -0.207815
4.496863 0.596362 -0.174215
4.508338 0.572789 -0.174603
4.504078 0.573745 -0.208389
4.545077 0.619921 -0.179746
4.549253 0.619532 -0.146146
4.560809 0.595391 -0.146347
4.556551 0.596347 -0.180133
4.496781 0.596541 -0.174169
4.500958 0.596152 -0.140569
4.512513 0.572012 -0.140769
4.508256 0.572968 -0.174556
4.549339 0.619357 -0.146125
4.553514 0.618969 -0.112525
4.565150 0.594262 -0.112538
4.560895 0.595217 -0.146325
4.500880 0.596325 -0.140523
4.505055 0.595936 -0.106923
4.516691 0.571229 -0.106936
4.512436 0.572185 -0.140723
4.553595 0.618800 -0.112503
4.557767 0.618412 -0.078901
4.569485 0.593137 -0.078728
4.565232 0.594093 -0.112516
4.504981 0.596103 -0.106878
4.509153 0.595715 -0.073276
4.520870 0.570440 -0.073104
4.516618 0.571396 -0.106891
4.557844 0.618253 -0.078878
4.562011 0.617861 -0.045275
4.573816 0.592023 -0.044918
4.569561 0.592978 -0.078705
4.509085 0.595873 -0.073232
4.513252 0.595480 -0.039629
4.525057 0.569642 -0.039273
4.520802 0.570598 -0.073060
4.561990 0.617665 -0.046095
4.565134 0.617468 -0.026398
4.576917 0.591221 -0.026256
4.573795 0.591827 -0.045738
4.513279 0.595675 -0.038756
4.516423 0.595478 -0.019059
4.528206 0.569232 -0.018917
4.525084 0.569837 -0.038399
4.565317 0.617155 -0.026092
4.568457 0.616953 -0.006394
4.579714 0.590301 -0.006466
4.577100 0.590908 -0.025950
4.516246 0.595791 -0.019326
4.519386 0.595590 0.000371
4.530643 0.568937 0.000300
4.528029 0.569544 -0.019184
4.508240 0.636474 -0.311785
4.464046 0.643090 -0.313296
4.467991 0.642970 -0.280406
4.512422 0.636082 -0.278184
4.500089 0.583150 -0.311199
4.455896 0.589767 -0.312711
4.459841 0.589646 -0.279821
4.504272 0.582758 -0.277599
4.512568 0.636059 -0.278167
4.468137 0.642948 -0.280389
4.472080 0.642823 -0.247498
4.516749 0.635667 -0.244567
4.504135 0.582780 -0.277550
4.459703 0.589668 -0.279772
4.463646 0.589544 -0.246882
4.508315 0.582388 -0.243951
4.516890 0.635645 -0.244550
4.472221 0.642801 -0.247481
4.476163 0.642672 -0.214591
4.521069 0.635255 -0.210950
4.508182 0.582410 -0.243901
4.463513 0.589566 -0.246833
4.467454 0.589437 -0.213943
4.512361 0.582020 -0.210302
4.521206 0.635232 -0.210932
4.476300 0.642649 -0.214572
4.480238 0.642517 -0.181682
4.525384 0.634842 -0.177332
4.512232 0.582042 -0.210254
4.467325 0.589459 -0.213894
4.471263 0.589328 -0.181004
4.516409 0.581652 -0.176654
4.525518 0.634819 -0.177314
4.480372 0.642495 -0.181664
4.484309 0.642360 -0.148773
4.529694 0.634430 -0.143714
4.516283 0.581674 -0.176606
4.471137 0.589350 -0.180956
4.475074 0.589215 -0.148065
4.520459 0.581285 -0.143006
4.529826 0.634407 -0.143696
4.484440 0.642337 -0.148755
4.488374 0.642202 -0.115865
4.534000 0.634018 -0.110096
4.520336 0.581307 -0.142957
4.474951 0.589238 -0.148017
4.478885 0.589102 -0.115126
4.524511 0.580919 -0.109357
4.534129 0.633995 -0.110077
4.488503 0.642179 -0.115846
4.492436 0.642042 -0.082957
4.538301 0.633607 -0.076476
4.524390 0.580941 -0.109309
4.478764 0.589125 -0.115078
4.482696 0.588988 -0.082188
4.528562 0.580553 -0.075708
4.538430 0.633583 -0.076456
4.492564 0.642018 -0.082937
4.496493 0.641883 -0.050047
4.542597 0.633191 -0.042853
4.528441 0.580576 -0.075661
4.482575 0.589011 -0.082141
4.486504 0.588876 -0.049252
4.532608 0.580184 -0.042058
4.542724 0.633163 -0.043050
4.496620 0.641855 -0.050244
4.499988 0.641818 -0.026263
4.545868 0.632966 -0.023353
4.532488 0.580212 -0.041807
4.486384 0.588903 -0.049000
4.489753 0.588867 -0.025020
4.535632 0.580015 -0.022110
4.545929 0.632955 -0.023335
4.500050 0.641807 -0.026245
4.503419 0.641768 -0.002265
4.549069 0.632753 -0.003638
4.535577 0.580026 -0.022084
4.489697 0.588878 -0.024994
4.493066 0.588839 -0.001013
4.538716 0.579825 -0.002386
4.436670 0.629754 -0.310148
4.416112 0.592770 -0.304737
4.420235 0.592979 -0.272250
4.440615 0.629633 -0.277258
4.483207 0.603074 -0.315856
4.462649 0.566090 -0.310444
4.466773 0.566299 -0.277957
4.487153 0.602953 -0.282966
4.440583 0.629546 -0.277113
4.420203 0.592892 -0.272104
4.424551 0.592967 -0.239646
4.444526 0.629422 -0.244222
4.487192 0.603040 -0.283046
4.466812 0.566386 -0.278038
4.471160 0.566461 -0.245579
4.491135 0.602916 -0.250156
4.444449 0.629288 -0.244234
4.424474 0.592833 -0.239657
4.428705 0.592969 -0.207183
4.448390 0.629159 -0.211344
4.491221 0.603050 -0.250079
4.471245 0.566595 -0.245502
4.475477 0.566731 -0.213028
4.495162 0.602921 -0.217189
4.448330 0.629030 -0.211255
4.428645 0.592840 -0.207094
4.432976 0.592916 -0.174632
4.452268 0.628899 -0.178365
4.495231 0.603050 -0.217212
4.475545 0.566860 -0.213051
4.479877 0.566936 -0.180589
4.499169 0.602918 -0.184321
4.452195 0.628770 -0.178380
4.432903 0.592788 -0.174647
4.437111 0.592929 -0.142169
4.456132 0.628636 -0.145490
4.499250 0.603046 -0.184240
4.479958 0.567064 -0.180508
4.484166 0.567205 -0.148029
4.503187 0.602912 -0.151350
4.456079 0.628519 -0.145410
4.437058 0.592811 -0.142089
4.441351 0.592903 -0.109621
4.460013 0.628383 -0.112520
4.503248 0.603029 -0.151365
4.484227 0.567322 -0.148044
4.488520 0.567414 -0.115575
4.507182 0.602893 -0.118474
4.459937 0.628232 -0.112477
4.441275 0.592752 -0.109578
4.445569 0.592842 -0.077109
4.463869 0.628095 -0.079587
4.507266 0.603045 -0.118452
4.488604 0.567565 -0.115553
4.492899 0.567655 -0.083084
4.511199 0.602908 -0.085562
4.463787 0.627926 -0.079529
4.445487 0.592673 -0.077051
4.449816 0.592745 -0.044585
4.467716 0.627790 -0.046639
4.511289 0.603077 -0.085554
4.492989 0.567824 -0.083077
4.497317 0.567896 -0.050611
4.515217 0.602941 -0.052665
4.467688 0.627583 -0.046061
4.449788 0.592537 -0.044008
4.453400 0.592703 -0.021835
4.471056 0.627546 -0.022081
4.515253 0.603149 -0.053186
4.497353 0.568104 -0.051133
4.500965 0.568270 -0.028960
4.518621 0.603113 -0.029206
4.470947 0.627317 -0.022032
4.453291 0.592474 -0.021786
4.456915 0.592636 0.000385
4.474316 0.627278 0.001949
4.518737 0.603342 -0.029209
4.501081 0.568499 -0.028963
4.504705 0.568661 -0.006792
4.522106 0.603303 -0.005228
4.436790 0.632293 -0.724398
4.444880 0.631493 -0.691527
4.454801 0.612717 -0.696938
4.446604 0.613399 -0.729997
4.391284 0.605344 -0.713763
4.399373 0.604544 -0.680893
4.409294 0.585768 -0.686304
4.401098 0.586450 -0.719363
4.444822 0.631611 -0.691473
4.452909 0.630811 -0.658602
4.462936 0.612151 -0.663824
4.454743 0.612835 -0.696884
4.399447 0.604424 -0.680880
4.407535 0.603624 -0.648010
4.417561 0.584965 -0.653232
4.409368 0.585648 -0.686292
4.452850 0.630930 -0.658549
4.460936 0.630129 -0.625678
4.471070 0.611587 -0.630712
4.462877 0.612270 -0.663772
4.407611 0.603504 -0.647996
4.415697 0.602703 -0.615125
4.425831 0.584161 -0.620159
4.417637 0.584844 -0.653219
4.460875 0.630249 -0.625625
4.468960 0.629448 -0.592754
4.479202 0.611023 -0.597598
4.471009 0.611707 -0.630658
4.415774 0.602581 -0.615113
4.423859 0.601780 -0.582242
4.434100 0.583355 -0.587087
4.425908 0.584039 -0.620147
4.468898 0.629568 -0.592700
4.476984 0.628767 -0.559828
4.487332 0.610460 -0.564485
4.479140 0.611144 -0.597545
4.423937 0.601657 -0.582229
4.432023 0.600856 -0.549357
4.442371 0.582549 -0.554014
4.434179 0.583233 -0.587074
4.476920 0.628889 -0.559774
4.485003 0.628087 -0.526902
4.495460 0.609898 -0.531370
4.487268 0.610582 -0.564431
4.432102 0.600733 -0.549345
4.440186 0.599931 -0.516473
4.450642 0.581742 -0.520942
4.442450 0.582426 -0.554002
4.484939 0.628209 -0.526848
4.493022 0.627409 -0.493975
4.503586 0.609336 -0.498255
4.495395 0.610021 -0.531316
4.440266 0.599807 -0.516461
4.448350 0.599007 -0.483589
4.458914 0.580934 -0.487868
4.450723 0.581618 -0.520930
4.492958 0.627529 -0.493920
4.501040 0.626728 -0.461046
4.511710 0.608772 -0.465137
4.503522 0.609457 -0.498200
4.448431 0.598884 -0.483578
4.456513 0.598082 -0.450704
4.467183 0.580127 -0.454796
4.458994 0.580812 -0.487858
4.417572 0.645566 -0.719362
4.376429 0.651105 -0.706423
4.384509 0.650458 -0.674305
4.425661 0.644766 -0.686491
4.410452 0.592095 -0.718781
4.369310 0.597634 -0.705842
4.377390 0.596987 -0.673724
4.418541 0.591295 -0.685910
4.425764 0.644752 -0.686482
4.384613 0.650444 -0.674295
4.392692 0.649796 -0.642176
4.433852 0.643952 -0.653611
4.418454 0.591308 -0.685855
4.377303 0.596999 -0.673668
4.385382 0.596351 -0.641549
4.426542 0.590507 -0.652984
4.433955 0.643938 -0.653601
4.392795 0.649781 -0.642166
4.400873 0.649131 -0.610046
4.442041 0.643137 -0.620730
4.426455 0.590520 -0.652929
4.385295 0.596364 -0.641494
4.393373 0.595713 -0.609374
4.434541 0.589719 -0.620058
4.442143 0.643123 -0.620719
4.400975 0.649117 -0.610036
4.409051 0.648462 -0.577915
4.450228 0.642321 -0.587848
4.434454 0.589732 -0.620003
4.393286 0.595726 -0.609319
4.401363 0.595072 -0.577199
4.442540 0.588931 -0.587132
4.450329 0.642307 -0.587837
4.409152 0.648448 -0.577904
4.417227 0.647789 -0.545783
4.458414 0.641505 -0.554965
4.442455 0.588944 -0.587078
4.401278 0.595085 -0.577145
4.409354 0.594426 -0.545024
4.450540 0.588142 -0.554206
4.458512 0.641491 -0.554952
4.417326 0.647775 -0.545770
4.425399 0.647110 -0.513649
4.466596 0.640689 -0.522080
4.450458 0.588156 -0.554154
4.409272 0.594439 -0.544972
4.417345 0.593774 -0.512850
4.458542 0.587354 -0.521282
4.466690 0.640675 -0.522067
4.425494 0.647095 -0.513635
4.433566 0.646424 -0.481513
4.474774 0.639874 -0.489194
4.458463 0.587367 -0.521230
4.417267 0.593787 -0.512798
4.425339 0.593115 -0.480676
4.466547 0.586566 -0.488357
4.474865 0.639860 -0.489179
4.433657 0.646410 -0.481498
4.441727 0.645730 -0.449375
4.482947 0.639058 -0.456305
4.466472 0.586578 -0.488308
4.425265 0.593128 -0.480626
4.433335 0.592448 -0.448504
4.474555 0.585776 -0.455434
4.365886 0.635542 -0.635762
4.347242 0.598250 -0.630139
4.355126 0.597456 -0.598362
4.373964 0.634892 -0.603642
4.412143 0.610572 -0.647882
4.393499 0.573280 -0.642259
4.401383 0.572486 -0.610481
4.420221 0.609921 -0.615762
4.373979 0.634905 -0.603613
4.355141 0.597470 -0.598333
4.363019 0.596675 -0.566555
4.382055 0.634251 -0.571493
4.420222 0.609906 -0.615726
4.401384 0.572471 -0.610446
4.409262 0.571676 -0.578668
4.428299 0.609252 -0.583606
4.382071 0.634263 -0.571456
4.363034 0.596687 -0.566518
4.370921 0.595882 -0.534744
4.390146 0.633604 -0.539335
4.428299 0.609238 -0.583578
4.409262 0.571663 -0.578640
4.417149 0.570858 -0.546866
4.436374 0.608580 -0.551457
4.390160 0.633616 -0.539309
4.370934 0.595894 -0.534717
4.378809 0.595088 -0.502941
4.398233 0.632951 -0.507187
4.436377 0.608567 -0.551420
4.417151 0.570844 -0.546828
4.425026 0.570039 -0.515052
4.444450 0.607902 -0.519298
4.398247 0.632943 -0.507121
4.378822 0.595081 -0.502874
4.388216 0.594078 -0.465277
4.406319 0.632272 -0.474998
4.444454 0.607907 -0.519298
4.425029 0.570045 -0.515051
4.434423 0.569042 -0.477454
4.452526 0.607236 -0.487176
4.406314 0.632242 -0.474957
4.388211 0.594049 -0.465235
4.397608 0.593033 -0.427639
4.414384 0.631563 -0.442834
4.452549 0.607264 -0.487148
4.434446 0.569071 -0.477426
4.443843 0.568055 -0.439830
4.460619 0.606585 -0.455025
4.349690 0.636805 -0.700071
4.331457 0.599787 -0.693774
4.339319 0.599010 -0.661989
4.357771 0.636158 -0.667953
4.395989 0.611903 -0.712176
4.377756 0.574885 -0.705879
4.385617 0.574108 -0.674093
4.404069 0.611256 -0.680057
4.357793 0.636179 -0.667911
4.339341 0.599031 -0.661947
4.347228 0.598239 -0.630169
4.365872 0.635530 -0.635792
4.404063 0.611233 -0.680035
4.385611 0.574086 -0.674071
4.393498 0.573293 -0.642293
4.412142 0.610585 -0.647916
4.324971 0.617656 -0.802323
4.316066 0.616853 -0.828279
4.305793 0.618281 -0.811461
4.312574 0.618553 -0.792338
4.322135 0.563832 -0.800053
4.313230 0.563029 -0.826009
4.302957 0.564457 -0.809191
4.309738 0.564729 -0.790068
4.319146 0.618596 -0.772346
4.312422 0.618584 -0.791314
4.299896 0.619458 -0.781372
4.304420 0.619078 -0.769123
4.316602 0.564711 -0.772066
4.309879 0.564699 -0.791034
4.297352 0.565573 -0.781092
4.301876 0.565192 -0.768843
4.313124 0.618534 -0.791858
4.306343 0.618262 -0.810981
4.296073 0.619732 -0.794165
4.300598 0.619407 -0.781916
4.309165 0.564750 -0.790521
4.302384 0.564478 -0.809644
4.292113 0.565948 -0.792829
4.296639 0.565623 -0.780580
4.421398 0.607485 -0.433310
4.408903 0.607718 -0.425381
4.410768 0.607405 -0.408965
4.424455 0.607162 -0.414030
4.420034 0.553562 -0.434083
4.407539 0.553795 -0.426155
4.409404 0.553482 -0.409739
4.423091 0.553238 -0.414804
4.424463 0.607162 -0.414114
4.410776 0.607406 -0.409049
4.412650 0.607238 -0.392633
4.428095 0.606762 -0.389874
4.423088 0.553237 -0.414681
4.409401 0.553480 -0.409617
4.411274 0.553312 -0.393200
4.426720 0.552837 -0.390441
4.408888 0.607719 -0.425495
4.396393 0.607853 -0.417561
4.396788 0.607837 -0.406492
4.410753 0.607407 -0.409079
4.407527 0.553793 -0.426030
4.395032 0.553927 -0.418096
4.395427 0.553910 -0.407027
4.409392 0.553481 -0.409614
4.410800 0.607405 -0.408999
4.396835 0.607834 -0.406412
4.397225 0.607601 -0.395344
4.412674 0.607237 -0.392583
4.409347 0.553482 -0.409666
4.395382 0.553912 -0.407079
4.395772 0.553679 -0.396012
4.411221 0.553314 -0.393250
4.340109 0.637032 -0.732573
4.330325 0.637639 -0.766438
4.309685 0.601085 -0.767777
4.321085 0.600488 -0.734827
4.385966 0.612886 -0.747548
4.376182 0.613493 -0.781413
4.355542 0.576938 -0.782752
4.366943 0.576342 -0.749802
4.418008 0.591281 0.437242
4.421653 0.591782 0.414012
4.407698 0.592130 0.411360
4.405559 0.591693 0.429249
4.417008 0.537362 0.435871
4.420653 0.537863 0.412642
4.406698 0.538211 0.409989
4.404558 0.537774 0.427879
4.421766 0.591779 0.414023
4.425414 0.592277 0.390793
4.409953 0.592593 0.393482
4.407811 0.592128 0.411371
4.420546 0.537866 0.412590
4.424194 0.538363 0.389360
4.408733 0.538680 0.392049
4.406591 0.538215 0.409937
4.405475 0.591692 0.429371
4.407615 0.592128 0.411481
4.393660 0.592499 0.408829
4.393025 0.592063 0.421376
4.404615 0.537777 0.427747
4.406755 0.538214 0.409857
4.392800 0.538584 0.407205
4.392165 0.538148 0.419752
4.407805 0.592125 0.411475
4.409947 0.592590 0.393586
4.394484 0.592894 0.396275
4.393850 0.592495 0.408823
4.406567 0.538218 0.409833
4.408709 0.538683 0.391945
4.393247 0.538987 0.394633
