3.996061 0.402125 0.209794
3.971098 0.401951 0.209235
3.971345 0.366987 0.209062
3.996309 0.367161 0.209621
3.996508 0.402227 0.189819
3.971544 0.402053 0.189260
3.971792 0.367089 0.189088
3.996755 0.367263 0.189647
3.979839 0.402037 0.204446
3.966869 0.401840 0.225790
3.967117 0.366876 0.225617
3.980087 0.367073 0.204273
3.962765 0.401967 0.194070
3.949795 0.401770 0.215414
3.950042 0.366806 0.215241
3.963012 0.367003 0.193897
3.967092 0.401890 0.215822
3.979096 0.401867 0.237725
3.979343 0.366904 0.237553
3.967339 0.366927 0.215650
3.949571 0.401719 0.225424
3.961575 0.401696 0.247327
3.961822 0.366732 0.247155
3.949819 0.366755 0.225252
3.970577 0.401833 0.232550
3.995540 0.402006 0.233108
3.995788 0.367043 0.232936
3.970824 0.366869 0.232378
3.970131 0.401731 0.252525
3.995095 0.401905 0.253083
3.995342 0.366941 0.252910
3.970378 0.366767 0.252352
3.986799 0.401921 0.237897
3.999769 0.402118 0.216553
4.000016 0.367154 0.216381
3.987047 0.366957 0.237725
4.003874 0.401991 0.248273
4.016843 0.402188 0.226929
4.017091 0.367224 0.226757
4.004121 0.367027 0.248101
3.999546 0.402067 0.226521
3.987543 0.402090 0.204619
3.987790 0.367127 0.204446
3.999794 0.367104 0.226348
4.017067 0.402239 0.216919
4.005063 0.402262 0.195017
4.005311 0.367298 0.194844
4.017314 0.367275 0.216746
3.996309 0.367131 0.209621
3.971345 0.366957 0.209062
3.971522 0.341983 0.208939
3.996486 0.342157 0.209498
3.996756 0.367233 0.189647
3.971792 0.367059 0.189087
3.971969 0.342085 0.188964
3.996932 0.342259 0.189523
3.980087 0.367043 0.204273
3.967117 0.366846 0.225617
3.967294 0.341872 0.225494
3.980264 0.342069 0.204150
3.963013 0.366973 0.193897
3.950043 0.366776 0.215241
3.950219 0.341802 0.215118
3.963189 0.341999 0.193774
3.967340 0.366897 0.215650
3.979343 0.366874 0.237553
3.979520 0.341900 0.237429
3.967516 0.341923 0.215527
3.949819 0.366725 0.225252
3.961823 0.366702 0.247155
3.961999 0.341728 0.247031
3.949996 0.341751 0.225128
3.970824 0.366839 0.232377
3.995788 0.367013 0.232935
3.995965 0.342039 0.232812
3.971001 0.341865 0.232254
3.970379 0.366737 0.252352
3.995342 0.366911 0.252910
3.995519 0.341937 0.252787
3.970555 0.341763 0.252229
3.987047 0.366927 0.237724
4.000017 0.367124 0.216381
4.000194 0.342150 0.216257
3.987224 0.341953 0.237601
4.004121 0.366997 0.248100
4.017091 0.367194 0.226757
4.017268 0.342220 0.226633
4.004298 0.342023 0.247977
3.999794 0.367074 0.226348
3.987791 0.367097 0.204446
3.987967 0.342123 0.204323
3.999971 0.342100 0.226225
4.017315 0.367245 0.216746
4.005311 0.367268 0.194844
4.005488 0.342294 0.194721
4.017491 0.342271 0.216623
3.996061 0.402158 0.209794
3.995849 0.432127 0.209942
3.970885 0.431953 0.209383
3.971097 0.401984 0.209235
3.996508 0.402259 0.189819
3.996295 0.432228 0.189967
3.971332 0.432054 0.189408
3.971544 0.402085 0.189260
3.979839 0.402069 0.204446
3.979627 0.432038 0.204594
3.966657 0.431841 0.225938
3.966869 0.401872 0.225790
3.962765 0.401999 0.194070
3.962552 0.431968 0.194218
3.949582 0.431771 0.215562
3.949795 0.401802 0.215414
3.967092 0.401923 0.215822
3.966879 0.431892 0.215970
3.978883 0.431869 0.237873
3.979095 0.401900 0.237725
3.949571 0.401751 0.225424
3.949359 0.431720 0.225572
3.961363 0.431697 0.247475
3.961575 0.401728 0.247327
3.970577 0.401865 0.232550
3.970364 0.431834 0.232698
3.995328 0.432008 0.233256
3.995540 0.402039 0.233108
3.970131 0.401763 0.252525
3.969919 0.431732 0.252673
3.994882 0.431906 0.253231
3.995094 0.401937 0.253083
3.986799 0.401953 0.237897
3.986587 0.431922 0.238045
3.999557 0.432119 0.216701
3.999769 0.402151 0.216553
4.003873 0.402023 0.248273
4.003661 0.431992 0.248421
4.016631 0.432189 0.227077
4.016843 0.402220 0.226929
3.999546 0.402100 0.226521
3.999334 0.432069 0.226669
3.987330 0.432092 0.204767
3.987543 0.402123 0.204619
4.017067 0.402271 0.216919
4.016854 0.432240 0.217067
4.004851 0.432263 0.195165
4.005063 0.402294 0.195017
3.995849 0.432157 0.209942
3.995636 0.462125 0.210090
3.970673 0.461951 0.209531
3.970885 0.431983 0.209383
3.996295 0.432258 0.189967
3.996083 0.462227 0.190115
3.971119 0.462053 0.189556
3.971332 0.432084 0.189408
3.979626 0.432068 0.204594
3.979414 0.462037 0.204742
3.966444 0.461840 0.226086
3.966657 0.431871 0.225938
3.962552 0.431998 0.194218
3.962340 0.461967 0.194366
3.949370 0.461770 0.215710
3.949582 0.431801 0.215562
3.966879 0.431922 0.215970
3.966667 0.461891 0.216118
3.978671 0.461868 0.238021
3.978883 0.431899 0.237873
3.949359 0.431750 0.225572
3.949146 0.461719 0.225720
3.961150 0.461696 0.247623
3.961362 0.431727 0.247475
3.970364 0.431864 0.232698
3.970152 0.461833 0.232846
3.995116 0.462007 0.233404
3.995328 0.432038 0.233256
3.969918 0.431762 0.252673
3.969706 0.461731 0.252821
3.994670 0.461905 0.253379
3.994882 0.431936 0.253231
3.986587 0.431952 0.238045
3.986374 0.461921 0.238193
3.999344 0.462118 0.216849
3.999556 0.432149 0.216701
4.003661 0.432022 0.248421
4.003449 0.461991 0.248569
4.016419 0.462188 0.227225
4.016631 0.432219 0.227077
3.999334 0.432099 0.226669
3.999122 0.462068 0.226817
3.987118 0.462091 0.204915
3.987330 0.432122 0.204767
4.016854 0.432270 0.217067
4.016642 0.462239 0.217214
4.004638 0.462262 0.195313
4.004851 0.432293 0.195165
3.995636 0.462155 0.210090
3.995424 0.492124 0.210238
3.970461 0.491950 0.209679
3.970673 0.461981 0.209531
3.996083 0.462257 0.190115
3.995871 0.492226 0.190263
3.970907 0.492052 0.189704
3.971119 0.462083 0.189556
3.979414 0.462067 0.204742
3.979202 0.492036 0.204890
3.966232 0.491839 0.226234
3.966444 0.461870 0.226086
3.962340 0.461997 0.194366
3.962128 0.491966 0.194514
3.949158 0.491769 0.215858
3.949370 0.461800 0.215710
3.966667 0.461921 0.216118
3.966455 0.491890 0.216266
3.978459 0.491866 0.238169
3.978671 0.461898 0.238021
3.949146 0.461749 0.225720
3.948934 0.491718 0.225868
3.960938 0.491695 0.247771
3.961150 0.461726 0.247623
3.970152 0.461863 0.232846
3.969940 0.491832 0.232994
3.994903 0.492006 0.233552
3.995115 0.462037 0.233404
3.969706 0.461761 0.252821
3.969494 0.491730 0.252969
3.994457 0.491904 0.253527
3.994669 0.461935 0.253379
3.986374 0.461951 0.238193
3.986162 0.491920 0.238341
3.999132 0.492117 0.216997
3.999344 0.462148 0.216849
4.003449 0.462021 0.248569
4.003236 0.491990 0.248717
4.016206 0.492187 0.227373
4.016418 0.462218 0.227225
3.999121 0.462098 0.226817
3.998909 0.492067 0.226965
3.986906 0.492090 0.205063
3.987118 0.462121 0.204915
4.016642 0.462269 0.217215
4.016430 0.492238 0.217363
4.004426 0.492261 0.195461
4.004638 0.462292 0.195313
3.983678 0.351989 0.220814
3.970708 0.351791 0.242284
3.995671 0.351965 0.242842
3.983819 0.332010 0.220715
3.970849 0.331812 0.242185
3.995813 0.331986 0.242743
3.983691 0.351989 0.220807
3.995684 0.351965 0.242835
4.008654 0.352162 0.221491
3.983832 0.332010 0.220708
3.995825 0.331986 0.242736
4.008795 0.332183 0.221392
3.983691 0.351989 0.220793
4.008654 0.352162 0.221476
3.996651 0.352185 0.199575
3.983832 0.332010 0.220694
4.008796 0.332183 0.221378
3.996792 0.332206 0.199476
3.983679 0.351989 0.220785
3.996638 0.352185 0.199567
3.971675 0.352011 0.199008
3.983820 0.332010 0.220686
3.996780 0.332206 0.199469
3.971816 0.332032 0.198909
3.983666 0.351989 0.220792
3.971662 0.352011 0.199015
3.958692 0.351814 0.220359
3.983807 0.332010 0.220693
3.971804 0.332032 0.198916
3.958834 0.331835 0.220260
3.983666 0.351989 0.220806
3.958692 0.351814 0.220373
3.970695 0.351791 0.242276
3.983807 0.332009 0.220708
3.958833 0.331835 0.220275
3.970837 0.331812 0.242178
3.982745 0.482004 0.221448
3.969775 0.481806 0.242917
3.957771 0.481829 0.221015
3.982604 0.501983 0.221546
3.969634 0.501785 0.243016
3.957630 0.501808 0.221113
3.982745 0.482004 0.221433
3.957772 0.481829 0.221000
3.970742 0.482026 0.199656
3.982604 0.501983 0.221532
3.957630 0.501809 0.221099
3.970600 0.502006 0.199755
3.982758 0.482004 0.221426
3.970754 0.482027 0.199649
3.995718 0.482201 0.200208
3.982617 0.501983 0.221525
3.970613 0.502006 0.199748
3.995577 0.502180 0.200307
3.982770 0.482004 0.221434
3.995730 0.482201 0.200216
4.007734 0.482178 0.222118
3.982629 0.501983 0.221532
3.995589 0.502180 0.200314
4.007592 0.502157 0.222216
3.982770 0.482004 0.221448
4.007733 0.482177 0.222132
3.994764 0.481980 0.243476
3.982629 0.501983 0.221547
4.007592 0.502157 0.222231
3.994622 0.501960 0.243575
3.982757 0.482004 0.221455
3.994751 0.481980 0.243483
3.969787 0.481806 0.242925
3.982616 0.501983 0.221554
3.994610 0.501959 0.243582
3.969646 0.501786 0.243023
3.983501 0.376988 0.220937
3.970531 0.376790 0.242407
3.995495 0.376964 0.242965
3.983642 0.357009 0.220839
3.970672 0.356811 0.242308
3.995636 0.356985 0.242866
3.983514 0.376988 0.220930
3.995507 0.376964 0.242958
4.008477 0.377161 0.221614
3.983655 0.357009 0.220832
3.995649 0.356985 0.242859
4.008618 0.357182 0.221516
3.983514 0.376988 0.220916
4.008477 0.377161 0.221600
3.996474 0.377184 0.199698
3.983655 0.357009 0.220817
4.008619 0.357182 0.221501
3.996615 0.357205 0.199599
3.983502 0.376988 0.220908
3.996461 0.377184 0.199690
3.971498 0.377010 0.199131
3.983643 0.357009 0.220810
3.996603 0.357205 0.199592
3.971639 0.357031 0.199033
3.983489 0.376988 0.220915
3.971485 0.377010 0.199138
3.958515 0.376813 0.220482
3.983630 0.357009 0.220817
3.971627 0.357031 0.199040
3.958657 0.356834 0.220384
3.983489 0.376988 0.220930
3.958515 0.376813 0.220497
3.970519 0.376790 0.242399
3.983630 0.357009 0.220831
3.958656 0.356834 0.220398
3.970660 0.356811 0.242301
