3.754197 0.314595 -0.257284
3.751353 0.307555 -0.245965
3.754422 0.301077 -0.256234
3.756181 0.313121 -0.264297
3.663710 0.311160 -0.282156
3.660866 0.304120 -0.270837
3.663935 0.297642 -0.281106
3.665694 0.309686 -0.289169
3.755522 0.326509 -0.263747
3.754199 0.314606 -0.257292
3.756183 0.313132 -0.264306
3.756963 0.329646 -0.269424
3.665034 0.323075 -0.288618
3.663712 0.311172 -0.282163
3.665695 0.309698 -0.289176
3.666475 0.326212 -0.294294
3.754976 0.340093 -0.263638
3.755522 0.326523 -0.263750
3.756963 0.329660 -0.269426
3.757306 0.342049 -0.272384
3.664489 0.336658 -0.288511
3.665035 0.323088 -0.288622
3.666476 0.326225 -0.294299
3.666819 0.338614 -0.297257
3.747467 0.286980 -0.228983
3.753721 0.280777 -0.250880
3.754420 0.301062 -0.256224
3.751351 0.307540 -0.245955
3.656979 0.283544 -0.253854
3.663234 0.277342 -0.275752
3.663932 0.297627 -0.281095
3.660864 0.304105 -0.270826
3.743564 0.292505 -0.215546
3.747463 0.286984 -0.228968
3.751347 0.307544 -0.245940
3.747749 0.307275 -0.232811
3.653076 0.289071 -0.240417
3.656975 0.283549 -0.253839
3.660859 0.304110 -0.270811
3.657261 0.303841 -0.257682
3.740164 0.302182 -0.204516
3.743560 0.292511 -0.215533
3.747745 0.307281 -0.232798
3.744350 0.313857 -0.221357
3.649677 0.298747 -0.229388
3.653073 0.289076 -0.240405
3.657258 0.303846 -0.257670
3.653863 0.310423 -0.246229
3.737624 0.315034 -0.197046
3.740162 0.302191 -0.204507
3.744348 0.313867 -0.221348
3.742078 0.325499 -0.214698
3.647136 0.311600 -0.221918
3.649674 0.298758 -0.229378
3.653860 0.310433 -0.246219
3.651591 0.322065 -0.239570
3.736157 0.330765 -0.193884
3.737622 0.315048 -0.197041
3.742077 0.325513 -0.214693
3.741531 0.339096 -0.214586
3.645670 0.327330 -0.218756
3.647135 0.311613 -0.221914
3.651589 0.322078 -0.239565
3.651044 0.335661 -0.239458
3.736149 0.346740 -0.196060
3.736156 0.330778 -0.193883
3.741530 0.339109 -0.214584
3.739736 0.347464 -0.209210
3.645662 0.343306 -0.220932
3.645669 0.327343 -0.218755
3.651043 0.335674 -0.239456
3.649249 0.344030 -0.234082
3.737597 0.361045 -0.203302
3.736149 0.346752 -0.196063
3.739736 0.347476 -0.209212
3.741043 0.355110 -0.215021
3.647109 0.357610 -0.228174
3.645662 0.343317 -0.220934
3.649249 0.344041 -0.234084
3.650556 0.351676 -0.239893
3.740335 0.372047 -0.214784
3.737599 0.361055 -0.203312
3.741045 0.355121 -0.215031
3.744015 0.363340 -0.226970
3.649847 0.368612 -0.239655
3.647112 0.357620 -0.228182
3.650558 0.351686 -0.239902
3.653527 0.359905 -0.251841
3.744033 0.378416 -0.229118
3.740338 0.372054 -0.214795
3.744018 0.363347 -0.226981
3.745616 0.366622 -0.233248
3.653546 0.374982 -0.253989
3.649850 0.368619 -0.239666
3.653530 0.359912 -0.251852
3.655129 0.363188 -0.258120
3.748277 0.379413 -0.244698
3.744036 0.378417 -0.229129
3.745619 0.366623 -0.233260
3.749298 0.358328 -0.245499
3.657790 0.375979 -0.269570
3.653549 0.374982 -0.254002
3.655132 0.363188 -0.258132
3.658811 0.354893 -0.270372
3.745705 0.358045 -0.232386
3.749298 0.358319 -0.245496
3.745618 0.366615 -0.233256
3.744020 0.363339 -0.226989
3.655218 0.354608 -0.257258
3.658811 0.354882 -0.270368
3.655131 0.363178 -0.258128
3.653533 0.359902 -0.251861
3.741533 0.339117 -0.214596
3.742856 0.350998 -0.221049
3.741046 0.355106 -0.215030
3.739739 0.347472 -0.209221
3.651046 0.335681 -0.239468
3.652369 0.347562 -0.245921
3.650558 0.351671 -0.239902
3.649252 0.344036 -0.234093
3.741048 0.355116 -0.215039
3.742858 0.351007 -0.221058
3.745702 0.358040 -0.232375
3.744017 0.363334 -0.226978
3.650561 0.351679 -0.239911
3.652371 0.347571 -0.245930
3.655215 0.354604 -0.257248
3.653530 0.359898 -0.251850
3.752555 0.374878 -0.259634
3.748282 0.379409 -0.244712
3.749302 0.358323 -0.245514
3.752690 0.351784 -0.256937
3.662068 0.371444 -0.284506
3.657794 0.375974 -0.269583
3.658815 0.354888 -0.270385
3.662203 0.348349 -0.281809
3.757307 0.342069 -0.272390
3.758798 0.357521 -0.279949
3.755680 0.366194 -0.269802
3.755210 0.353503 -0.266342
3.666819 0.338634 -0.297261
3.668311 0.354086 -0.304821
3.665192 0.362759 -0.294673
3.664723 0.350068 -0.291214
3.757305 0.342061 -0.272382
3.755208 0.353494 -0.266334
3.752694 0.351764 -0.256950
3.754975 0.340104 -0.263635
3.666818 0.338627 -0.297255
3.664722 0.350060 -0.291207
3.662208 0.348330 -0.281823
3.664488 0.336671 -0.288509
3.755677 0.366200 -0.269793
3.752559 0.374873 -0.259646
3.752694 0.351779 -0.256949
3.755208 0.353509 -0.266333
3.665190 0.362766 -0.294665
3.662071 0.371439 -0.284517
3.662206 0.348345 -0.281821
3.664720 0.350075 -0.291205
3.609566 0.312101 -0.295684
3.611550 0.310627 -0.302698
3.609791 0.298583 -0.294635
3.606722 0.305061 -0.284365
3.700053 0.315536 -0.270814
3.702037 0.314062 -0.277827
3.700278 0.302019 -0.269764
3.697210 0.308496 -0.259495
3.610890 0.324016 -0.302147
3.612331 0.327153 -0.307824
3.611551 0.310639 -0.302706
3.609568 0.312113 -0.295692
3.701377 0.327450 -0.277276
3.702819 0.330587 -0.282952
3.702039 0.314073 -0.277834
3.700055 0.315547 -0.270821
3.610345 0.337600 -0.302039
3.612675 0.339556 -0.310785
3.612332 0.327167 -0.307827
3.610890 0.324030 -0.302151
3.700832 0.341033 -0.277168
3.703162 0.342990 -0.285914
3.702819 0.330601 -0.282956
3.701378 0.327464 -0.277280
3.602836 0.284485 -0.267383
3.606720 0.305046 -0.284355
3.609788 0.298568 -0.294624
3.609090 0.278283 -0.289281
3.693323 0.287921 -0.242512
3.697207 0.308481 -0.259484
3.700276 0.302004 -0.269753
3.699577 0.281718 -0.264410
3.598932 0.290012 -0.253946
3.603117 0.304782 -0.271211
3.606716 0.305051 -0.284340
3.602831 0.284490 -0.267369
3.689420 0.293446 -0.229075
3.693605 0.308216 -0.246340
3.697203 0.308485 -0.259469
3.693319 0.287925 -0.242498
3.595534 0.299687 -0.242917
3.599719 0.311363 -0.259758
3.603114 0.304786 -0.271200
3.598929 0.290016 -0.253935
3.686020 0.303123 -0.218045
3.690206 0.314799 -0.234886
3.693601 0.308222 -0.246327
3.689416 0.293452 -0.229062
3.592992 0.312541 -0.235446
3.597447 0.323006 -0.253098
3.599716 0.311374 -0.259748
3.595530 0.299699 -0.242907
3.683480 0.315975 -0.210576
3.687934 0.326440 -0.228228
3.690204 0.314808 -0.234878
3.686018 0.303132 -0.218036
3.591526 0.328271 -0.232285
3.596900 0.336602 -0.252987
3.597445 0.323019 -0.253095
3.592991 0.312554 -0.235443
3.682013 0.331706 -0.207413
3.687387 0.340037 -0.228115
3.687933 0.326454 -0.228223
3.683478 0.315989 -0.210571
3.591518 0.344247 -0.234461
3.595105 0.344971 -0.247611
3.596899 0.336615 -0.252985
3.591525 0.328284 -0.232284
3.682005 0.347682 -0.209589
3.685592 0.348406 -0.222739
3.687386 0.340050 -0.228113
3.682012 0.331719 -0.207412
3.592966 0.358552 -0.241703
3.596412 0.352618 -0.253422
3.595105 0.344983 -0.247613
3.591518 0.344259 -0.234464
3.683453 0.361985 -0.216831
3.686899 0.356051 -0.228550
3.685592 0.348416 -0.222741
3.682005 0.347692 -0.209592
3.595704 0.369553 -0.253184
3.599384 0.360846 -0.265370
3.596414 0.352627 -0.253431
3.592968 0.358561 -0.241712
3.686191 0.372988 -0.228313
3.689871 0.364281 -0.240499
3.686901 0.356062 -0.228560
3.683455 0.361996 -0.216841
3.599402 0.375923 -0.267518
3.600985 0.364129 -0.271649
3.599386 0.360853 -0.265381
3.595707 0.369560 -0.253196
3.689889 0.379357 -0.242647
3.691472 0.367563 -0.246777
3.689874 0.364288 -0.240510
3.686194 0.372995 -0.228324
3.603647 0.376920 -0.283099
3.604667 0.355834 -0.283901
3.600988 0.364129 -0.271661
3.599405 0.375924 -0.267531
3.694134 0.380354 -0.258227
3.695154 0.359268 -0.259029
3.691475 0.367564 -0.246789
3.689892 0.379358 -0.242659
3.601073 0.355550 -0.270787
3.599389 0.360845 -0.265390
3.600987 0.364120 -0.271657
3.604666 0.355825 -0.283897
3.691561 0.358985 -0.245916
3.689876 0.364279 -0.240518
3.691475 0.367555 -0.246786
3.695154 0.359259 -0.259026
3.596902 0.336623 -0.252997
3.595108 0.344978 -0.247622
3.596415 0.352613 -0.253431
3.598225 0.348504 -0.259450
3.687389 0.340057 -0.228125
3.685595 0.348413 -0.222750
3.686902 0.356047 -0.228559
3.688712 0.351938 -0.234578
3.596417 0.352621 -0.253440
3.599386 0.360840 -0.265379
3.601071 0.355546 -0.270776
3.598227 0.348513 -0.259458
3.686904 0.356056 -0.228569
3.689874 0.364274 -0.240508
3.691558 0.358980 -0.245905
3.688714 0.351947 -0.234587
3.607924 0.372385 -0.298035
3.608059 0.349291 -0.295338
3.604671 0.355829 -0.283914
3.603650 0.376915 -0.283112
3.698411 0.375819 -0.273164
3.698546 0.352725 -0.270467
3.695158 0.359264 -0.259043
3.694138 0.380350 -0.258241
3.611599 0.338955 -0.305678
3.609503 0.350388 -0.299631
3.609972 0.363079 -0.303090
3.611523 0.354347 -0.313669
3.704238 0.343631 -0.291031
3.702142 0.355065 -0.284984
3.702611 0.367756 -0.288444
3.704161 0.359023 -0.299022
3.612674 0.339568 -0.310784
3.610344 0.337612 -0.302037
3.608064 0.349272 -0.295352
3.610578 0.351002 -0.304736
3.703161 0.343002 -0.285911
3.700831 0.341046 -0.277165
3.698551 0.352705 -0.270479
3.701065 0.354435 -0.279863
3.611046 0.363707 -0.308194
3.610577 0.351016 -0.304734
3.608063 0.349286 -0.295350
3.607927 0.372380 -0.298047
3.701533 0.367142 -0.283322
3.701064 0.354451 -0.279862
3.698549 0.352721 -0.270477
3.698414 0.375815 -0.273174
