4.336052 0.398352 0.747860
4.331205 0.407406 0.741239
4.339680 0.424534 0.750672
4.343664 0.418506 0.755458
4.305450 0.399838 0.773514
4.300603 0.408892 0.766893
4.309078 0.426020 0.776325
4.313062 0.419992 0.781112
4.343565 0.419251 0.755319
4.339581 0.425280 0.750533
4.346897 0.444190 0.759188
4.350717 0.439268 0.763556
4.313176 0.419285 0.781267
4.309193 0.425313 0.776481
4.316508 0.444224 0.785137
4.320328 0.439302 0.789504
4.350794 0.439508 0.763648
4.346974 0.444430 0.759281
4.353260 0.464166 0.766957
4.357225 0.459816 0.771662
4.320265 0.439101 0.789428
4.316445 0.444024 0.785061
4.322731 0.463760 0.792738
4.326696 0.459409 0.797443
4.357281 0.459464 0.771729
4.353317 0.463815 0.767024
4.357532 0.484398 0.771701
4.362178 0.480951 0.777377
4.326650 0.459802 0.797389
4.322686 0.464152 0.792684
4.326901 0.484735 0.797361
4.331548 0.481288 0.803037
4.362269 0.480550 0.777498
4.357623 0.483997 0.771822
4.360343 0.505459 0.774007
4.365566 0.502924 0.780566
4.331465 0.481732 0.802924
4.326818 0.485179 0.797248
4.329538 0.506641 0.799433
4.334762 0.504106 0.805992
4.365671 0.503200 0.780684
4.360448 0.505735 0.774125
4.361287 0.527762 0.774630
4.367089 0.525916 0.781759
4.334661 0.503874 0.805878
4.329438 0.506409 0.799318
4.330276 0.528436 0.799824
4.336079 0.526590 0.806953
4.367160 0.526268 0.781842
4.361357 0.528114 0.774713
4.359963 0.548955 0.772873
4.367788 0.549192 0.782705
4.336009 0.526282 0.806871
4.330207 0.528128 0.799742
4.328813 0.548969 0.797902
4.336638 0.549205 0.807734
4.331328 0.407721 0.741372
4.326405 0.416753 0.734791
4.335820 0.430877 0.746041
4.339803 0.424850 0.750804
4.300472 0.408591 0.766748
4.295549 0.417623 0.760167
4.304965 0.431747 0.771417
4.308947 0.425720 0.776181
4.339626 0.425389 0.750586
4.335644 0.431415 0.745822
4.343087 0.449044 0.754829
4.346942 0.444299 0.759241
4.309140 0.425215 0.776419
4.305157 0.431242 0.771655
4.312601 0.448871 0.780662
4.316455 0.444126 0.785075
4.346912 0.444395 0.759207
4.343057 0.449140 0.754795
4.349108 0.468116 0.762083
4.353198 0.464131 0.766884
4.316499 0.444068 0.785125
4.312644 0.448813 0.780713
4.318695 0.467788 0.788001
4.322785 0.463804 0.792802
4.353312 0.463649 0.767021
4.349221 0.467633 0.762221
4.352804 0.487589 0.765782
4.357527 0.484231 0.771698
4.322682 0.464327 0.792676
4.318592 0.468311 0.787876
4.322175 0.488267 0.791438
4.326898 0.484909 0.797354
4.357604 0.483959 0.771801
4.352882 0.487317 0.765886
4.354809 0.508118 0.767223
4.360324 0.505421 0.773986
4.326827 0.485223 0.797256
4.322104 0.488581 0.791340
4.324032 0.509381 0.792677
4.329547 0.506685 0.799441
4.360412 0.505738 0.774081
4.354897 0.508435 0.767318
4.355438 0.529551 0.767354
4.361251 0.527765 0.774587
4.329462 0.506410 0.799348
4.323947 0.509107 0.792585
4.324487 0.530223 0.792621
4.330301 0.528437 0.799854
4.361370 0.528039 0.774728
4.355556 0.529826 0.767496
4.352143 0.548641 0.763073
4.359976 0.548881 0.772889
4.330181 0.528204 0.799709
4.324367 0.529990 0.792476
4.320954 0.548805 0.788054
4.328787 0.549045 0.797869
4.326439 0.417079 0.734826
4.321355 0.426139 0.728390
4.331882 0.437178 0.741297
4.335855 0.431202 0.746076
4.295505 0.417313 0.760121
4.290421 0.426373 0.753684
4.300948 0.437412 0.766591
4.304921 0.431436 0.771370
4.335692 0.431556 0.745881
4.331719 0.437531 0.741101
4.339227 0.453794 0.750471
4.343135 0.449185 0.754887
4.305102 0.431112 0.771587
4.301129 0.437088 0.766808
4.308637 0.453350 0.776178
4.312545 0.448741 0.780594
4.343110 0.448905 0.754856
4.339202 0.453514 0.750440
4.345110 0.471466 0.757091
4.349161 0.467880 0.762145
4.312583 0.449056 0.780642
4.308675 0.453665 0.776225
4.314583 0.471618 0.782876
4.318634 0.468032 0.787930
4.349249 0.467547 0.762257
4.345198 0.471133 0.757203
4.347866 0.490796 0.759818
4.352833 0.487504 0.765819
4.318554 0.468403 0.787828
4.314503 0.471989 0.782774
4.317170 0.491652 0.785389
4.322138 0.488360 0.791390
4.352861 0.487238 0.765865
4.347894 0.490530 0.759864
4.349296 0.510677 0.760250
4.354789 0.508038 0.767202
4.322114 0.488666 0.791348
4.317147 0.491958 0.785347
4.318549 0.512105 0.785732
4.324042 0.509467 0.792685
4.354913 0.508482 0.767336
4.349420 0.511120 0.760383
4.349499 0.531333 0.760153
4.355454 0.529598 0.767373
4.323919 0.509064 0.792552
4.318426 0.511703 0.785599
4.318505 0.531916 0.785369
4.324460 0.530180 0.792589
4.355474 0.529659 0.767396
4.349519 0.531394 0.760176
4.344228 0.548230 0.753157
4.352061 0.548475 0.762973
4.324436 0.530158 0.792559
4.318481 0.531893 0.785340
4.313190 0.548728 0.778320
4.321023 0.548973 0.788137
4.338998 0.391146 0.762478
4.346610 0.411300 0.770076
4.342776 0.404690 0.784152
4.335783 0.386558 0.770667
4.302505 0.407030 0.758912
4.310117 0.427184 0.766510
4.306282 0.420575 0.780586
4.299290 0.402442 0.767101
4.346899 0.412042 0.770244
4.354051 0.432059 0.778481
4.350074 0.426383 0.793285
4.343065 0.405433 0.784320
4.309842 0.426481 0.766362
4.316994 0.446498 0.774599
4.313016 0.440822 0.789403
4.306008 0.419872 0.780438
4.354111 0.432696 0.779761
4.360541 0.453004 0.787775
4.355999 0.448850 0.802044
4.350133 0.427020 0.794565
4.316948 0.445903 0.773335
4.323379 0.466211 0.781349
4.318836 0.462057 0.795619
4.312970 0.440227 0.788139
4.360679 0.454244 0.789043
4.365576 0.475730 0.794691
4.361116 0.472589 0.809297
4.356136 0.450090 0.803312
4.323252 0.465015 0.780095
4.328150 0.486501 0.785743
4.323689 0.483360 0.800348
4.318710 0.460860 0.794364
4.365915 0.477535 0.795061
4.369212 0.499909 0.798129
4.364950 0.497604 0.813801
4.361454 0.474394 0.809666
4.327820 0.484741 0.785383
4.331117 0.507115 0.788451
4.326855 0.504810 0.804123
4.323359 0.481600 0.799988
4.369545 0.501784 0.797831
4.370963 0.524500 0.798906
4.367279 0.523095 0.815732
4.365284 0.499478 0.813503
4.330788 0.505286 0.788754
4.332206 0.528002 0.789829
4.328522 0.526598 0.806655
4.326526 0.502981 0.804426
4.371184 0.525265 0.798126
4.371812 0.548188 0.798989
4.369014 0.547603 0.815442
4.367499 0.523860 0.814952
4.331988 0.527284 0.790612
4.332617 0.550207 0.791475
4.329819 0.549622 0.807928
4.328304 0.525879 0.807438
4.326327 0.382165 0.781921
4.333319 0.400298 0.795406
4.318789 0.398577 0.802547
4.310230 0.379343 0.791168
4.308727 0.406827 0.755866
4.315720 0.424960 0.769352
4.301190 0.423239 0.776492
4.292631 0.404005 0.765113
4.333155 0.403216 0.797745
4.340163 0.424167 0.806710
4.326081 0.422773 0.813732
4.318625 0.401496 0.804886
4.315900 0.422081 0.767034
4.322908 0.443031 0.775999
4.308826 0.441637 0.783021
4.301370 0.420360 0.774174
4.340448 0.425656 0.807377
4.346314 0.447485 0.814857
4.332187 0.446352 0.822264
4.326366 0.424262 0.814399
4.322637 0.441586 0.775349
4.328503 0.463415 0.782828
4.314376 0.462282 0.790236
4.308555 0.440191 0.782370
4.346644 0.449004 0.815346
4.351624 0.471503 0.821330
4.338176 0.470551 0.828534
4.332517 0.447870 0.822754
4.328183 0.461942 0.782352
4.333163 0.484441 0.788336
4.319714 0.483488 0.795540
4.314056 0.460808 0.789760
4.351730 0.473625 0.821956
4.355225 0.496835 0.826091
4.341920 0.496297 0.833092
4.338281 0.472673 0.829160
4.333066 0.482365 0.787720
4.336562 0.505575 0.791855
4.323256 0.505037 0.798856
4.319618 0.481412 0.794924
4.355237 0.498766 0.826465
4.357233 0.522383 0.828695
4.343683 0.522204 0.835936
4.341932 0.498228 0.833466
4.336555 0.503691 0.791487
4.338550 0.527307 0.793716
4.325000 0.527129 0.800958
4.323249 0.503153 0.798487
4.357372 0.523855 0.828766
4.358887 0.547598 0.829256
4.344665 0.547756 0.837006
4.343822 0.523676 0.836008
4.338414 0.525883 0.793648
4.339929 0.549626 0.794138
4.325707 0.549783 0.801888
4.324864 0.525704 0.800890
4.310412 0.380258 0.791859
4.318971 0.399492 0.803238
4.304359 0.397819 0.810450
4.294315 0.377496 0.801105
4.292419 0.403086 0.764438
4.300978 0.422320 0.775817
4.286367 0.420647 0.783029
4.276322 0.400324 0.773684
4.318616 0.401530 0.804912
4.326072 0.422807 0.813758
4.312022 0.421354 0.820729
4.304005 0.399857 0.812124
4.301350 0.420322 0.774162
4.308806 0.441600 0.783009
4.294756 0.440146 0.789980
4.286739 0.418650 0.781374
4.326269 0.424170 0.814406
4.332090 0.446260 0.822272
4.317809 0.445110 0.829601
4.312219 0.422716 0.821377
4.308623 0.440281 0.782377
4.314444 0.462371 0.790243
4.300162 0.461221 0.797572
4.294573 0.438827 0.789349
4.332436 0.447742 0.822749
4.338094 0.470423 0.828529
4.324661 0.469556 0.835798
4.318154 0.446592 0.830078
4.314110 0.460933 0.789780
4.319768 0.483614 0.795560
4.306335 0.482747 0.802830
4.299828 0.459783 0.797109
4.338288 0.472861 0.829203
4.341926 0.496486 0.833135
4.328601 0.495978 0.840118
4.324854 0.471994 0.836473
4.319584 0.481222 0.794895
4.323223 0.504847 0.798827
4.309898 0.504340 0.805809
4.306151 0.480356 0.802165
4.341878 0.498190 0.833490
4.343629 0.522165 0.835960
4.330056 0.521988 0.843170
4.328553 0.497683 0.840472
4.323277 0.503191 0.798478
4.325028 0.527166 0.800949
4.311455 0.526989 0.808158
4.309952 0.502684 0.805461
4.343785 0.523569 0.836021
4.344627 0.547649 0.837020
4.330404 0.547809 0.844771
4.330212 0.523392 0.843231
4.324874 0.525811 0.800891
4.325716 0.549890 0.801889
4.311493 0.550051 0.809640
4.311302 0.525634 0.808101
4.309963 0.394626 0.714070
4.294014 0.391002 0.694627
4.292911 0.407038 0.693451
4.309031 0.409482 0.713116
4.279087 0.394341 0.739435
4.263138 0.390717 0.719992
4.262034 0.406753 0.718816
4.278155 0.409197 0.738480
4.293997 0.390982 0.694606
4.278038 0.387332 0.675156
4.276776 0.404600 0.673781
4.292894 0.407018 0.693430
4.263123 0.390731 0.719974
4.247164 0.387082 0.700523
4.245902 0.404349 0.699149
4.262019 0.406767 0.718798
4.278032 0.387318 0.675149
4.262094 0.383694 0.655694
4.260658 0.402140 0.654101
4.276770 0.404585 0.673774
4.247137 0.387090 0.700491
4.231198 0.383467 0.681037
4.229763 0.401913 0.679443
4.245875 0.404358 0.699117
4.262080 0.383687 0.655678
4.246044 0.381619 0.636099
4.244502 0.400844 0.634385
4.260645 0.402133 0.654085
4.231179 0.383469 0.681014
4.215143 0.381402 0.661435
4.213601 0.400626 0.659721
4.229744 0.401915 0.679420
4.246009 0.381664 0.636058
4.229938 0.380267 0.616423
4.228194 0.400071 0.614618
4.244467 0.400889 0.634344
4.215145 0.381354 0.661437
4.199074 0.379956 0.641802
4.197330 0.399761 0.639998
4.213603 0.400579 0.659723
4.229932 0.380332 0.616416
4.213848 0.378909 0.596773
4.211927 0.399346 0.594816
4.228188 0.400136 0.614612
4.199048 0.379889 0.641770
4.182965 0.378465 0.622126
4.181043 0.398903 0.620170
4.197304 0.399693 0.639965
4.309014 0.409572 0.713096
4.292894 0.407128 0.693432
4.291725 0.423176 0.692333
4.308059 0.424401 0.712143
4.278170 0.409138 0.738497
4.262049 0.406694 0.718833
4.260880 0.422743 0.717734
4.277214 0.423967 0.737544
4.292916 0.407105 0.693459
4.276798 0.404687 0.673810
4.275525 0.421901 0.672440
4.291747 0.423154 0.692360
4.261995 0.406713 0.718767
4.245877 0.404295 0.699118
4.244603 0.421509 0.697748
4.260825 0.422761 0.717668
4.276772 0.404622 0.673776
4.260660 0.402177 0.654103
4.259226 0.420612 0.652544
4.275498 0.421836 0.672406
4.245871 0.404357 0.699112
4.229759 0.401912 0.679438
4.228326 0.420347 0.677880
4.244597 0.421571 0.697742
4.260630 0.402197 0.654067
4.244486 0.400908 0.634367
4.242883 0.420087 0.632687
4.259196 0.420632 0.652508
4.229757 0.401889 0.679435
4.213613 0.400600 0.659736
4.212010 0.419779 0.658055
4.228323 0.420324 0.677876
4.244438 0.400934 0.634308
4.228165 0.400116 0.614583
4.226437 0.419938 0.612784
4.242835 0.420113 0.632628
4.213629 0.400573 0.659755
4.197357 0.399755 0.640030
4.195628 0.419577 0.638231
4.212027 0.419751 0.658074
4.228151 0.400177 0.614567
4.211890 0.399387 0.594772
4.209909 0.419795 0.592844
4.226423 0.419999 0.612769
4.197338 0.399693 0.640005
4.181077 0.398903 0.620210
4.179096 0.419311 0.618282
4.195609 0.419515 0.638207
4.308077 0.424492 0.712166
4.291742 0.423267 0.692357
4.290603 0.439274 0.691221
4.307007 0.439348 0.711323
4.277194 0.423907 0.737518
4.260860 0.422683 0.717709
4.259720 0.438690 0.716572
4.276125 0.438763 0.736674
4.291771 0.423179 0.692390
4.275549 0.421926 0.672470
4.274249 0.439143 0.671151
4.290632 0.439186 0.691254
4.260798 0.422770 0.717635
4.244576 0.421518 0.697715
4.243276 0.438734 0.696396
4.259659 0.438777 0.716499
4.275515 0.421877 0.672428
4.259243 0.420653 0.652566
4.257822 0.439021 0.650995
4.274215 0.439094 0.671108
4.244578 0.421565 0.697717
4.228306 0.420341 0.677855
4.226885 0.438709 0.676285
4.243278 0.438782 0.696398
4.259177 0.420617 0.652485
4.242865 0.420071 0.632664
4.241303 0.439262 0.630968
4.257756 0.438984 0.650915
4.228339 0.420377 0.677896
4.212026 0.419832 0.658075
4.210464 0.439022 0.656380
4.226918 0.438745 0.676326
4.242813 0.420112 0.632602
4.226415 0.419937 0.612758
4.224672 0.439719 0.610954
4.241251 0.439302 0.630907
4.212045 0.419791 0.658097
4.195646 0.419617 0.638253
4.193904 0.439399 0.636449
4.210483 0.438982 0.656402
4.226390 0.419980 0.612729
4.209877 0.419776 0.592804
4.207965 0.440215 0.590842
4.224647 0.439762 0.610925
4.195638 0.419575 0.638243
4.179124 0.419371 0.618318
4.177213 0.439810 0.616356
4.193895 0.439357 0.636439
4.302506 0.453109 0.714930
4.286101 0.453036 0.694828
4.278201 0.460090 0.696408
4.294546 0.460218 0.716141
4.280617 0.425025 0.733067
4.264213 0.424952 0.712965
4.256312 0.432006 0.714545
4.272657 0.432134 0.734278
4.285857 0.453327 0.694993
4.269474 0.453283 0.674890
4.261591 0.460214 0.676836
4.277956 0.460381 0.696573
4.264425 0.424660 0.712761
4.248042 0.424617 0.692657
4.240159 0.431548 0.694603
4.256524 0.431714 0.714340
4.269212 0.453583 0.675068
4.252819 0.453511 0.654955
4.244980 0.460367 0.657284
4.261329 0.460514 0.677014
4.248271 0.424316 0.692439
4.231879 0.424244 0.672326
4.224039 0.431100 0.674655
4.240388 0.431247 0.694385
4.252497 0.453905 0.655251
4.236043 0.454183 0.635305
4.228281 0.460575 0.637818
4.244657 0.460762 0.657580
4.232168 0.423849 0.671990
4.215715 0.424126 0.652044
4.207953 0.430518 0.654556
4.224329 0.430706 0.674319
4.235563 0.454710 0.635710
4.218984 0.455128 0.615758
4.211466 0.460939 0.618484
4.227801 0.461102 0.638222
4.216162 0.423599 0.651599
4.199583 0.424016 0.631647
4.192065 0.429828 0.634373
4.208400 0.429991 0.654112
4.218416 0.455690 0.616220
4.201734 0.456144 0.596137
4.194929 0.461348 0.599644
4.210899 0.461502 0.618946
4.200117 0.423454 0.631145
4.183435 0.423907 0.611062
4.176630 0.429112 0.614569
4.192600 0.429265 0.633871
4.306199 0.379787 0.719886
4.300159 0.373331 0.723343
4.284152 0.369862 0.703626
4.290250 0.376163 0.700443
4.282846 0.409158 0.733623
4.276806 0.402703 0.737080
4.260799 0.399234 0.717363
4.266897 0.405535 0.714180
4.290161 0.376064 0.700505
4.284063 0.369763 0.703688
4.268074 0.366318 0.683970
4.274202 0.372414 0.681054
4.266954 0.405627 0.714079
4.260856 0.399325 0.717262
4.244866 0.395880 0.697544
4.250995 0.401977 0.694629
4.274090 0.372294 0.681128
4.267962 0.366197 0.684043
4.251954 0.362745 0.664323
4.258152 0.368670 0.661674
4.251074 0.402090 0.694516
4.244946 0.395993 0.697432
4.228938 0.392542 0.677711
4.235136 0.398467 0.675062
4.257477 0.368515 0.660934
4.251279 0.362590 0.663584
4.234843 0.360499 0.644084
4.241440 0.366447 0.641355
4.235778 0.398616 0.675762
4.229580 0.392691 0.678412
4.213143 0.390600 0.658912
4.219741 0.396548 0.656183
4.240980 0.366188 0.641227
4.234382 0.360240 0.643955
4.217755 0.358614 0.624515
4.224909 0.364791 0.621592
4.220169 0.396804 0.656273
4.213571 0.390855 0.659002
4.196944 0.389229 0.639562
4.204098 0.395406 0.636638
4.224644 0.364517 0.621794
4.217490 0.358340 0.624718
4.200869 0.356755 0.605285
4.208560 0.363094 0.602151
4.204331 0.395677 0.636396
4.197177 0.389500 0.639320
4.180556 0.387915 0.619887
4.188247 0.394254 0.616753
4.292439 0.368430 0.730206
4.278370 0.365331 0.742821
4.262289 0.362327 0.722782
4.276432 0.364961 0.710489
4.284505 0.407595 0.730233
4.270436 0.404496 0.742847
4.254355 0.401492 0.722809
4.268498 0.404125 0.710516
4.276099 0.364898 0.710770
4.261955 0.362265 0.723063
4.245871 0.359168 0.703024
4.260109 0.361453 0.691052
4.268800 0.404182 0.710195
4.254656 0.401548 0.722488
4.238572 0.398452 0.702448
4.252811 0.400736 0.690477
4.259658 0.361379 0.691291
4.245420 0.359095 0.703263
4.229317 0.356208 0.683228
4.243650 0.357927 0.671571
4.253229 0.400803 0.690198
4.238991 0.398519 0.702170
4.222888 0.395632 0.682135
4.237221 0.397352 0.670478
4.242840 0.357804 0.671078
4.228507 0.356085 0.682735
4.212359 0.354052 0.662689
4.226403 0.355713 0.651578
4.237998 0.397470 0.670932
4.223665 0.395750 0.682588
4.207517 0.393718 0.662542
4.221562 0.395378 0.651432
4.226179 0.355688 0.651276
4.212134 0.354027 0.662387
4.195923 0.352411 0.642288
4.209552 0.354061 0.631836
4.221754 0.395400 0.651695
4.207709 0.393739 0.662805
4.191498 0.392123 0.642706
4.205127 0.393773 0.632255
4.209656 0.354074 0.631748
4.196027 0.352424 0.642200
4.179814 0.350701 0.622101
4.193035 0.352489 0.612315
4.204990 0.393757 0.632303
4.191361 0.392107 0.642754
4.175148 0.390383 0.622655
4.188369 0.392172 0.612870
4.278103 0.365280 0.742696
4.264008 0.362402 0.755314
4.247870 0.359620 0.734948
4.262021 0.362276 0.722658
4.270676 0.404542 0.742997
4.256581 0.401664 0.755614
4.240443 0.398883 0.735248
4.254594 0.401538 0.722958
4.261615 0.362203 0.722858
4.247464 0.359547 0.735147
4.231284 0.357057 0.714790
4.245531 0.359106 0.702818
4.254968 0.401606 0.722718
4.240817 0.398950 0.735007
4.224636 0.396460 0.714650
4.238884 0.398509 0.702678
4.245118 0.359044 0.703076
4.230871 0.356994 0.715047
4.214691 0.354389 0.694689
4.229015 0.356157 0.683041
4.239264 0.398566 0.702381
4.225017 0.396517 0.714352
4.208837 0.393912 0.693994
4.223161 0.395679 0.682346
4.228393 0.356071 0.682705
4.214068 0.354303 0.694353
4.198205 0.352527 0.673710
4.212244 0.354039 0.662659
4.223752 0.395760 0.682641
4.209427 0.393993 0.694289
4.193564 0.392216 0.673646
4.207604 0.393728 0.662595
4.212172 0.354031 0.662515
4.198133 0.352518 0.673566
4.182333 0.350671 0.652832
4.195961 0.352414 0.642416
4.207644 0.393733 0.662698
4.193604 0.392221 0.673749
4.177804 0.390374 0.653015
4.191432 0.392116 0.642599
4.196050 0.352426 0.642274
4.182422 0.350683 0.652690
4.166614 0.349021 0.631961
4.179837 0.350702 0.622175
4.191311 0.392101 0.642701
4.177683 0.390359 0.653116
4.161875 0.388697 0.632388
4.175098 0.390378 0.622602
4.331868 0.383574 0.754760
4.328653 0.378986 0.762948
4.314409 0.375307 0.743598
4.318926 0.381641 0.737719
4.309615 0.414580 0.766602
4.306399 0.409992 0.774790
4.292156 0.406313 0.755440
4.296673 0.412647 0.749561
4.319487 0.382472 0.736759
4.314970 0.376139 0.742638
4.300199 0.373351 0.723367
4.306239 0.379807 0.719911
4.296084 0.411810 0.750485
4.291568 0.405477 0.756364
4.276796 0.402689 0.737093
4.282836 0.409145 0.733636
4.310183 0.394533 0.714342
4.309251 0.409389 0.713387
4.319079 0.406285 0.725585
4.323431 0.397198 0.731190
4.278895 0.394437 0.739197
4.277962 0.409293 0.738243
4.287790 0.406189 0.750441
4.292142 0.397102 0.756046
4.323654 0.396998 0.731477
4.319302 0.406084 0.725872
4.331749 0.407985 0.741897
4.336596 0.398931 0.748518
4.291944 0.397304 0.755790
4.287592 0.406391 0.750185
4.300039 0.408292 0.766210
4.304885 0.399238 0.772831
4.309208 0.409585 0.713335
4.308253 0.424414 0.712381
4.316499 0.417382 0.722598
4.319036 0.406481 0.725533
4.278001 0.409122 0.738290
4.277046 0.423951 0.737336
4.285293 0.416918 0.747553
4.287829 0.406017 0.750488
4.319104 0.406185 0.725617
4.316568 0.417086 0.722682
4.326628 0.417118 0.735061
4.331551 0.408086 0.741642
4.287781 0.406309 0.750430
4.285245 0.417210 0.747494
4.295305 0.417242 0.759873
4.300228 0.408210 0.766454
4.308232 0.424513 0.712358
4.307162 0.439369 0.711514
4.313896 0.430874 0.719582
4.316479 0.417481 0.722574
4.277063 0.423879 0.737356
4.275994 0.438735 0.736512
4.282728 0.430239 0.744580
4.285310 0.416846 0.747572
4.316293 0.417063 0.722342
4.313710 0.430455 0.719349
4.321269 0.426154 0.728284
4.326353 0.417095 0.734721
4.285513 0.417255 0.747825
4.282930 0.430647 0.744832
4.290489 0.426346 0.753767
4.295573 0.417286 0.760203
4.213515 0.380059 0.597195
4.213373 0.378679 0.574918
4.211284 0.399438 0.573361
4.211431 0.400466 0.595671
4.173758 0.376065 0.597668
4.173616 0.374686 0.575391
4.171527 0.395445 0.573834
4.171674 0.396473 0.596144
4.213374 0.378662 0.574902
4.213248 0.377312 0.552630
4.211135 0.398363 0.551027
4.211286 0.399420 0.573345
4.173614 0.374701 0.575363
4.173487 0.373352 0.553091
4.171374 0.394403 0.551489
4.171525 0.395460 0.573806
4.213249 0.377298 0.552618
4.213115 0.376030 0.530347
4.210996 0.397395 0.528712
4.211136 0.398349 0.551015
4.173486 0.373364 0.553059
4.173351 0.372096 0.530788
4.171232 0.393461 0.529154
4.171373 0.394415 0.551456
4.213118 0.376003 0.530442
4.213023 0.375516 0.508135
4.210955 0.396888 0.506465
4.210999 0.397368 0.528807
4.173348 0.372122 0.530649
4.173253 0.371635 0.508342
4.171185 0.393007 0.506672
4.171229 0.393487 0.529014
4.213029 0.375461 0.508110
4.212926 0.374945 0.485795
4.210916 0.396385 0.484106
4.210960 0.396834 0.506440
4.173248 0.371689 0.508322
4.173145 0.371172 0.486007
4.171135 0.392612 0.484318
4.171179 0.393061 0.506652
4.212930 0.374903 0.485772
4.212843 0.374417 0.463465
4.210856 0.395864 0.461719
4.210920 0.396343 0.484083
4.173141 0.371213 0.485986
4.173054 0.370727 0.463679
4.171068 0.392174 0.461933
4.171132 0.392652 0.484296
4.211428 0.400501 0.595695
4.211281 0.399473 0.573385
4.209181 0.420201 0.571822
4.209330 0.420935 0.594178
4.171673 0.396478 0.596117
4.171526 0.395450 0.573807
4.169426 0.416178 0.572244
4.169575 0.416912 0.594600
4.211286 0.399421 0.573383
4.211135 0.398365 0.551065
4.209082 0.419450 0.549470
4.209186 0.420149 0.571819
4.171521 0.395500 0.573764
4.171370 0.394444 0.551447
4.169317 0.415529 0.549852
4.169421 0.416228 0.572201
4.211140 0.398313 0.551038
4.210999 0.397359 0.528735
4.208946 0.418700 0.527091
4.209087 0.419399 0.549443
4.171365 0.394493 0.551430
4.171224 0.393539 0.529127
4.169171 0.414880 0.527483
4.169312 0.415578 0.549835
4.211002 0.397337 0.528849
4.210958 0.396858 0.506507
4.208943 0.418265 0.504845
4.208949 0.418678 0.527205
4.171221 0.393560 0.528969
4.171177 0.393081 0.506626
4.169162 0.414488 0.504964
4.169168 0.414901 0.527324
4.210962 0.396819 0.506485
4.210918 0.396370 0.484151
4.208940 0.417784 0.482455
4.208947 0.418227 0.504823
4.171174 0.393119 0.506603
4.171130 0.392669 0.484269
4.169152 0.414084 0.482573
4.169159 0.414526 0.504942
4.210924 0.396308 0.484135
4.210860 0.395829 0.461772
4.208972 0.417312 0.460031
4.208946 0.417722 0.482439
4.171124 0.392730 0.484240
4.171060 0.392252 0.461876
4.169173 0.413734 0.460136
4.169147 0.414145 0.482544
4.209332 0.420921 0.594222
4.209183 0.420187 0.571866
4.207142 0.440949 0.570308
4.207254 0.441329 0.592696
4.169569 0.416968 0.594552
4.169420 0.416233 0.572196
4.167379 0.436996 0.570638
4.167491 0.437375 0.593026
4.209186 0.420154 0.571854
4.209082 0.419455 0.549505
4.207010 0.440506 0.547903
4.207145 0.440916 0.570296
4.169417 0.416265 0.572163
4.169313 0.415566 0.549814
4.167241 0.436617 0.548212
4.167376 0.437027 0.570605
4.209085 0.419419 0.549486
4.208944 0.418721 0.527135
4.206918 0.440096 0.525500
4.207013 0.440470 0.547885
4.169309 0.415600 0.549788
4.169168 0.414902 0.527436
4.167142 0.436277 0.525801
4.167237 0.436651 0.548186
4.208948 0.418688 0.527228
4.208942 0.418276 0.504869
4.206927 0.439653 0.503198
4.206922 0.440064 0.525594
4.169165 0.414933 0.527297
4.169159 0.414521 0.504938
4.167144 0.435898 0.503267
4.167139 0.436309 0.525663
4.208944 0.418256 0.504853
4.208938 0.417813 0.482484
4.206949 0.439255 0.480795
4.206929 0.439633 0.503182
4.169157 0.414540 0.504909
4.169151 0.414097 0.482540
4.167162 0.435539 0.480851
4.167142 0.435917 0.503238
4.208940 0.417793 0.482485
4.208966 0.417383 0.460078
4.206990 0.438830 0.458334
4.206951 0.439235 0.480796
4.169149 0.414116 0.482494
4.169175 0.413706 0.460087
4.167200 0.435153 0.458343
4.167160 0.435558 0.480805
4.199905 0.454920 0.592617
4.199793 0.454541 0.570229
4.193027 0.460119 0.570576
4.193083 0.460305 0.593062
4.174831 0.423809 0.593103
4.174719 0.423430 0.570715
4.167953 0.429008 0.571062
4.168009 0.429195 0.593548
4.200229 0.454179 0.570232
4.200094 0.453768 0.547838
4.193450 0.459650 0.548092
4.193464 0.459757 0.570578
4.174282 0.423792 0.570668
4.174147 0.423381 0.548275
4.167503 0.429263 0.548529
4.167517 0.429370 0.571015
4.200542 0.453374 0.547828
4.200448 0.452999 0.525444
4.193897 0.459091 0.525610
4.193898 0.459255 0.548082
4.173699 0.423775 0.548240
4.173604 0.423401 0.525856
4.167053 0.429493 0.526022
4.167054 0.429657 0.548494
4.200951 0.452528 0.525545
4.200956 0.452118 0.503149
4.194751 0.458424 0.503230
4.194400 0.458620 0.525711
4.173101 0.423872 0.525711
4.173107 0.423461 0.503315
4.166902 0.429768 0.503396
4.166550 0.429964 0.525877
4.201525 0.451542 0.503133
4.201545 0.451164 0.480746
4.195652 0.457608 0.480720
4.195320 0.457848 0.503215
4.172538 0.424037 0.503285
4.172558 0.423659 0.480898
4.166665 0.430103 0.480872
4.166333 0.430343 0.503366
4.202037 0.450626 0.480728
4.202076 0.450221 0.458265
4.196467 0.456819 0.458171
4.196144 0.457070 0.480702
4.172066 0.424196 0.480872
4.172106 0.423791 0.458409
4.166496 0.430389 0.458315
4.166173 0.430640 0.480845
4.181734 0.464697 0.593452
4.181677 0.464510 0.570966
4.159703 0.466164 0.574319
4.158082 0.465740 0.597429
4.179330 0.424810 0.593162
4.179273 0.424624 0.570676
4.157299 0.426277 0.574029
4.155678 0.425853 0.597139
4.182369 0.464456 0.571052
4.182355 0.464349 0.548566
4.162012 0.466645 0.551296
4.160395 0.466109 0.574405
4.178583 0.424679 0.570545
4.178569 0.424571 0.548059
4.158226 0.426868 0.550789
4.156609 0.426332 0.573898
4.183259 0.464241 0.548616
4.183258 0.464077 0.526143
4.164577 0.467218 0.528248
4.162916 0.466537 0.551346
4.177667 0.424680 0.547963
4.177666 0.424516 0.525491
4.158984 0.427656 0.527596
4.157324 0.426976 0.550694
4.184125 0.463938 0.525964
4.184476 0.463741 0.503484
4.167768 0.467168 0.505011
4.165444 0.467078 0.528069
4.176801 0.424656 0.525625
4.177152 0.424460 0.503145
4.160444 0.427887 0.504672
4.158119 0.427796 0.527730
4.185319 0.463565 0.503515
4.185651 0.463325 0.481020
4.170991 0.467127 0.482005
4.168611 0.466992 0.505042
4.176312 0.424636 0.503068
4.176644 0.424396 0.480573
4.161984 0.428198 0.481558
4.159604 0.428063 0.504595
4.186675 0.463060 0.480986
4.186999 0.462809 0.458456
4.174342 0.466854 0.458929
4.172016 0.466862 0.481971
4.175622 0.424661 0.480561
4.175945 0.424410 0.458031
4.163288 0.428456 0.458504
4.160962 0.428463 0.481547
4.208646 0.364880 0.598104
4.201193 0.356389 0.599866
4.201250 0.355387 0.577266
4.208504 0.363500 0.575827
4.178621 0.391215 0.596763
4.171169 0.382724 0.598525
4.171225 0.381723 0.575925
4.178479 0.389836 0.574486
4.208374 0.363354 0.575810
4.201120 0.355241 0.577249
4.201165 0.354219 0.554645
4.208248 0.362004 0.553538
4.178609 0.389980 0.574458
4.171355 0.381867 0.575897
4.171399 0.380845 0.553293
4.178482 0.388631 0.552186
4.208147 0.361890 0.553490
4.201064 0.354104 0.554597
4.201131 0.353126 0.532021
4.208012 0.360622 0.531219
4.178583 0.388743 0.552189
4.171500 0.380958 0.553296
4.171568 0.379980 0.530720
4.178449 0.387475 0.529919
4.208345 0.360990 0.531025
4.201465 0.353494 0.531826
4.201714 0.352516 0.509221
4.208251 0.360503 0.508718
4.178116 0.387106 0.530068
4.171235 0.379610 0.530870
4.171485 0.378632 0.508265
4.178021 0.386619 0.507761
4.208923 0.361322 0.508662
4.202387 0.353335 0.509165
4.202633 0.352404 0.486567
4.208821 0.360806 0.486347
4.177349 0.385798 0.507772
4.170812 0.377811 0.508276
4.171058 0.376880 0.485678
4.177246 0.385281 0.485457
4.209426 0.361628 0.486308
4.203238 0.353226 0.486529
4.203481 0.352249 0.463901
4.209339 0.361142 0.464001
4.176641 0.384458 0.485451
4.170453 0.376056 0.485671
4.170696 0.375079 0.463043
4.176554 0.383972 0.463144
4.187952 0.349671 0.600079
4.176039 0.348599 0.600018
4.176854 0.347671 0.577413
4.188008 0.348669 0.577479
4.184391 0.389433 0.598313
4.172478 0.388360 0.598253
4.173294 0.387433 0.575647
4.184448 0.388431 0.575713
4.187811 0.348649 0.577380
4.176657 0.347650 0.577314
4.177454 0.346906 0.554705
4.187855 0.347627 0.554776
4.184646 0.388450 0.575767
4.173492 0.387452 0.575701
4.174289 0.386708 0.553092
4.184691 0.387429 0.553163
4.187606 0.347609 0.554794
4.177205 0.346888 0.554723
4.178061 0.346006 0.532125
4.187674 0.346631 0.532219
4.184941 0.387444 0.553099
4.174540 0.386723 0.553028
4.175396 0.385841 0.530430
4.185009 0.386466 0.530523
4.187714 0.346636 0.532262
4.178101 0.346011 0.532169
4.179390 0.345023 0.509604
4.187963 0.345658 0.509657
4.184970 0.386460 0.530435
4.175357 0.385835 0.530342
4.176646 0.384847 0.507777
4.185220 0.385482 0.507830
4.188262 0.345680 0.509636
4.179689 0.345045 0.509583
4.180972 0.344027 0.487011
4.188508 0.344749 0.487037
4.184922 0.385458 0.507806
4.176349 0.384823 0.507753
4.177632 0.383805 0.485181
4.185168 0.384527 0.485208
4.188904 0.344786 0.487035
4.181368 0.344064 0.487008
4.182649 0.343071 0.464431
4.189147 0.343809 0.464407
4.184774 0.384488 0.485165
4.177238 0.383766 0.485138
4.178519 0.382773 0.462562
4.185017 0.383511 0.462537
4.176070 0.348597 0.599903
4.164166 0.347373 0.599845
4.165727 0.346774 0.577231
4.176886 0.347669 0.577297
4.172424 0.388360 0.598368
4.160520 0.387136 0.598311
4.162081 0.386537 0.575697
4.173240 0.387433 0.575763
4.176635 0.347644 0.577207
4.165477 0.346749 0.577141
4.167036 0.346089 0.554524
4.177432 0.346900 0.554598
4.173492 0.387456 0.575807
4.162334 0.386560 0.575742
4.163893 0.385901 0.553125
4.174289 0.386712 0.553199
4.177223 0.346886 0.554619
4.166827 0.346074 0.554545
4.168469 0.345441 0.531933
4.178079 0.346003 0.532021
4.174501 0.386725 0.553133
4.164105 0.385914 0.553059
4.165746 0.385280 0.530447
4.175357 0.385843 0.530535
4.178000 0.346008 0.532253
4.168390 0.345446 0.532165
4.170716 0.344406 0.509626
4.179290 0.345021 0.509688
4.175439 0.385836 0.530257
4.165829 0.385274 0.530169
4.168155 0.384234 0.507630
4.176728 0.384848 0.507693
4.179695 0.345055 0.509762
4.171122 0.344440 0.509700
4.173449 0.343282 0.487174
4.180978 0.344036 0.487190
4.176327 0.384812 0.507574
4.167753 0.384198 0.507512
4.170081 0.383040 0.484986
4.177610 0.383794 0.485002
4.181472 0.344081 0.487133
4.173942 0.343327 0.487117
4.176259 0.342304 0.464573
4.182753 0.343088 0.464557
4.177120 0.383747 0.485013
4.169591 0.382993 0.484997
4.171908 0.381969 0.462453
4.178402 0.382754 0.462437
4.284112 0.466139 0.724456
4.267767 0.466011 0.704723
4.242473 0.466675 0.709563
4.257270 0.467163 0.727803
4.283057 0.426222 0.725969
4.266712 0.426093 0.706236
4.241418 0.426758 0.711076
4.256214 0.427245 0.729316
4.267484 0.466021 0.704879
4.251119 0.465855 0.685142
4.227408 0.466154 0.691489
4.242190 0.466686 0.709719
4.266964 0.426082 0.706041
4.250598 0.425915 0.686304
4.226887 0.426214 0.692651
4.241670 0.426747 0.710882
4.250920 0.465862 0.685384
4.234571 0.465714 0.665654
4.212396 0.465820 0.673519
4.227209 0.466161 0.691730
4.250766 0.425907 0.686025
4.234417 0.425760 0.666295
4.212242 0.425865 0.674160
4.227055 0.426207 0.692371
4.234514 0.465716 0.665752
4.218139 0.465529 0.645989
4.197411 0.465679 0.655494
4.212339 0.465821 0.673617
4.234442 0.425758 0.666159
4.218066 0.425571 0.646396
4.197339 0.425721 0.655901
4.212267 0.425863 0.674024
4.218293 0.465528 0.645990
4.201958 0.465365 0.626252
4.182624 0.465817 0.637362
4.197565 0.465678 0.655496
4.217881 0.425572 0.646357
4.201546 0.425408 0.626618
4.182212 0.425861 0.637728
4.197153 0.425722 0.655862
4.202117 0.465360 0.626060
4.186147 0.465206 0.606758
4.167899 0.465886 0.619063
4.182783 0.465812 0.637170
4.201356 0.425413 0.626772
4.185387 0.425260 0.607469
4.167138 0.425940 0.619775
4.182022 0.425865 0.637881
4.216822 0.379842 0.601795
4.212065 0.379219 0.589811
4.209981 0.399626 0.588286
4.214901 0.400280 0.599839
4.179970 0.377530 0.617072
4.175212 0.376907 0.605087
4.173129 0.397314 0.603563
4.178048 0.397968 0.615116
4.214716 0.400286 0.599408
4.209796 0.399632 0.587855
4.207698 0.420066 0.586338
4.212735 0.420694 0.597480
4.178229 0.398003 0.615543
4.173310 0.397349 0.603990
4.171212 0.417783 0.602473
4.176249 0.418411 0.613615
4.212533 0.420608 0.597028
4.207497 0.419980 0.585886
4.205419 0.440387 0.584360
4.210622 0.441047 0.595066
4.176446 0.418538 0.614064
4.171409 0.417910 0.602922
4.169331 0.438318 0.601395
4.174535 0.438978 0.612101
4.193690 0.352673 0.614538
4.180469 0.350884 0.624324
4.177258 0.348825 0.601121
4.189171 0.349898 0.601182
4.187694 0.391985 0.610608
4.174473 0.390196 0.620394
4.171262 0.388137 0.597191
4.183175 0.389210 0.597252
4.180148 0.350768 0.623406
4.166925 0.349086 0.633192
4.165033 0.347485 0.600146
4.176938 0.348709 0.600203
4.174769 0.390309 0.621322
4.161546 0.388628 0.631107
4.159654 0.387026 0.598061
4.171558 0.388250 0.598118
4.211731 0.364086 0.606510
4.204039 0.357747 0.609644
4.199521 0.354972 0.596287
4.206973 0.363463 0.594525
4.185056 0.393258 0.612362
4.177364 0.386919 0.615496
4.172846 0.384144 0.602139
4.180298 0.392635 0.600377
4.186346 0.465195 0.606503
4.181126 0.464716 0.592735
4.157475 0.465759 0.596712
4.168097 0.465875 0.618808
4.185164 0.425270 0.607688
4.179944 0.424791 0.593920
4.156293 0.425834 0.597897
4.166916 0.425951 0.619993
4.203395 0.455946 0.598234
4.198192 0.455286 0.587527
4.191370 0.460671 0.587972
4.196590 0.461151 0.601740
4.181753 0.424104 0.608934
4.176550 0.423444 0.598228
4.169728 0.428829 0.598672
4.174948 0.429309 0.612440
4.212849 0.374306 0.463124
4.212580 0.373400 0.450770
4.210751 0.395109 0.449969
4.210862 0.395753 0.461378
4.173049 0.370837 0.463985
4.172780 0.369931 0.451632
4.170951 0.391640 0.450831
4.171062 0.392284 0.462239
4.210865 0.395747 0.461559
4.210754 0.395103 0.450150
4.208909 0.416786 0.449343
4.208978 0.417229 0.459819
4.171054 0.392334 0.462055
4.170943 0.391690 0.450646
4.169098 0.413373 0.449839
4.169167 0.413816 0.460315
4.208972 0.417310 0.459987
4.208904 0.416866 0.449510
4.207041 0.438574 0.448710
4.206996 0.438757 0.458243
4.169169 0.413779 0.460145
4.169100 0.413335 0.449668
4.167237 0.435043 0.448868
4.167193 0.435226 0.458401
4.212531 0.373395 0.449727
4.210949 0.384023 0.439206
4.209429 0.399986 0.438999
4.210701 0.395104 0.448926
4.172828 0.369943 0.452652
4.171246 0.380571 0.442130
4.169726 0.396534 0.441924
4.170998 0.391652 0.451851
4.210651 0.395154 0.448394
4.209378 0.400036 0.438467
4.207781 0.416017 0.438274
4.208806 0.416836 0.447587
4.171046 0.391640 0.452382
4.169773 0.396523 0.442455
4.168176 0.412504 0.442262
4.169201 0.413323 0.451574
4.208721 0.416850 0.446886
4.207697 0.416031 0.437574
4.206078 0.431984 0.437374
4.206859 0.438558 0.446086
4.169282 0.413347 0.452273
4.168257 0.412528 0.442961
4.166638 0.428481 0.442761
4.167419 0.435055 0.451473
4.209541 0.361433 0.463877
4.203683 0.352540 0.463776
4.203602 0.352360 0.456494
4.209273 0.360527 0.451523
4.176352 0.383680 0.463236
4.170494 0.374787 0.463135
4.170413 0.374606 0.455854
4.176084 0.382773 0.450882
4.189278 0.343804 0.463871
4.182780 0.343066 0.463896
4.182733 0.343005 0.460248
4.189197 0.343624 0.456589
4.184887 0.383514 0.463045
4.178389 0.382776 0.463069
4.178342 0.382715 0.459422
4.184806 0.383333 0.455763
4.202480 0.449748 0.458384
4.202524 0.449566 0.448851
4.197072 0.456311 0.451845
4.196871 0.456347 0.458290
4.171702 0.424263 0.458260
4.171747 0.424080 0.448727
4.166294 0.430826 0.451720
4.166093 0.430861 0.458166
4.174903 0.466685 0.458787
4.187560 0.462639 0.458314
4.187761 0.462604 0.451869
4.162732 0.428624 0.458619
4.175389 0.424578 0.458145
4.175590 0.424543 0.451700
4.350681 0.574754 0.814225
4.337740 0.575039 0.822170
4.342756 0.562200 0.832170
4.356978 0.562042 0.824420
4.335537 0.547931 0.788770
4.322595 0.548215 0.796715
4.327611 0.535376 0.806715
4.341834 0.535219 0.798965
4.336961 0.575062 0.822579
4.324025 0.573344 0.830505
4.327754 0.562384 0.840329
4.341977 0.562223 0.832578
4.323347 0.548191 0.796323
4.310410 0.546473 0.804250
4.314139 0.535512 0.814074
4.328362 0.535352 0.806322
4.363787 0.562556 0.785886
4.355961 0.562320 0.776053
4.347131 0.574754 0.782660
4.354691 0.574683 0.792143
4.340630 0.535875 0.804560
4.332805 0.535639 0.794727
4.323974 0.548073 0.801334
4.331535 0.548002 0.810817
4.354943 0.562707 0.775427
4.347110 0.562467 0.765612
4.338558 0.573221 0.772534
4.346112 0.575142 0.782034
4.333809 0.535250 0.795334
4.325976 0.535010 0.785519
4.317424 0.545764 0.792440
4.324978 0.547685 0.801941
4.346705 0.563308 0.766419
4.338872 0.563063 0.756602
4.330545 0.572960 0.763823
4.338153 0.574062 0.773341
4.326365 0.534168 0.784693
4.318532 0.533923 0.774876
4.310205 0.543820 0.782097
4.317813 0.544922 0.791614
4.365949 0.559381 0.814879
4.368747 0.559966 0.798426
4.359652 0.572093 0.804684
4.332881 0.537876 0.808490
4.335679 0.538461 0.792038
4.326583 0.550588 0.798295
4.340302 0.561934 0.756576
4.329268 0.560959 0.744396
4.322069 0.573761 0.750817
4.331975 0.571831 0.763797
4.317084 0.535052 0.774880
4.306050 0.534077 0.762700
4.298851 0.546879 0.769121
4.308756 0.544949 0.782101
4.341580 0.581258 0.800774
4.334020 0.581329 0.791291
4.321550 0.579707 0.800221
4.328639 0.581542 0.808720
4.344624 0.541439 0.802201
4.337064 0.541510 0.792718
4.324594 0.539888 0.801648
4.331683 0.541724 0.810147
4.326277 0.581174 0.807924
4.319188 0.579339 0.799425
4.306656 0.577318 0.808317
4.313340 0.579456 0.815851
4.334020 0.542089 0.810959
4.326931 0.540254 0.802460
4.314399 0.538233 0.811352
4.321083 0.540371 0.818886
4.332106 0.581063 0.790763
4.324551 0.579143 0.781263
4.312450 0.577660 0.791203
4.319636 0.579441 0.799693
4.338963 0.541773 0.793228
4.331409 0.539853 0.783728
4.319307 0.538370 0.793668
4.326493 0.540151 0.802158
4.321900 0.579742 0.800856
4.314714 0.577961 0.792366
4.302601 0.578632 0.802193
4.309368 0.577721 0.809748
4.324204 0.539848 0.801014
4.317018 0.538067 0.792524
4.304905 0.538739 0.802351
4.311672 0.537827 0.809906
4.317861 0.577882 0.793103
4.310890 0.578647 0.784701
4.299165 0.579688 0.795454
4.305748 0.578554 0.802929
4.313857 0.538146 0.791772
4.306886 0.538910 0.783370
4.295161 0.539951 0.794124
4.301744 0.538818 0.801599
4.313087 0.578247 0.785622
4.307214 0.580340 0.768218
4.299785 0.582011 0.774781
4.301361 0.579288 0.796376
4.304679 0.539313 0.782421
4.298806 0.541406 0.765016
4.291378 0.543077 0.771580
4.292954 0.540354 0.793175
4.322663 0.578191 0.774380
4.312757 0.580121 0.761400
4.305325 0.580667 0.768032
4.311198 0.578574 0.785436
4.318051 0.538601 0.771534
4.308146 0.540530 0.758554
4.300714 0.541077 0.765185
4.306587 0.538984 0.782590
4.325306 0.579297 0.782326
4.317698 0.578195 0.772809
4.315589 0.577990 0.782788
4.330647 0.539697 0.782640
4.323039 0.538595 0.773123
4.320930 0.538390 0.783102
4.321695 0.578318 0.773658
4.310230 0.578701 0.784714
4.319586 0.578113 0.783637
4.319030 0.538471 0.772274
4.307565 0.538854 0.783330
4.316920 0.538266 0.782254
4.310230 0.578701 0.784733
4.317201 0.577937 0.793135
4.319586 0.578112 0.783657
4.307562 0.538855 0.783324
4.314533 0.538091 0.791726
4.316917 0.538266 0.782247
4.313196 0.577811 0.792123
4.325298 0.579294 0.782183
4.315581 0.577987 0.782645
4.318551 0.538216 0.792736
4.330652 0.539699 0.782796
4.320935 0.538392 0.783258
4.292415 0.368292 0.745736
4.292381 0.368419 0.730184
4.307153 0.371206 0.749454
4.299486 0.369760 0.754982
4.284638 0.407488 0.745843
4.284605 0.407615 0.730292
4.299377 0.410402 0.749562
4.291710 0.408956 0.755089
4.278528 0.365364 0.742878
4.292597 0.368463 0.730263
4.292631 0.368337 0.745815
4.285265 0.366950 0.751732
4.270298 0.404467 0.742823
4.284367 0.407566 0.730208
4.284400 0.407440 0.745759
4.277034 0.406053 0.751677
4.285003 0.366897 0.751838
4.292369 0.368284 0.745920
4.299440 0.369751 0.755166
4.291768 0.368258 0.760691
4.277307 0.406108 0.751593
4.284673 0.407495 0.745675
4.291744 0.408962 0.754921
4.284072 0.407469 0.760446
4.291896 0.368284 0.760787
4.284231 0.366897 0.766345
4.277786 0.365382 0.757865
4.285131 0.366923 0.751934
4.283929 0.407440 0.760362
4.276264 0.406052 0.765919
4.269819 0.404537 0.757439
4.277164 0.406079 0.751508
4.285365 0.366973 0.751946
4.278020 0.365431 0.757877
4.264533 0.362509 0.755709
4.278628 0.365387 0.743091
4.276913 0.406026 0.751482
4.269569 0.404484 0.757413
4.256082 0.401562 0.755245
4.270176 0.404440 0.742627
4.284381 0.366931 0.766525
4.276723 0.365438 0.772081
4.264449 0.362494 0.755878
4.277936 0.365416 0.758045
4.276096 0.406015 0.765746
4.268439 0.404522 0.771301
4.256165 0.401578 0.755098
4.269652 0.404500 0.757266
4.299719 0.369821 0.755778
4.307386 0.371268 0.750251
4.321629 0.374946 0.769601
4.306648 0.371662 0.765001
4.291498 0.408899 0.754321
4.299165 0.410346 0.748794
4.313408 0.414024 0.768145
4.298426 0.410740 0.763545
4.292148 0.368358 0.761497
4.299821 0.369851 0.755972
4.306749 0.371692 0.765195
4.298884 0.370322 0.770269
4.283705 0.407372 0.759658
4.291378 0.408866 0.754133
4.298306 0.410706 0.763356
4.290441 0.409337 0.768430
4.298674 0.370281 0.770332
4.306539 0.371651 0.765259
4.321520 0.374935 0.769859
4.305424 0.372113 0.779106
4.290669 0.409383 0.768383
4.298534 0.410752 0.763309
4.313515 0.414036 0.767909
4.297419 0.411214 0.777156
4.305565 0.372152 0.779286
4.289468 0.369390 0.788532
4.290969 0.368827 0.775604
4.298815 0.370321 0.770513
4.297254 0.411171 0.776990
4.281157 0.408409 0.786236
4.282658 0.407845 0.773307
4.290504 0.409339 0.768216
4.298965 0.370345 0.770361
4.291120 0.368851 0.775452
4.284565 0.366993 0.767147
4.292230 0.368380 0.761590
4.290344 0.409312 0.768348
4.282499 0.407818 0.773439
4.275944 0.405960 0.765134
4.283608 0.407347 0.759577
4.291162 0.368871 0.775635
4.289661 0.369434 0.788564
4.276949 0.365520 0.772885
4.284607 0.367013 0.767330
4.282444 0.407796 0.773271
4.280943 0.408360 0.786199
4.268231 0.404446 0.770520
4.275889 0.405938 0.764965
