3.708941 0.145748 0.789152
3.713354 0.127575 0.777290
3.677872 0.119560 0.778118
3.676735 0.138267 0.789913
3.668020 0.186652 0.712369
3.669157 0.167945 0.700574
3.632826 0.166220 0.701558
3.635006 0.184877 0.713290
3.672625 0.137650 0.789988
3.673762 0.118943 0.778193
3.637431 0.117218 0.779177
3.639611 0.135875 0.790908
3.639013 0.184712 0.713157
3.636833 0.166055 0.701426
3.600756 0.170614 0.702639
3.606196 0.188697 0.714206
3.635535 0.136042 0.791043
3.633355 0.117385 0.779312
3.597278 0.121944 0.780525
3.602719 0.140027 0.792092
3.610212 0.187799 0.714044
3.604772 0.169717 0.702477
3.570045 0.180506 0.703729
3.578590 0.197415 0.715197
3.598635 0.140939 0.792256
3.593195 0.122856 0.780689
3.558468 0.133646 0.781941
3.567012 0.150554 0.793409
3.762263 0.304711 0.813394
3.768238 0.303083 0.788494
3.754225 0.275863 0.788266
3.748733 0.278620 0.813177
3.841498 0.263591 0.835256
3.847474 0.261963 0.810356
3.833460 0.234743 0.810128
3.827968 0.237500 0.835039
3.768193 0.302968 0.788443
3.774182 0.301336 0.763548
3.759681 0.272984 0.763306
3.754179 0.275748 0.788215
3.847531 0.262073 0.810357
3.853520 0.260441 0.785462
3.839019 0.232090 0.785220
3.833517 0.234854 0.810129
3.774132 0.301233 0.763536
3.780112 0.299604 0.738637
3.765126 0.270123 0.738386
3.759632 0.272882 0.763294
3.853580 0.260539 0.785425
3.859560 0.258910 0.760526
3.844575 0.229429 0.760274
3.839080 0.232188 0.785183
3.752835 0.285104 0.813207
3.758327 0.282347 0.788297
3.739803 0.257970 0.788265
3.734985 0.261757 0.813182
3.823834 0.230966 0.835008
3.829326 0.228209 0.810098
3.810802 0.203831 0.810066
3.805984 0.207618 0.834983
3.758261 0.282240 0.788247
3.763763 0.279476 0.763338
3.744565 0.254068 0.763305
3.739737 0.257863 0.788216
3.829402 0.228309 0.810097
3.834904 0.225545 0.785188
3.815706 0.200137 0.785154
3.810879 0.203932 0.810066
3.763696 0.279385 0.763329
3.769191 0.276626 0.738421
3.749317 0.250191 0.738380
3.744498 0.253977 0.763296
3.834981 0.225630 0.785147
3.840476 0.222871 0.760239
3.820601 0.196435 0.760198
3.815783 0.200222 0.785114
3.740153 0.267434 0.813162
3.744972 0.263647 0.788246
3.722498 0.242855 0.788415
3.718522 0.247539 0.813326
3.800776 0.201897 0.835003
3.805594 0.198110 0.810086
3.783120 0.177319 0.810256
3.779144 0.182002 0.835167
3.744887 0.263552 0.788196
3.749715 0.259757 0.763285
3.726399 0.238066 0.763456
3.722414 0.242760 0.788365
3.805687 0.198197 0.810086
3.810514 0.194402 0.785175
3.787199 0.172711 0.785347
3.783213 0.177405 0.810256
3.749631 0.259679 0.763283
3.754450 0.255892 0.738367
3.730291 0.233306 0.738545
3.726316 0.237988 0.763455
3.810607 0.194472 0.785127
3.815426 0.190686 0.760211
3.791266 0.168099 0.760388
3.787291 0.172781 0.785299
3.724597 0.252232 0.813258
3.728573 0.247549 0.788347
3.702833 0.230975 0.788709
3.699842 0.236395 0.813610
3.773022 0.177272 0.835235
3.776998 0.172589 0.810324
3.751258 0.156015 0.810686
3.748268 0.161435 0.835587
3.728476 0.247471 0.788297
3.732461 0.242777 0.763388
3.705734 0.225466 0.763763
3.702736 0.230897 0.788658
3.777102 0.172656 0.810325
3.781088 0.167962 0.785416
3.754360 0.150651 0.785791
3.751362 0.156082 0.810686
3.732364 0.242714 0.763388
3.736339 0.238032 0.738477
3.708629 0.219983 0.738862
3.705637 0.225403 0.763763
3.781192 0.168015 0.785366
3.785167 0.163333 0.760456
3.757456 0.145284 0.760841
3.754464 0.150704 0.785741
3.706635 0.239961 0.813497
3.709625 0.234542 0.788596
3.681402 0.222687 0.789141
3.679509 0.228659 0.814022
3.741422 0.157840 0.835701
3.744413 0.152420 0.810800
3.716190 0.140566 0.811345
3.714297 0.146538 0.836226
3.709519 0.234483 0.788547
3.712517 0.229052 0.763652
3.683193 0.216646 0.764214
3.681296 0.222629 0.789093
3.744524 0.152467 0.810798
3.747522 0.147036 0.785903
3.718198 0.134630 0.786464
3.716301 0.140613 0.811344
3.712416 0.229008 0.763648
3.715408 0.223588 0.738747
3.684985 0.210628 0.739330
3.683092 0.216601 0.764210
3.747629 0.147069 0.785857
3.750621 0.141649 0.760956
3.720198 0.128690 0.761539
3.718304 0.134663 0.786419
3.686817 0.230993 0.813868
3.688710 0.225021 0.788987
3.658860 0.218246 0.789697
3.658145 0.224570 0.814554
3.706933 0.144185 0.836382
3.708825 0.138214 0.811501
3.678976 0.131438 0.812211
3.678261 0.137762 0.837068
3.688595 0.224982 0.788940
3.690492 0.218999 0.764060
3.659463 0.211870 0.764798
3.658745 0.218207 0.789650
3.708943 0.138240 0.811498
3.710840 0.132257 0.786619
3.679811 0.125128 0.787357
3.679093 0.131465 0.812208
3.690385 0.218973 0.764056
3.692278 0.213000 0.739177
3.660072 0.205518 0.739937
3.659355 0.211844 0.764794
3.710950 0.132271 0.786574
3.712844 0.126298 0.761694
3.680637 0.118817 0.762455
3.679921 0.125142 0.787311
3.665750 0.225601 0.814363
3.666465 0.219277 0.789506
3.635897 0.217789 0.790363
3.636402 0.224254 0.815187
3.670597 0.136723 0.837261
3.671312 0.130399 0.812404
3.640744 0.128911 0.813260
3.641250 0.135376 0.838084
3.666343 0.219257 0.789453
3.667061 0.212920 0.764601
3.635269 0.211285 0.765489
3.635775 0.217769 0.790310
3.671434 0.130407 0.812406
3.672151 0.124070 0.787555
3.640359 0.122435 0.788442
3.640866 0.128919 0.813263
3.666949 0.212914 0.764604
3.667666 0.206589 0.739748
3.634652 0.204814 0.740668
3.635158 0.211280 0.765491
3.672262 0.124063 0.787502
3.672979 0.117738 0.762646
3.639966 0.115963 0.763567
3.640471 0.122429 0.788390
3.644076 0.223946 0.814956
3.643571 0.217481 0.790132
3.613212 0.221326 0.791107
3.614945 0.227726 0.815894
3.633516 0.135686 0.838317
3.633010 0.129222 0.813493
3.602652 0.133066 0.814468
3.604384 0.139466 0.839256
3.643443 0.217483 0.790080
3.642937 0.210999 0.765259
3.611349 0.214916 0.766273
3.613084 0.221327 0.791055
3.633136 0.129207 0.813495
3.632629 0.122724 0.788674
3.601041 0.126640 0.789688
3.602777 0.133052 0.814470
3.642825 0.211014 0.765265
3.642320 0.204548 0.740441
3.609503 0.208533 0.741491
3.611237 0.214930 0.766279
3.632739 0.122697 0.788618
3.632234 0.116231 0.763795
3.599417 0.120215 0.764844
3.601151 0.126613 0.789632
3.622439 0.226089 0.815631
3.620706 0.219690 0.790843
3.591480 0.228750 0.791910
3.594410 0.234870 0.816654
3.596832 0.141115 0.839521
3.595099 0.134715 0.814733
3.565873 0.143776 0.815799
3.568803 0.149896 0.840543
3.620581 0.219715 0.790800
3.618846 0.213303 0.766018
3.588420 0.222645 0.767124
3.591355 0.228775 0.791866
3.595219 0.134678 0.814727
3.593484 0.128266 0.789945
3.563058 0.137607 0.791051
3.565993 0.143738 0.815794
3.618730 0.213336 0.766015
3.616996 0.206939 0.741226
3.585374 0.216555 0.742379
3.588305 0.222678 0.767121
3.593594 0.128220 0.789899
3.591860 0.121823 0.765111
3.560238 0.131438 0.766263
3.563169 0.137562 0.791005
3.761463 0.304990 0.838377
3.761104 0.305281 0.826030
3.747574 0.279190 0.825813
3.747935 0.278900 0.838160
3.843011 0.262732 0.835004
3.842651 0.263023 0.822658
3.829122 0.236932 0.822440
3.829482 0.236642 0.834788
3.752211 0.285637 0.838193
3.751851 0.285927 0.825846
3.734000 0.262580 0.825820
3.734361 0.262290 0.838167
3.825175 0.229856 0.834755
3.824814 0.230146 0.822407
3.806964 0.206798 0.822381
3.807324 0.206509 0.834728
3.739743 0.268185 0.838146
3.739383 0.268474 0.825799
3.717751 0.248580 0.825964
3.718111 0.248290 0.838311
3.801902 0.200571 0.834749
3.801542 0.200860 0.822402
3.779911 0.180965 0.822567
3.780271 0.180676 0.834914
3.724433 0.253161 0.838242
3.724074 0.253450 0.825894
3.699319 0.237612 0.826246
3.699679 0.237322 0.838593
3.773902 0.175770 0.834984
3.773542 0.176059 0.822636
3.748788 0.160222 0.822988
3.749148 0.159932 0.835335
3.706748 0.241021 0.838471
3.706388 0.241311 0.826124
3.679263 0.230008 0.826650
3.679623 0.229720 0.838998
3.742026 0.156206 0.835458
3.741666 0.156496 0.823111
3.714541 0.145194 0.823636
3.714901 0.144906 0.835984
3.687221 0.232134 0.838834
3.686861 0.232422 0.826486
3.658189 0.225999 0.827172
3.658549 0.225708 0.839519
3.707248 0.142475 0.836149
3.706888 0.142763 0.823801
3.678216 0.136339 0.824488
3.678576 0.136049 0.836834
3.666461 0.226768 0.839313
3.666101 0.227058 0.826966
3.636753 0.225711 0.827790
3.637113 0.225423 0.840138
3.670607 0.134981 0.837041
3.670247 0.135272 0.824695
3.640899 0.133925 0.825518
3.641259 0.133637 0.837866
3.645095 0.225091 0.839898
3.644735 0.225379 0.827550
3.615603 0.229159 0.828488
3.615963 0.228868 0.840835
3.633219 0.133971 0.838108
3.632859 0.134259 0.825760
3.603727 0.138039 0.826698
3.604087 0.137748 0.839045
3.623757 0.227155 0.840568
3.623397 0.227446 0.828221
3.595368 0.236227 0.829244
3.595728 0.235939 0.841592
3.596237 0.139473 0.839314
3.595877 0.139764 0.826968
3.567848 0.148545 0.827990
3.568208 0.148257 0.840338
3.791883 0.259275 0.950034
3.772010 0.232841 0.949995
3.785660 0.218995 0.960595
3.807693 0.247950 0.960625
3.827151 0.232693 0.869432
3.807277 0.206259 0.869393
3.820927 0.192413 0.879993
3.842961 0.221368 0.880023
3.774730 0.235871 0.949978
3.750573 0.213283 0.950151
3.761659 0.197333 0.960785
3.788380 0.222025 0.960579
3.804510 0.203177 0.869409
3.780353 0.180589 0.869583
3.791440 0.164639 0.880216
3.818161 0.189331 0.880010
3.753785 0.215795 0.950111
3.726074 0.197748 0.950497
3.734270 0.180164 0.961178
3.764871 0.199845 0.960744
3.777087 0.178034 0.869624
3.749376 0.159986 0.870009
3.757571 0.142403 0.880691
3.788173 0.162084 0.880257
3.729674 0.199633 0.950447
3.699253 0.186673 0.951032
3.704322 0.167974 0.961757
3.737869 0.182049 0.961128
3.745716 0.158069 0.870060
3.715294 0.145109 0.870644
3.720364 0.126410 0.881370
3.753911 0.140485 0.880741
3.703164 0.187938 0.950946
3.670957 0.180458 0.951713
3.672754 0.161227 0.962545
3.708234 0.169239 0.961672
3.711317 0.143822 0.870731
3.679110 0.136342 0.871498
3.680907 0.117111 0.882331
3.716387 0.125123 0.881457
3.674990 0.181069 0.951577
3.641977 0.179293 0.952500
3.640458 0.160109 0.963458
3.676786 0.161838 0.962410
3.675009 0.135722 0.871635
3.641996 0.133946 0.872558
3.640478 0.114762 0.883516
3.676806 0.116491 0.882468
3.645987 0.179121 0.952395
3.613170 0.183105 0.953446
3.608389 0.164495 0.964455
3.644468 0.159937 0.963354
3.637917 0.134121 0.872664
3.605101 0.138105 0.873715
3.600320 0.119495 0.884724
3.636399 0.114937 0.883623
3.617188 0.182201 0.953334
3.585565 0.191815 0.954476
3.577681 0.174378 0.965619
3.612407 0.163591 0.964344
3.601016 0.139023 0.873828
3.569392 0.148638 0.874970
3.561508 0.131200 0.886113
3.596234 0.120414 0.884838
3.763355 0.303829 0.850881
3.749826 0.277739 0.850665
3.756758 0.273825 0.875057
3.770770 0.301047 0.875286
3.841127 0.263890 0.822537
3.827599 0.237800 0.822320
3.834530 0.233886 0.846712
3.848542 0.261108 0.846942
3.770725 0.300931 0.875328
3.756713 0.273708 0.875099
3.763651 0.269792 0.899488
3.778149 0.298143 0.899730
3.848601 0.261218 0.846949
3.834589 0.233996 0.846719
3.841526 0.230079 0.871109
3.856025 0.258430 0.871350
3.778101 0.298043 0.899736
3.763602 0.269691 0.899495
3.770530 0.265779 0.923888
3.785517 0.295261 0.924141
3.856088 0.258524 0.871392
3.841589 0.230173 0.871151
3.848517 0.226261 0.895543
3.863504 0.255743 0.895797
3.753931 0.284226 0.850699
3.736081 0.260880 0.850673
3.742337 0.255937 0.875061
3.760863 0.280313 0.875092
3.823462 0.231261 0.822285
3.805611 0.207915 0.822259
3.811867 0.202972 0.846647
3.830393 0.227348 0.846678
3.760797 0.280203 0.875135
3.742272 0.255827 0.875104
3.748537 0.250877 0.899488
3.767735 0.276286 0.899524
3.830472 0.227449 0.846683
3.811946 0.203073 0.846652
3.818212 0.198122 0.871036
3.837409 0.223532 0.871072
3.767665 0.276195 0.899524
3.748468 0.250785 0.899487
3.754720 0.245848 0.923877
3.774593 0.272283 0.923917
3.837491 0.223614 0.871122
3.818294 0.198205 0.871085
3.824546 0.193268 0.895475
3.844419 0.219702 0.895514
3.741247 0.266554 0.850657
3.719616 0.246660 0.850822
3.725031 0.240820 0.875213
3.747504 0.261612 0.875045
3.800404 0.202196 0.822275
3.778772 0.182301 0.822440
3.784187 0.176461 0.846831
3.806661 0.197253 0.846663
3.747423 0.261516 0.875093
3.724950 0.240724 0.875260
3.730372 0.234876 0.899648
3.753688 0.256565 0.899476
3.806753 0.197338 0.846664
3.784280 0.176546 0.846832
3.789702 0.170698 0.871219
3.813019 0.192387 0.871048
3.753602 0.256487 0.899471
3.730285 0.234798 0.899642
3.735696 0.228962 0.924034
3.759853 0.251550 0.923861
3.813117 0.192455 0.871102
3.789801 0.170765 0.871273
3.795212 0.164930 0.895665
3.819369 0.187518 0.895492
3.725690 0.251354 0.850755
3.700936 0.235515 0.851106
3.705365 0.228941 0.875508
3.731106 0.245514 0.875145
3.772650 0.177570 0.822508
3.747896 0.161732 0.822859
3.752324 0.155157 0.847262
3.778065 0.171730 0.846899
3.731011 0.245433 0.875197
3.705270 0.228860 0.875561
3.709706 0.222272 0.899958
3.736433 0.239585 0.899585
3.778170 0.171799 0.846896
3.752429 0.155226 0.847259
3.756866 0.148637 0.871656
3.783592 0.165950 0.871283
3.736334 0.239524 0.899579
3.709608 0.222211 0.899952
3.714035 0.215641 0.924356
3.741745 0.233689 0.923971
3.783700 0.165999 0.871337
3.756974 0.148686 0.871710
3.761401 0.142116 0.896115
3.789112 0.160164 0.895729
3.707729 0.239082 0.850990
3.680604 0.227782 0.851517
3.683934 0.220652 0.875939
3.712157 0.232507 0.875393
3.741050 0.158138 0.822975
3.713925 0.146838 0.823502
3.717256 0.139708 0.847923
3.745479 0.151563 0.847378
3.712055 0.232447 0.875444
3.683831 0.220592 0.875989
3.687166 0.213454 0.900408
3.716491 0.225859 0.899841
3.745590 0.151610 0.847376
3.717366 0.139754 0.847922
3.720701 0.132617 0.872341
3.750026 0.145021 0.871773
3.716388 0.225816 0.899840
3.687063 0.213412 0.900407
3.690394 0.206287 0.924829
3.720815 0.219247 0.924244
3.750136 0.145050 0.871823
3.720811 0.132646 0.872390
3.724142 0.125520 0.896812
3.754563 0.138480 0.896228
3.687909 0.230116 0.851354
3.659237 0.223689 0.852039
3.661390 0.216211 0.876489
3.691240 0.222986 0.875776
3.706563 0.144486 0.823666
3.677891 0.138059 0.824351
3.680044 0.130582 0.848801
3.709893 0.137356 0.848088
3.691129 0.222945 0.875826
3.661280 0.216171 0.876539
3.663434 0.208678 0.900983
3.694463 0.215808 0.900245
3.710010 0.137382 0.848086
3.680160 0.130607 0.848799
3.682315 0.123114 0.873244
3.713344 0.130244 0.872505
3.694356 0.215783 0.900248
3.663327 0.208653 0.900986
3.665480 0.201177 0.925436
3.697687 0.208658 0.924669
3.713457 0.130255 0.872551
3.682428 0.123125 0.873290
3.684581 0.115649 0.897739
3.716788 0.123129 0.896973
3.666844 0.224721 0.851834
3.637496 0.223377 0.852659
3.638428 0.215755 0.877141
3.668997 0.217243 0.876284
3.670226 0.137020 0.824557
3.640878 0.135675 0.825382
3.641810 0.128053 0.849863
3.672378 0.129542 0.849007
3.668877 0.217221 0.876342
3.638308 0.215732 0.877199
3.639239 0.208094 0.901676
3.671032 0.209728 0.900786
3.672501 0.129549 0.848998
3.641932 0.128061 0.849854
3.642864 0.120423 0.874332
3.674656 0.122056 0.873442
3.670920 0.209724 0.900782
3.639128 0.208090 0.901672
3.640061 0.200473 0.926155
3.673074 0.202248 0.925232
3.674770 0.122045 0.873495
3.642978 0.120411 0.874385
3.643911 0.112794 0.898868
3.676923 0.114569 0.897945
3.645167 0.223069 0.852429
3.616035 0.226846 0.853366
3.615739 0.219292 0.877885
3.646098 0.215447 0.876910
3.633147 0.135985 0.825614
3.604016 0.139762 0.826552
3.603720 0.132208 0.851071
3.634079 0.128363 0.850096
3.645977 0.215446 0.876967
3.615618 0.219291 0.877942
3.615320 0.211725 0.902456
3.646908 0.207808 0.901444
3.634202 0.128349 0.850088
3.603843 0.132194 0.851064
3.603545 0.124627 0.875578
3.635133 0.120711 0.874566
3.646795 0.207824 0.901441
3.615207 0.211741 0.902453
3.614911 0.204191 0.926974
3.647728 0.200207 0.925924
3.635246 0.120679 0.874618
3.603659 0.124596 0.875630
3.603363 0.117046 0.900151
3.636179 0.113062 0.899101
3.623533 0.225208 0.853116
3.595504 0.233992 0.854140
3.594011 0.226713 0.878698
3.623237 0.217654 0.877635
3.596460 0.141412 0.826804
3.568431 0.150196 0.827827
3.566938 0.142917 0.852386
3.596164 0.133858 0.851323
3.623112 0.217679 0.877685
3.593886 0.226738 0.878748
3.592389 0.219453 0.903304
3.622815 0.210112 0.902199
3.596287 0.133819 0.851323
3.567061 0.142878 0.852386
3.565564 0.135593 0.876942
3.595990 0.126252 0.875837
3.622700 0.210147 0.902207
3.592274 0.219487 0.903312
3.590781 0.212211 0.927870
3.622404 0.202597 0.926728
3.596103 0.126203 0.875879
3.565677 0.135544 0.876984
3.564184 0.128267 0.901541
3.595807 0.118653 0.900399
3.804708 0.285302 0.950273
3.789722 0.255820 0.950020
3.805531 0.244494 0.960611
3.822204 0.276830 0.960881
3.844336 0.265689 0.869700
3.829349 0.236207 0.869446
3.845159 0.224882 0.880038
3.861832 0.257218 0.880308
3.582376 0.195906 0.715068
3.573831 0.178997 0.703600
3.541510 0.195657 0.704923
3.552909 0.210875 0.716276
3.563162 0.152089 0.793541
3.554618 0.135181 0.782073
3.522296 0.151840 0.783396
3.533695 0.167058 0.794749
3.556339 0.208716 0.716122
3.544940 0.193499 0.704769
3.515999 0.215510 0.706145
3.529923 0.228578 0.717360
3.530207 0.169253 0.794906
3.518808 0.154035 0.783553
3.489867 0.176046 0.784929
3.503791 0.189114 0.796143
3.532954 0.225827 0.717202
3.519030 0.212760 0.705988
3.494365 0.239475 0.707323
3.510391 0.249978 0.718424
3.500709 0.191911 0.796303
3.486785 0.178843 0.785089
3.462120 0.205558 0.786424
3.478146 0.216062 0.797525
3.512872 0.246779 0.718273
3.496845 0.236276 0.707172
3.477183 0.266863 0.708478
3.494847 0.274483 0.719449
3.475623 0.219315 0.797679
3.459597 0.208812 0.786578
3.439934 0.239400 0.787885
3.457598 0.247020 0.798855
3.496744 0.270868 0.719300
3.479080 0.263248 0.708330
3.465039 0.296793 0.709522
3.483803 0.301284 0.720390
3.455669 0.250696 0.799006
3.438005 0.243076 0.788035
3.423963 0.276621 0.789228
3.442728 0.281112 0.800095
3.485055 0.297415 0.720265
3.466290 0.292924 0.709398
3.458286 0.328404 0.710461
3.477594 0.329620 0.721238
3.441455 0.285047 0.800222
3.422690 0.280556 0.789355
3.414686 0.316036 0.790419
3.433994 0.317252 0.801195
3.478145 0.325593 0.721124
3.458837 0.324377 0.710347
3.457112 0.360710 0.711255
3.476390 0.358609 0.721948
3.433433 0.321347 0.801311
3.414125 0.320131 0.790534
3.412400 0.356465 0.791442
3.431678 0.354363 0.802134
3.476238 0.354534 0.721857
3.456960 0.356635 0.711164
3.461577 0.392721 0.711867
3.480242 0.387357 0.722509
3.431833 0.358508 0.802227
3.412554 0.360609 0.791535
3.417171 0.396695 0.792238
3.435836 0.391331 0.802879
3.479394 0.383385 0.722444
3.460729 0.388749 0.711802
3.471535 0.423489 0.712304
3.489035 0.415018 0.722904
3.436699 0.395371 0.802946
3.418033 0.400735 0.792304
3.428839 0.435475 0.792806
3.446340 0.427003 0.803406
3.601503 0.231959 0.816375
3.598573 0.225839 0.791631
3.571367 0.239837 0.792752
3.575427 0.245473 0.817453
3.561654 0.152830 0.840824
3.558724 0.146710 0.816080
3.531518 0.160708 0.817201
3.535578 0.166344 0.841902
3.598452 0.225885 0.791585
3.595517 0.219755 0.766843
3.567178 0.234234 0.768012
3.571245 0.239884 0.792706
3.558839 0.146651 0.816076
3.555904 0.140521 0.791334
3.527565 0.155000 0.792503
3.531633 0.160649 0.817198
3.595415 0.219806 0.766843
3.592484 0.213683 0.742102
3.563017 0.228651 0.743310
3.567076 0.234285 0.768012
3.555999 0.140458 0.791284
3.553068 0.134335 0.766543
3.523601 0.149303 0.767751
3.527660 0.154937 0.792453
3.581907 0.241374 0.817166
3.577847 0.235738 0.792465
3.553487 0.254249 0.793610
3.558575 0.259212 0.818263
3.529047 0.170475 0.842191
3.524987 0.164839 0.817490
3.500627 0.183350 0.818636
3.505715 0.188313 0.843289
3.577741 0.235801 0.792419
3.573673 0.230151 0.767725
3.548285 0.249340 0.768913
3.553381 0.254312 0.793564
3.525085 0.164765 0.817487
3.521017 0.159116 0.792793
3.495629 0.178305 0.793981
3.500725 0.183276 0.818632
3.573584 0.230219 0.767730
3.569525 0.224585 0.743029
3.543109 0.244446 0.744266
3.548196 0.249408 0.768918
3.521097 0.159037 0.792738
3.517038 0.153403 0.768036
3.490622 0.173265 0.769273
3.495709 0.178226 0.793926
3.564249 0.254047 0.817979
3.559161 0.249083 0.793325
3.538391 0.271548 0.794456
3.544372 0.275668 0.819065
3.499998 0.193519 0.843576
3.494909 0.188556 0.818923
3.474139 0.211021 0.820053
3.480120 0.215140 0.844662
3.559068 0.249163 0.793282
3.553972 0.244191 0.768630
3.532306 0.267501 0.769808
3.538298 0.271628 0.794412
3.494991 0.188467 0.818917
3.489895 0.183495 0.794266
3.468229 0.206805 0.795444
3.474221 0.210932 0.820048
3.553893 0.244274 0.768629
3.548807 0.239313 0.743977
3.526244 0.263464 0.745199
3.532227 0.267584 0.769807
3.489963 0.183403 0.794217
3.484877 0.178442 0.769565
3.462314 0.202592 0.770787
3.468297 0.206713 0.795396
3.549060 0.269597 0.818789
3.543079 0.265478 0.794179
3.526526 0.291211 0.795265
3.533242 0.294345 0.819829
3.475395 0.221258 0.844941
3.469414 0.217139 0.820332
3.452861 0.242872 0.821418
3.459578 0.246006 0.845981
3.542999 0.265574 0.794134
3.537008 0.261447 0.769530
3.519719 0.288167 0.770659
3.526446 0.291307 0.795220
3.469481 0.217035 0.820328
3.463490 0.212908 0.795724
3.446201 0.239627 0.796853
3.452928 0.242768 0.821414
3.536943 0.261542 0.769525
3.530960 0.257421 0.744917
3.512935 0.285126 0.746093
3.519654 0.288261 0.770654
3.463541 0.212806 0.795680
3.457558 0.208686 0.771071
3.439533 0.236390 0.772247
3.446252 0.239525 0.796809
3.536803 0.287553 0.819565
3.530086 0.284419 0.795001
3.518253 0.312638 0.796007
3.525522 0.314676 0.820530
3.455989 0.252850 0.846247
3.449273 0.249716 0.821684
3.437439 0.277935 0.822689
3.444709 0.279973 0.847212
3.530024 0.284529 0.794957
3.523297 0.281388 0.770396
3.510910 0.310707 0.771445
3.518191 0.312748 0.795962
3.449321 0.249602 0.821680
3.442593 0.246461 0.797119
3.430206 0.275780 0.798168
3.437487 0.277821 0.822685
3.523250 0.281492 0.770389
3.516530 0.278356 0.745827
3.503590 0.308773 0.746917
3.510862 0.310811 0.771438
3.442627 0.246352 0.797076
3.435907 0.243216 0.772514
3.422967 0.273632 0.773604
3.430239 0.275670 0.798125
3.527850 0.307367 0.820290
3.520581 0.305330 0.795767
3.513826 0.335179 0.796664
3.521450 0.336039 0.821148
3.442363 0.287338 0.847454
3.435094 0.285300 0.822931
3.428340 0.315149 0.823828
3.435963 0.316010 0.848312
3.520538 0.305448 0.795722
3.513257 0.303407 0.771204
3.506148 0.334435 0.772138
3.513784 0.335297 0.796619
3.435121 0.285179 0.822928
3.427840 0.283138 0.798410
3.420731 0.314166 0.799344
3.428367 0.315028 0.823824
3.513229 0.303517 0.771199
3.505956 0.301479 0.746678
3.498495 0.333684 0.747650
3.506120 0.334545 0.772133
3.427853 0.283026 0.798367
3.420580 0.280988 0.773845
3.413119 0.313193 0.774818
3.420744 0.314053 0.799300
3.522474 0.328436 0.820940
3.514850 0.327576 0.796456
3.513382 0.358148 0.797214
3.521148 0.357788 0.821666
3.434932 0.323672 0.848521
3.427308 0.322812 0.824037
3.425840 0.353383 0.824795
3.433606 0.353024 0.849247
3.514829 0.327697 0.796412
3.507194 0.326834 0.771931
3.505584 0.358629 0.772723
3.513361 0.358268 0.797170
3.427313 0.322691 0.824033
3.419677 0.321828 0.799552
3.418067 0.353623 0.800344
3.425845 0.353262 0.824791
3.507185 0.326947 0.771924
3.499559 0.326086 0.747441
3.497805 0.359102 0.748265
3.505575 0.358741 0.772715
3.419671 0.321715 0.799511
3.412046 0.320855 0.775028
3.410291 0.353871 0.775852
3.418061 0.353510 0.800302
3.520836 0.350118 0.821496
3.513070 0.350477 0.797045
3.516933 0.380843 0.797643
3.524630 0.379255 0.822067
3.433921 0.360754 0.849418
3.426154 0.361113 0.824967
3.430018 0.391479 0.825565
3.437715 0.389891 0.849990
3.513071 0.350603 0.797000
3.505293 0.350964 0.772553
3.509226 0.382559 0.773178
3.516934 0.380969 0.797599
3.426138 0.360990 0.824962
3.418360 0.361351 0.800515
3.422294 0.392946 0.801140
3.430001 0.391356 0.825561
3.505303 0.351077 0.772543
3.497533 0.351438 0.748093
3.501537 0.384261 0.748745
3.509237 0.382672 0.773168
3.418335 0.361239 0.800476
3.410564 0.361599 0.776026
3.414568 0.394422 0.776678
3.422268 0.392834 0.801101
3.522989 0.371756 0.821935
3.515292 0.373344 0.797511
3.524369 0.402581 0.797931
3.531787 0.399795 0.822335
3.439368 0.397448 0.850123
3.431672 0.399037 0.825699
3.440748 0.428273 0.826119
3.448167 0.425487 0.850523
3.515317 0.373471 0.797468
3.507609 0.375061 0.773047
3.516966 0.405497 0.773489
3.524393 0.402708 0.797889
3.431632 0.398915 0.825693
3.423924 0.400504 0.801272
3.433282 0.430941 0.801713
3.440709 0.428151 0.826113
3.507639 0.375170 0.773040
3.499940 0.376759 0.748617
3.509581 0.408392 0.749077
3.516997 0.405607 0.773481
3.423879 0.400399 0.801230
3.416179 0.401987 0.776807
3.425820 0.433620 0.777268
3.433236 0.430835 0.801671
3.603095 0.232903 0.841304
3.602735 0.233192 0.828956
3.576658 0.246706 0.830034
3.577018 0.246416 0.842381
3.560786 0.151315 0.840628
3.560426 0.151603 0.828280
3.534350 0.165118 0.829358
3.534710 0.164828 0.841705
3.583752 0.242143 0.842087
3.583392 0.242433 0.829740
3.560060 0.260271 0.830838
3.560420 0.259981 0.843185
3.527927 0.169132 0.842001
3.527567 0.169422 0.829654
3.504236 0.187260 0.830751
3.504595 0.186970 0.843099
3.566309 0.254604 0.842886
3.565949 0.254893 0.830539
3.546072 0.276514 0.831625
3.546432 0.276224 0.843972
3.498663 0.192387 0.843400
3.498303 0.192677 0.831053
3.478426 0.214298 0.832139
3.478786 0.214008 0.844486
3.551298 0.269903 0.843684
3.550938 0.270193 0.831337
3.535120 0.294941 0.832377
3.535480 0.294650 0.844724
3.473885 0.220376 0.844777
3.473524 0.220665 0.832430
3.457706 0.245413 0.833470
3.458066 0.245123 0.845818
3.539173 0.287582 0.844453
3.538813 0.287872 0.832105
3.527533 0.314994 0.833071
3.527892 0.314703 0.845417
3.454346 0.252243 0.846091
3.453986 0.252534 0.833743
3.442706 0.279656 0.834709
3.443066 0.279365 0.847055
3.530302 0.307100 0.845165
3.529942 0.307391 0.832818
3.523542 0.336063 0.833676
3.523903 0.335775 0.846024
3.440639 0.287024 0.847309
3.440279 0.287315 0.834963
3.433879 0.315987 0.835820
3.434240 0.315699 0.848168
3.524955 0.327870 0.845807
3.524594 0.328158 0.833459
3.523269 0.357510 0.834185
3.523629 0.357220 0.846532
3.433180 0.323661 0.848386
3.432819 0.323949 0.836039
3.431494 0.353301 0.836765
3.431854 0.353011 0.849112
3.523293 0.349243 0.846356
3.522932 0.349533 0.834009
3.526726 0.378670 0.834580
3.527086 0.378382 0.846927
3.432193 0.361047 0.849289
3.431833 0.361337 0.836943
3.435627 0.390474 0.837514
3.435987 0.390186 0.849861
3.525368 0.370582 0.846793
3.525008 0.370871 0.834445
3.533806 0.398910 0.834846
3.534168 0.398619 0.847193
3.437717 0.398043 0.849997
3.437357 0.398331 0.837649
3.446155 0.426370 0.838049
3.446517 0.426080 0.850397
3.563326 0.203126 0.955370
3.536911 0.222988 0.956605
3.523649 0.209395 0.967994
3.552590 0.187383 0.966654
3.532577 0.167326 0.876504
3.506162 0.187188 0.877738
3.492900 0.173595 0.889128
3.521841 0.151583 0.887788
3.539938 0.220231 0.956462
3.517376 0.244383 0.957687
3.502010 0.233350 0.969201
3.526675 0.206638 0.967851
3.503084 0.189991 0.877884
3.480523 0.214143 0.879109
3.465157 0.203110 0.890624
3.489822 0.176398 0.889274
3.519869 0.241175 0.957540
3.501845 0.268878 0.958715
3.484846 0.260734 0.970338
3.504503 0.230142 0.969055
3.477988 0.217406 0.879258
3.459965 0.245110 0.880433
3.442965 0.236966 0.892056
3.462622 0.206373 0.890773
3.503738 0.265276 0.958583
3.490798 0.295693 0.959672
3.472694 0.290673 0.971395
3.486739 0.257132 0.970206
3.458039 0.248773 0.880567
3.445099 0.279191 0.881657
3.426995 0.274170 0.893380
3.441040 0.240629 0.892191
3.492047 0.291812 0.959546
3.484586 0.324015 0.960518
3.465939 0.322271 0.972337
3.473943 0.286791 0.971270
3.443829 0.283138 0.881784
3.436369 0.315341 0.882756
3.417722 0.313597 0.894575
3.425725 0.278117 0.893508
3.485142 0.319988 0.960408
3.483386 0.353005 0.961232
3.464771 0.354575 0.973124
3.466495 0.318244 0.972227
3.435804 0.319437 0.882868
3.434047 0.352453 0.883692
3.415433 0.354023 0.895584
3.417157 0.317692 0.894687
3.483238 0.348930 0.961139
3.487240 0.381751 0.961790
3.469238 0.386586 0.973748
3.464623 0.350500 0.973031
3.434198 0.356598 0.883787
3.438200 0.389419 0.884438
3.420198 0.394253 0.896396
3.415583 0.358168 0.895679
3.486391 0.377775 0.961719
3.496031 0.409409 0.962178
3.479193 0.417348 0.974171
3.468388 0.382610 0.973677
3.439065 0.393462 0.884510
3.448705 0.425097 0.884969
3.431867 0.433036 0.896962
3.421062 0.398297 0.896468
3.602596 0.231081 0.853869
3.576519 0.244594 0.854946
3.573897 0.237802 0.879549
3.601103 0.223802 0.878428
3.561284 0.153130 0.828100
3.535207 0.166643 0.829177
3.532585 0.159851 0.853781
3.559791 0.145851 0.852659
3.600985 0.223847 0.878481
3.573779 0.237846 0.879603
3.571147 0.231040 0.904201
3.599487 0.216562 0.903038
3.559905 0.145792 0.852655
3.532699 0.159792 0.853776
3.530067 0.152986 0.878374
3.558407 0.138507 0.877211
3.599386 0.216615 0.903039
3.571046 0.231093 0.904202
3.568427 0.224307 0.928808
3.597893 0.209338 0.927596
3.558505 0.138441 0.877259
3.530165 0.152919 0.878422
3.527546 0.146133 0.903028
3.557012 0.131164 0.901817
3.582999 0.240495 0.854661
3.559668 0.258333 0.855760
3.556016 0.252214 0.880408
3.580377 0.233703 0.879265
3.528676 0.170773 0.829464
3.505345 0.188611 0.830562
3.501694 0.182491 0.855210
3.526054 0.163981 0.854067
3.580275 0.233763 0.879319
3.555914 0.252273 0.880462
3.552257 0.246147 0.905109
3.577643 0.226957 0.903917
3.526150 0.163908 0.854062
3.501790 0.182419 0.855205
3.498132 0.176293 0.879852
3.523518 0.157102 0.878660
3.577556 0.227026 0.903913
3.552169 0.246216 0.905105
3.548522 0.240101 0.929754
3.574937 0.220240 0.928520
3.523600 0.157021 0.878712
3.498213 0.176211 0.879904
3.494566 0.170096 0.904553
3.520981 0.150234 0.903319
3.565342 0.253167 0.855473
3.545465 0.274788 0.856559
3.540920 0.269513 0.881254
3.561690 0.247048 0.880121
3.499627 0.193817 0.830851
3.479750 0.215438 0.831937
3.475205 0.210163 0.856633
3.495975 0.187698 0.855500
3.561600 0.247127 0.880171
3.540829 0.269592 0.881304
3.536275 0.264310 0.905995
3.557942 0.241001 0.904817
3.496058 0.187607 0.855499
3.475287 0.210072 0.856632
3.470733 0.204790 0.881323
3.492400 0.181481 0.880145
3.557866 0.241084 0.904820
3.536199 0.264392 0.905998
3.531657 0.259121 0.930694
3.554219 0.234968 0.929469
3.492469 0.181387 0.880192
3.470801 0.204695 0.881369
3.466260 0.199424 0.906066
3.488821 0.175271 0.904841
3.550152 0.268719 0.856278
3.534333 0.293467 0.857318
3.529053 0.289176 0.882058
3.545607 0.263444 0.880973
3.475027 0.221554 0.832220
3.459208 0.246302 0.833261
3.453928 0.242011 0.858000
3.470482 0.216279 0.856916
3.545532 0.263538 0.881023
3.528978 0.289270 0.882108
3.523689 0.284976 0.906845
3.540977 0.258255 0.905714
3.470547 0.216176 0.856915
3.453993 0.241908 0.858000
3.448704 0.237615 0.882737
3.465993 0.210893 0.881606
3.540917 0.258349 0.905718
3.523628 0.285070 0.906849
3.518352 0.280781 0.931589
3.536375 0.253077 0.930414
3.466044 0.210790 0.881651
3.448755 0.237511 0.882782
3.443479 0.233221 0.907522
3.461502 0.205518 0.906348
3.537896 0.286672 0.857054
3.526616 0.313794 0.858018
3.520784 0.310603 0.882800
3.532616 0.282382 0.881794
3.455617 0.253149 0.833527
3.444337 0.280271 0.834491
3.438505 0.277080 0.859273
3.450337 0.248859 0.858267
3.532558 0.282488 0.881843
3.520726 0.310709 0.882849
3.514885 0.307513 0.907628
3.527269 0.278194 0.906580
3.450383 0.248745 0.858267
3.438551 0.276967 0.859273
3.432710 0.273770 0.884052
3.445094 0.244452 0.883004
3.527223 0.278299 0.906588
3.514839 0.307618 0.907636
3.509007 0.304428 0.932418
3.521947 0.274010 0.931328
3.445129 0.244339 0.883045
3.432745 0.273657 0.884093
3.426913 0.270467 0.908874
3.439853 0.240049 0.907785
3.528944 0.306485 0.857778
3.522545 0.335160 0.858637
3.516360 0.333142 0.883456
3.523112 0.303294 0.882560
3.441991 0.287637 0.834733
3.435592 0.316311 0.835592
3.429407 0.314294 0.860411
3.436159 0.284446 0.859515
3.523073 0.303411 0.882611
3.516321 0.333259 0.883507
3.510124 0.331244 0.908323
3.517231 0.300214 0.907389
3.436186 0.284324 0.859514
3.429434 0.314172 0.860410
3.423237 0.312157 0.885226
3.430345 0.281128 0.884292
3.517204 0.300325 0.907399
3.510097 0.331354 0.908333
3.503912 0.329338 0.933152
3.511373 0.297134 0.932180
3.430360 0.281012 0.884332
3.423252 0.312041 0.885266
3.417067 0.310025 0.910085
3.424528 0.277821 0.909114
3.523568 0.327562 0.858429
3.522242 0.356911 0.859154
3.515913 0.356118 0.884006
3.517383 0.325544 0.883248
3.434561 0.323968 0.835802
3.433235 0.353318 0.836527
3.426906 0.352525 0.861379
3.428376 0.321951 0.860621
3.517365 0.325663 0.883298
3.515895 0.356237 0.884057
3.509556 0.355441 0.908906
3.511168 0.323648 0.908114
3.428382 0.321829 0.860620
3.426911 0.352403 0.861379
3.420572 0.351607 0.886228
3.422184 0.319814 0.885437
3.511161 0.323760 0.908123
3.509549 0.355553 0.908915
3.503220 0.354760 0.933767
3.504976 0.321743 0.932942
3.422179 0.319700 0.885477
3.420567 0.351493 0.886269
3.414238 0.350700 0.911121
3.415995 0.317683 0.910297
3.521929 0.349239 0.858985
3.525723 0.378378 0.859557
3.519463 0.378810 0.884435
3.515600 0.348446 0.883837
3.433550 0.361050 0.836697
3.437344 0.390189 0.837269
3.431084 0.390621 0.862147
3.427221 0.360256 0.861550
3.515604 0.348572 0.883886
3.519467 0.378936 0.884484
3.513195 0.379373 0.909360
3.509266 0.347776 0.908735
3.427204 0.360130 0.861551
3.431067 0.390495 0.862148
3.424795 0.390932 0.887024
3.420865 0.359335 0.886400
3.509279 0.347890 0.908742
3.513208 0.379487 0.909366
3.506952 0.379918 0.934245
3.502950 0.347097 0.933594
3.420840 0.359221 0.886443
3.424770 0.390818 0.887067
3.418513 0.391249 0.911946
3.414511 0.358428 0.911295
3.524082 0.370877 0.859433
3.532881 0.398914 0.859833
3.526899 0.400546 0.884731
3.517822 0.371309 0.884312
3.438998 0.397749 0.837393
3.447797 0.425786 0.837793
3.441816 0.427419 0.862692
3.432738 0.398181 0.862272
3.517848 0.371433 0.884360
3.526926 0.400671 0.884780
3.520935 0.402306 0.909675
3.511576 0.371871 0.909236
3.432699 0.398058 0.862273
3.441777 0.427296 0.862693
3.435786 0.428931 0.887587
3.426427 0.398496 0.887148
3.511611 0.371981 0.909235
3.520969 0.402416 0.909674
3.514995 0.404046 0.934573
3.505354 0.372412 0.934114
3.426381 0.398388 0.887199
3.435739 0.428823 0.887638
3.429764 0.430453 0.912537
3.420124 0.398818 0.912078
3.589363 0.190308 0.954310
3.559898 0.205276 0.955522
3.549162 0.189533 0.966805
3.581479 0.172870 0.965453
3.565530 0.150171 0.875139
3.536064 0.165140 0.876350
3.525328 0.149396 0.887634
3.557646 0.132734 0.886282
3.487503 0.411238 0.722863
3.470003 0.419709 0.712263
3.486680 0.452048 0.712527
3.502489 0.440719 0.723117
3.447898 0.430848 0.803448
3.430397 0.439319 0.792848
3.447075 0.471658 0.793112
3.462884 0.460329 0.803702
3.500332 0.437272 0.723102
3.484523 0.448601 0.712513
3.506557 0.477556 0.712550
3.520209 0.463705 0.723142
3.465078 0.463834 0.803717
3.449269 0.475164 0.793127
3.471303 0.504119 0.793165
3.484955 0.490268 0.803756
3.517475 0.460681 0.723151
3.503823 0.474532 0.712559
3.530550 0.499222 0.712355
3.541637 0.483263 0.722974
3.487735 0.493344 0.803747
3.474083 0.507195 0.793156
3.500810 0.531885 0.792952
3.511897 0.515926 0.803571
3.538424 0.480755 0.723013
3.527337 0.496715 0.712394
3.557940 0.516390 0.711957
3.566138 0.498800 0.722626
3.515164 0.518475 0.803532
3.504077 0.534435 0.792913
3.534680 0.554110 0.792476
3.542878 0.536520 0.803144
3.562544 0.496891 0.722689
3.554346 0.514481 0.712021
3.587896 0.528546 0.711370
3.592965 0.509852 0.722105
3.546534 0.538462 0.803080
3.538336 0.556051 0.792411
3.571886 0.570117 0.791760
3.576955 0.551423 0.802496
3.589090 0.508599 0.722190
3.584021 0.527293 0.711454
3.619498 0.535320 0.710607
3.621296 0.516081 0.721425
3.580896 0.552697 0.802410
3.575827 0.571391 0.791674
3.611304 0.579419 0.790827
3.613101 0.560179 0.801645
3.617260 0.515518 0.721531
3.615463 0.534757 0.710713
3.651791 0.536502 0.709691
3.650272 0.517295 0.720610
3.617205 0.560752 0.801537
3.615408 0.579991 0.790719
3.651736 0.581736 0.789697
3.650217 0.562530 0.800616
3.646206 0.517441 0.720734
3.647725 0.536647 0.709815
3.683801 0.532059 0.708657
3.679022 0.513459 0.719684
3.654352 0.562382 0.800490
3.655871 0.581588 0.789571
3.691947 0.577000 0.788413
3.687168 0.558400 0.799440
3.675045 0.514317 0.719816
3.679825 0.532917 0.708789
3.714552 0.522137 0.707530
3.706667 0.504697 0.718670
3.691212 0.557528 0.799306
3.695991 0.576128 0.788279
3.730719 0.565347 0.787020
3.722833 0.547907 0.798160
3.528870 0.392696 0.822250
3.521452 0.395483 0.797846
3.535467 0.422702 0.798075
3.542400 0.418785 0.822466
3.451106 0.432641 0.850609
3.443688 0.435427 0.826205
3.457703 0.462647 0.826434
3.464636 0.458730 0.850825
3.521496 0.395600 0.797803
3.514070 0.398390 0.773403
3.528570 0.426742 0.773644
3.535512 0.422820 0.798032
3.443629 0.435316 0.826200
3.436202 0.438106 0.801799
3.450702 0.466458 0.802041
3.457644 0.462536 0.826429
3.514121 0.398492 0.773400
3.506705 0.401277 0.748996
3.521691 0.430758 0.749250
3.528621 0.426844 0.773642
3.436137 0.438010 0.801753
3.428720 0.440795 0.777349
3.443707 0.470276 0.777603
3.450637 0.466362 0.801995
3.538297 0.412300 0.822435
3.531364 0.416216 0.798044
3.549891 0.440591 0.798074
3.556148 0.435647 0.822461
3.468771 0.465266 0.850857
3.461838 0.469183 0.826466
3.480365 0.493557 0.826496
3.486622 0.488613 0.850883
3.531426 0.416323 0.797997
3.524484 0.420245 0.773609
3.543686 0.445649 0.773644
3.549952 0.440697 0.798027
3.461764 0.469085 0.826464
3.454821 0.473007 0.802076
3.474024 0.498412 0.802111
3.480290 0.493460 0.826494
3.524552 0.420336 0.773608
3.517622 0.424250 0.749216
3.537498 0.450684 0.749256
3.543754 0.445740 0.773643
3.454740 0.472925 0.802029
3.447810 0.476839 0.777637
3.467686 0.503272 0.777677
3.473942 0.498329 0.802064
3.550982 0.429971 0.822481
3.544725 0.434915 0.798094
3.567200 0.455705 0.797925
3.572614 0.449866 0.822317
3.491829 0.494333 0.850863
3.485571 0.499277 0.826476
3.508046 0.520066 0.826307
3.513460 0.514228 0.850698
3.544803 0.435009 0.798045
3.538536 0.439960 0.773662
3.561857 0.461647 0.773489
3.567278 0.455798 0.797876
3.485482 0.499194 0.826476
3.479215 0.504146 0.802093
3.502536 0.525833 0.801920
3.507957 0.519984 0.826307
3.538618 0.440038 0.773658
3.532362 0.444982 0.749271
3.556525 0.467564 0.749095
3.561939 0.461725 0.773485
3.479122 0.504079 0.802049
3.472866 0.509022 0.777662
3.497028 0.531604 0.777486
3.502442 0.525765 0.801876
3.566541 0.445173 0.822385
3.561127 0.451012 0.797994
3.586867 0.467585 0.797631
3.591295 0.461010 0.822034
3.519580 0.518957 0.850629
3.514166 0.524796 0.826238
3.539907 0.541370 0.825875
3.544335 0.534794 0.850278
3.561221 0.451091 0.797944
3.555800 0.456940 0.773557
3.582527 0.474251 0.773182
3.586962 0.467665 0.797581
3.514062 0.524729 0.826239
3.508641 0.530578 0.801852
3.535368 0.547888 0.801478
3.539803 0.541302 0.825876
3.555894 0.457002 0.773552
3.550480 0.462841 0.749162
3.578193 0.480886 0.748775
3.582621 0.474312 0.773178
3.508538 0.530528 0.801808
3.503124 0.536367 0.777417
3.530838 0.554412 0.777030
3.535265 0.547839 0.801433
3.584503 0.457444 0.822148
3.580075 0.464020 0.797746
3.608298 0.475875 0.797200
3.611628 0.468746 0.821622
3.551180 0.538388 0.850162
3.546752 0.544963 0.825759
3.574975 0.556818 0.825214
3.578305 0.549690 0.849636
3.580181 0.464081 0.797695
3.575746 0.470666 0.773297
3.605069 0.483075 0.772732
3.608403 0.475936 0.797150
3.546639 0.544916 0.825761
3.542204 0.551502 0.801362
3.571528 0.563910 0.800797
3.574861 0.556771 0.825215
3.575849 0.470710 0.773294
3.571422 0.477283 0.748891
3.601843 0.490244 0.748307
3.605172 0.483119 0.772729
3.542094 0.551472 0.801316
3.537666 0.558045 0.776913
3.568087 0.571006 0.776329
3.571417 0.563880 0.800751
3.604321 0.466412 0.821782
3.600990 0.473541 0.797361
3.630839 0.480316 0.796649
3.632992 0.472835 0.821097
3.585669 0.552042 0.849474
3.582339 0.559170 0.825052
3.612188 0.565946 0.824341
3.614341 0.558464 0.848789
3.601103 0.473582 0.797311
3.597769 0.480721 0.772893
3.628798 0.487850 0.772154
3.630952 0.480357 0.796599
3.582221 0.559144 0.825054
3.578887 0.566283 0.800635
3.609916 0.573412 0.799897
3.612070 0.565920 0.824342
3.597877 0.480746 0.772889
3.594548 0.487872 0.748467
3.626753 0.495354 0.747702
3.628906 0.487875 0.772151
3.578774 0.566273 0.800590
3.575444 0.573398 0.776168
3.607650 0.580880 0.775403
3.609802 0.573402 0.799852
3.625387 0.471805 0.821298
3.623234 0.479286 0.796850
3.653803 0.480774 0.795993
3.654734 0.473150 0.820474
3.622005 0.559503 0.848587
3.619853 0.566984 0.824138
3.650421 0.568472 0.823282
3.651353 0.560848 0.847762
3.623353 0.479307 0.796798
3.621198 0.486800 0.772354
3.652990 0.488432 0.771464
3.653921 0.480795 0.795942
3.619731 0.566979 0.824141
3.617577 0.574471 0.799696
3.649368 0.576104 0.798807
3.650300 0.568467 0.823284
3.621311 0.486806 0.772349
3.619159 0.494285 0.747900
3.652171 0.496062 0.746979
3.653103 0.488438 0.771459
3.617461 0.574480 0.799652
3.615308 0.581959 0.775203
3.648320 0.583736 0.774282
3.649252 0.576113 0.798763
3.647064 0.473457 0.820705
3.646132 0.481082 0.796224
3.676491 0.477237 0.795249
3.676195 0.469680 0.819767
3.659083 0.560538 0.847529
3.658152 0.568162 0.823049
3.688510 0.564318 0.822073
3.688214 0.556761 0.846591
3.646257 0.481081 0.796171
3.645326 0.488718 0.771694
3.676914 0.484806 0.770682
3.676616 0.477236 0.795195
3.658026 0.568178 0.823053
3.657095 0.575815 0.798576
3.688683 0.571903 0.797564
3.688385 0.564334 0.822078
3.645440 0.488704 0.771689
3.644508 0.496328 0.747208
3.677323 0.492346 0.746158
3.677028 0.484792 0.770677
3.656980 0.575844 0.798532
3.656048 0.583468 0.774051
3.688864 0.579486 0.773001
3.688568 0.571932 0.797520
3.668699 0.471316 0.820019
3.668995 0.478873 0.795501
3.698221 0.469814 0.794437
3.696727 0.462535 0.818996
3.695769 0.555112 0.846337
3.696065 0.562669 0.821819
3.725291 0.553609 0.820755
3.723797 0.546331 0.845313
3.669118 0.478850 0.795449
3.669417 0.486419 0.770935
3.699842 0.477079 0.769830
3.698344 0.469791 0.794385
3.695943 0.562707 0.821822
3.696241 0.570276 0.797308
3.726667 0.560936 0.796203
3.725169 0.553648 0.820758
3.669527 0.486385 0.770932
3.669822 0.493940 0.746413
3.701444 0.484320 0.745267
3.699952 0.477045 0.769826
3.696133 0.570325 0.797263
3.696428 0.577880 0.772744
3.728049 0.568259 0.771599
3.726558 0.560985 0.796157
3.531127 0.391247 0.847108
3.530765 0.391537 0.834761
3.544295 0.417626 0.834977
3.544655 0.417337 0.847324
3.449580 0.433506 0.850482
3.449219 0.433797 0.838135
3.462748 0.459886 0.838351
3.463108 0.459596 0.850699
3.540378 0.410599 0.847294
3.540018 0.410889 0.834947
3.557870 0.434236 0.834973
3.558230 0.433946 0.847320
3.467416 0.466383 0.850729
3.467056 0.466673 0.838382
3.484908 0.490019 0.838408
3.485268 0.489730 0.850755
3.552849 0.428053 0.847340
3.552489 0.428342 0.834992
3.574120 0.448237 0.834828
3.574480 0.447948 0.847175
3.490688 0.495667 0.850736
3.490328 0.495956 0.838388
3.511960 0.515851 0.838224
3.512319 0.515562 0.850571
3.568157 0.443077 0.847246
3.567797 0.443366 0.834899
3.592552 0.459204 0.834548
3.592911 0.458915 0.846895
3.518689 0.520468 0.850499
3.518329 0.520757 0.838151
3.543083 0.536595 0.837800
3.543443 0.536306 0.850147
3.585842 0.455217 0.847013
3.585482 0.455505 0.834666
3.612607 0.466807 0.834140
3.612967 0.466517 0.846487
3.550565 0.540031 0.850028
3.550205 0.540320 0.837681
3.577330 0.551622 0.837155
3.577690 0.551332 0.849502
3.605367 0.464103 0.846651
3.605007 0.464393 0.834303
3.633679 0.470816 0.833618
3.634039 0.470527 0.845966
3.585345 0.553763 0.849337
3.584985 0.554053 0.836990
3.613657 0.560476 0.836305
3.614017 0.560187 0.848652
3.626128 0.469467 0.846171
3.625767 0.469757 0.833824
3.655115 0.471102 0.833000
3.655475 0.470811 0.845347
3.621987 0.561254 0.848445
3.621626 0.561543 0.836098
3.650974 0.562888 0.835274
3.651334 0.562598 0.847621
3.647499 0.471143 0.845587
3.647139 0.471433 0.833240
3.676270 0.467656 0.832302
3.676630 0.467367 0.844649
3.659369 0.562264 0.847379
3.659009 0.562554 0.835031
3.688140 0.558777 0.834093
3.688501 0.558488 0.846441
3.668835 0.469080 0.844917
3.668475 0.469369 0.832570
3.696503 0.460588 0.831546
3.696864 0.460298 0.843894
3.696353 0.556763 0.846171
3.695992 0.557052 0.833823
3.724021 0.548271 0.832800
3.724381 0.547981 0.845147
3.507318 0.431653 0.962363
3.527194 0.458087 0.962403
3.514207 0.471403 0.974418
3.492170 0.442452 0.974377
3.467449 0.461936 0.885288
3.487325 0.488370 0.885329
3.474338 0.501687 0.897343
3.452301 0.472735 0.897303
3.524468 0.455064 0.962409
3.548630 0.477645 0.962233
3.538203 0.493073 0.974223
3.511480 0.468381 0.974424
3.490099 0.491444 0.885322
3.514261 0.514025 0.885146
3.503835 0.529452 0.897136
3.477111 0.504761 0.897337
3.545409 0.475133 0.962265
3.573122 0.493178 0.961882
3.565587 0.510232 0.973831
3.534983 0.490560 0.974255
3.517536 0.516580 0.885114
3.545249 0.534624 0.884730
3.537715 0.551678 0.896679
3.507110 0.532007 0.897103
3.569526 0.491264 0.961936
3.599948 0.504223 0.961353
3.595541 0.522381 0.973240
3.561991 0.508318 0.973885
3.548906 0.536570 0.884675
3.579327 0.549529 0.884092
3.574921 0.567687 0.895979
3.541371 0.553624 0.896624
3.596072 0.502974 0.961439
3.628278 0.510454 0.960677
3.627141 0.529160 0.972475
3.591665 0.521132 0.973326
3.583270 0.550799 0.884005
3.615476 0.558279 0.883244
3.614339 0.576985 0.895042
3.578863 0.568957 0.895892
3.624234 0.509891 0.960781
3.657246 0.511668 0.959860
3.659425 0.530338 0.971569
3.623097 0.528597 0.972579
3.619588 0.558851 0.883139
3.652599 0.560628 0.882217
3.654778 0.579299 0.893926
3.618451 0.577558 0.894936
3.653186 0.511815 0.959981
3.686001 0.507834 0.958931
3.691438 0.525902 0.970523
3.655364 0.530485 0.971690
3.656728 0.560479 0.882094
3.689544 0.556498 0.881044
3.694981 0.574566 0.892636
3.658907 0.579149 0.893803
3.682016 0.508693 0.959071
3.713638 0.499076 0.957920
3.722180 0.515981 0.969396
3.687454 0.526761 0.970663
3.693596 0.555624 0.880901
3.725218 0.546007 0.879751
3.733760 0.562912 0.891227
3.699034 0.573692 0.892494
3.529966 0.391818 0.859755
3.543494 0.417907 0.859972
3.537999 0.420669 0.884882
3.523984 0.393450 0.884653
3.450736 0.432937 0.837872
3.464264 0.459027 0.838088
3.458769 0.461788 0.862998
3.444754 0.434570 0.862770
3.524030 0.393564 0.884701
3.538045 0.420783 0.884929
3.532540 0.423551 0.909836
3.518039 0.395199 0.909595
3.444696 0.434460 0.862773
3.458712 0.461679 0.863001
3.453207 0.464447 0.887908
3.438706 0.436095 0.887667
3.518092 0.395302 0.909594
3.532593 0.423654 0.909835
3.527102 0.426412 0.934745
3.512117 0.396932 0.934493
3.438641 0.435996 0.887718
3.453142 0.464349 0.887959
3.447651 0.467107 0.912869
3.432666 0.437626 0.912618
3.539391 0.411422 0.859938
3.557243 0.434769 0.859965
3.552422 0.438560 0.884879
3.533897 0.414184 0.884848
3.468399 0.465563 0.838122
3.486250 0.488910 0.838148
3.481430 0.492700 0.863063
3.462904 0.468324 0.863032
3.533962 0.414289 0.884898
3.552487 0.438665 0.884929
3.547657 0.442463 0.909839
3.528457 0.417057 0.909805
3.462829 0.468225 0.863032
3.481354 0.492601 0.863063
3.476524 0.496399 0.887973
3.457324 0.470993 0.887939
3.528525 0.417147 0.909801
3.547726 0.442553 0.909835
3.542910 0.446339 0.934751
3.523034 0.419905 0.934711
3.457244 0.470910 0.887993
3.476445 0.496316 0.888028
3.471629 0.500102 0.912944
3.451753 0.473669 0.912903
3.552076 0.429094 0.859983
3.573707 0.448989 0.859818
3.569730 0.453676 0.884729
3.547256 0.432885 0.884897
3.491457 0.494629 0.838130
3.513088 0.514524 0.837965
3.509110 0.519210 0.862875
3.486636 0.498419 0.863044
3.547338 0.432976 0.884945
3.569811 0.453767 0.884776
3.565827 0.458462 0.909684
3.542508 0.436774 0.909855
3.486546 0.498336 0.863047
3.509020 0.519127 0.862878
3.505035 0.523822 0.887786
3.481716 0.502134 0.887957
3.542590 0.436849 0.909849
3.565910 0.458537 0.909678
3.561936 0.463217 0.934589
3.537774 0.440635 0.934765
3.481624 0.502068 0.888014
3.504944 0.523755 0.887842
3.500970 0.528435 0.912754
3.476808 0.505854 0.912930
3.567633 0.444295 0.859884
3.592388 0.460134 0.859533
3.589396 0.465555 0.884433
3.563656 0.448982 0.884795
3.519209 0.519254 0.837898
3.543964 0.535092 0.837547
3.540972 0.540514 0.862447
3.515232 0.523941 0.862809
3.563753 0.449058 0.884842
3.589493 0.465631 0.884480
3.586495 0.471064 0.909376
3.559768 0.453753 0.909750
3.515128 0.523874 0.862812
3.540868 0.540447 0.862450
3.537871 0.545879 0.887346
3.511143 0.528569 0.887720
3.559863 0.453812 0.909740
3.586591 0.471123 0.909366
3.583603 0.476536 0.934268
3.555890 0.458492 0.934651
3.511041 0.528520 0.887780
3.537768 0.545830 0.887406
3.534781 0.551244 0.912308
3.507068 0.533200 0.912691
3.585593 0.456566 0.859645
3.612719 0.467866 0.859119
3.610826 0.473841 0.884000
3.582602 0.461987 0.884545
3.550811 0.538687 0.837434
