3.618048 0.387833 0.724729
3.626127 0.395477 0.726793
3.624460 0.394062 0.744512
3.617526 0.388972 0.743265
3.553890 0.464338 0.721438
3.561968 0.471981 0.723502
3.560302 0.470566 0.741221
3.553367 0.465476 0.739974
3.626206 0.395564 0.723074
3.634284 0.403207 0.725138
3.633983 0.401072 0.742244
3.624540 0.394149 0.740793
3.561905 0.471907 0.727224
3.569983 0.479550 0.729288
3.569682 0.477415 0.746393
3.560239 0.470492 0.744943
3.601894 0.377821 0.744650
3.611358 0.384753 0.746088
3.613711 0.387151 0.764851
3.599986 0.379671 0.763811
3.550055 0.462753 0.735747
3.559518 0.469685 0.737186
3.561871 0.472083 0.755949
3.548147 0.464603 0.754909
3.614814 0.386847 0.743111
3.621749 0.391937 0.744358
3.617167 0.389245 0.761874
3.556077 0.467601 0.740158
3.563012 0.472691 0.741405
3.558430 0.469999 0.758921
3.618904 0.390043 0.740731
3.628347 0.396966 0.742182
3.628046 0.394831 0.759287
3.614322 0.387350 0.758247
3.565872 0.474595 0.745040
3.575315 0.481518 0.746490
3.575014 0.479383 0.763596
3.561290 0.471903 0.762556
3.577423 0.410658 0.628114
3.574222 0.384856 0.627165
3.553323 0.395256 0.626293
3.558145 0.407425 0.626928
3.571788 0.407691 0.727811
3.568587 0.381889 0.726862
3.547688 0.392289 0.725990
3.552510 0.404457 0.726625
3.564859 0.433458 0.628082
3.577420 0.410676 0.628114
3.558142 0.407442 0.626928
3.551141 0.418245 0.626854
3.559225 0.430491 0.727779
3.571786 0.407709 0.727811
3.552508 0.404475 0.726625
3.545507 0.415278 0.726551
3.541319 0.444533 0.627082
3.564845 0.433471 0.628082
3.551127 0.418258 0.626854
3.539620 0.424728 0.626396
3.535685 0.441566 0.726779
3.559211 0.430504 0.727779
3.545493 0.415291 0.726551
3.533986 0.421761 0.726093
3.515797 0.439652 0.625494
3.541301 0.444535 0.627081
3.539602 0.424730 0.626395
3.527896 0.419336 0.625573
3.510162 0.436684 0.725191
3.535666 0.441568 0.726778
3.533967 0.421763 0.726092
3.522262 0.416369 0.725270
3.498040 0.420677 0.623926
3.515781 0.439642 0.625493
3.527880 0.419326 0.625572
3.519091 0.408833 0.624763
3.492405 0.417710 0.723622
3.510146 0.436675 0.725190
3.522246 0.416359 0.725269
3.513457 0.405866 0.724460
3.494830 0.394860 0.622976
3.498031 0.420661 0.623925
3.519083 0.408816 0.624762
3.514585 0.397340 0.624166
3.489195 0.391893 0.722673
3.492396 0.417694 0.723621
3.513448 0.405849 0.724459
3.508951 0.394373 0.723863
3.507394 0.372059 0.623007
3.494832 0.394842 0.622976
3.514588 0.397323 0.624166
3.521412 0.387308 0.624253
3.501760 0.369092 0.722704
3.489198 0.391875 0.722672
3.508954 0.394356 0.723863
3.515778 0.384341 0.723950
3.530933 0.360985 0.624008
3.507407 0.372047 0.623008
3.521425 0.387296 0.624254
3.532070 0.381893 0.624695
3.525299 0.358018 0.723705
3.501773 0.369080 0.722705
3.515791 0.384329 0.723951
3.526436 0.378926 0.724391
3.556455 0.365867 0.625596
3.530951 0.360983 0.624009
3.532088 0.381892 0.624696
3.543284 0.387433 0.625493
3.550821 0.362900 0.725293
3.525316 0.358016 0.723706
3.526454 0.378925 0.724392
3.537649 0.384466 0.725190
3.553314 0.395240 0.626292
3.574213 0.384840 0.627164
3.556472 0.365876 0.625597
3.543300 0.387442 0.625494
3.547679 0.392273 0.725989
3.568578 0.381873 0.726861
3.550837 0.362909 0.725294
3.537665 0.384475 0.725191
3.527905 0.419322 0.625573
3.539611 0.424715 0.626395
3.551118 0.418245 0.626853
3.540326 0.407035 0.625909
3.522270 0.416354 0.725270
3.533976 0.421748 0.726092
3.545483 0.415278 0.726550
3.534692 0.404067 0.725606
3.521424 0.387318 0.624254
3.514600 0.397333 0.624167
3.519097 0.408809 0.624763
3.530539 0.397559 0.625074
3.515790 0.384351 0.723951
3.508966 0.394366 0.723864
3.513464 0.405842 0.724459
3.524905 0.394592 0.724771
3.532079 0.381906 0.624695
3.521434 0.387309 0.624255
3.530549 0.397550 0.625075
3.543275 0.387447 0.625493
3.526445 0.378939 0.724392
3.515800 0.384342 0.723952
3.524915 0.394583 0.724771
3.537641 0.384480 0.725190
3.543285 0.387456 0.625494
3.530560 0.397558 0.625075
3.540328 0.407014 0.625909
3.553299 0.395253 0.626292
3.537650 0.384488 0.725191
3.524925 0.394591 0.724772
3.534694 0.404047 0.725606
3.547664 0.392286 0.725989
3.527894 0.419312 0.625572
3.540316 0.407026 0.625909
3.530547 0.397570 0.625075
3.519105 0.408819 0.624763
3.522260 0.416345 0.725269
3.534682 0.404058 0.725605
3.524913 0.394602 0.724772
3.513471 0.405852 0.724460
3.551129 0.418235 0.626853
3.558130 0.407432 0.626927
3.553308 0.395264 0.626293
3.540337 0.407025 0.625910
3.545494 0.415267 0.726550
3.552495 0.404465 0.726624
3.547673 0.392296 0.725990
3.534703 0.404057 0.725607
3.532251 0.332129 0.623224
3.537035 0.319118 0.623107
3.524047 0.314350 0.622231
3.519263 0.327361 0.622348
3.526617 0.329161 0.722921
3.531401 0.316151 0.722804
3.518413 0.311383 0.721928
3.513629 0.324394 0.722045
3.535961 0.264644 0.717847
3.537336 0.265292 0.694882
3.550251 0.270097 0.695681
3.548949 0.269411 0.718723
3.501291 0.358332 0.718546
3.502667 0.358980 0.695581
3.515581 0.363785 0.696381
3.514279 0.363100 0.719422
3.467227 0.306777 0.715370
3.468384 0.307124 0.692238
3.473386 0.294415 0.692289
3.472011 0.293766 0.715253
3.560440 0.342228 0.721255
3.561596 0.342575 0.698124
3.566599 0.329866 0.698174
3.565224 0.329217 0.721139
3.509382 0.375573 0.720677
3.508481 0.376830 0.697605
3.496558 0.371257 0.696689
3.495401 0.370910 0.719821
3.546255 0.282776 0.717661
3.545354 0.284033 0.694589
3.533431 0.278460 0.693673
3.532274 0.278113 0.716805
3.579743 0.334308 0.697170
3.573750 0.347785 0.697236
3.574650 0.346528 0.720308
3.578441 0.333622 0.720211
3.486097 0.299592 0.694893
3.480103 0.313070 0.694959
3.481004 0.311813 0.718031
3.484795 0.298907 0.717934
3.575553 0.349381 0.677273
3.573041 0.349162 0.700264
3.579035 0.335685 0.700198
3.580337 0.336371 0.677157
3.483326 0.311913 0.668895
3.480814 0.311694 0.691885
3.486807 0.298217 0.691819
3.488110 0.298902 0.668778
3.497319 0.372026 0.671809
3.495871 0.371002 0.694759
3.507795 0.376574 0.695675
3.510307 0.376794 0.672684
3.535567 0.279741 0.672607
3.534119 0.278717 0.695557
3.546042 0.284290 0.696473
3.548554 0.284509 0.673483
3.551561 0.270787 0.672488
3.550259 0.270101 0.695529
3.537344 0.265296 0.694730
3.538573 0.266019 0.671612
3.516878 0.364468 0.673445
3.515576 0.363782 0.696486
3.502661 0.358977 0.695687
3.503890 0.359700 0.672569
3.474642 0.295150 0.668712
3.473413 0.294427 0.691830
3.468410 0.307136 0.691779
3.469858 0.308161 0.668829
3.567804 0.330578 0.675469
3.566575 0.329855 0.698587
3.561573 0.342565 0.698536
3.563020 0.343589 0.675586
3.624093 0.402753 0.680365
3.622910 0.401427 0.703382
3.619589 0.376265 0.702457
3.620892 0.376951 0.679416
3.525137 0.415591 0.675584
3.523953 0.414266 0.698601
3.520633 0.389104 0.697676
3.521936 0.389790 0.674635
3.606303 0.455033 0.680212
3.607489 0.451709 0.704390
3.617681 0.430925 0.703262
3.618864 0.432250 0.680244
3.517797 0.408924 0.675674
3.518982 0.405600 0.699852
3.529174 0.384816 0.698723
3.530358 0.386141 0.675706
3.560385 0.487775 0.681019
3.560257 0.486210 0.704797
3.585097 0.473389 0.706197
3.583911 0.476713 0.682019
3.516627 0.398340 0.672866
3.516499 0.396774 0.696644
3.541339 0.383954 0.698044
3.540153 0.387277 0.673866
3.503972 0.487241 0.677944
3.503819 0.486215 0.702275
3.529348 0.490559 0.703309
3.529476 0.492125 0.679531
3.521981 0.389114 0.672765
3.521828 0.388088 0.697095
3.547358 0.392432 0.698129
3.547486 0.393998 0.674351
3.460302 0.454911 0.672761
3.458285 0.455195 0.696519
3.477890 0.472850 0.698658
3.478043 0.473875 0.674328
3.530125 0.383492 0.674811
3.528107 0.383777 0.698569
3.547713 0.401431 0.700708
3.547866 0.402457 0.676378
3.442594 0.399484 0.668757
3.440945 0.400856 0.691887
3.443778 0.425570 0.693464
3.445795 0.425285 0.669706
3.541409 0.387273 0.676914
3.539760 0.388645 0.700044
3.542593 0.413359 0.701621
3.544610 0.413074 0.677863
3.460295 0.347677 0.669573
3.457255 0.348691 0.692889
3.446086 0.371831 0.692671
3.447734 0.370460 0.669541
3.548839 0.393467 0.676161
3.545798 0.394481 0.699478
3.534629 0.417621 0.699259
3.536277 0.416250 0.676129
3.505765 0.314887 0.671404
3.502380 0.314466 0.695639
3.479199 0.326963 0.693720
3.482239 0.325950 0.670403
3.550456 0.404097 0.676332
3.547071 0.403676 0.700567
3.523889 0.416173 0.698648
3.526930 0.415160 0.675332
3.561816 0.315108 0.674346
3.558381 0.313323 0.697828
3.532927 0.309803 0.696994
3.536312 0.310225 0.672760
3.545463 0.413636 0.676566
3.542027 0.411851 0.700047
3.516574 0.408331 0.699214
3.519958 0.408752 0.674979
3.605979 0.347957 0.701876
3.586105 0.327894 0.700749
3.589540 0.329679 0.677268
3.607281 0.348643 0.678835
3.534222 0.417367 0.698255
3.514348 0.397304 0.697128
3.517783 0.399089 0.673647
3.535524 0.418053 0.675214
3.587210 0.328360 0.718436
3.586194 0.327940 0.698826
3.606068 0.348003 0.699953
3.604951 0.347324 0.720003
3.515271 0.397676 0.718704
3.514256 0.397256 0.699095
3.534130 0.417320 0.700221
3.533012 0.416640 0.720271
3.533799 0.308850 0.716926
3.532896 0.309796 0.697073
3.558350 0.313316 0.697906
3.559365 0.313736 0.717516
3.517505 0.407390 0.719032
3.516602 0.408336 0.699179
3.542056 0.411856 0.700012
3.543071 0.412276 0.719622
3.479612 0.324607 0.716191
3.479176 0.326992 0.693426
3.502358 0.314494 0.695344
3.503261 0.313548 0.715197
3.524346 0.413758 0.721754
3.523909 0.416143 0.698988
3.547091 0.403646 0.700906
3.547994 0.402700 0.720760
3.445262 0.370548 0.720276
3.445594 0.372641 0.694064
3.456764 0.349501 0.694282
3.457200 0.347116 0.717048
3.534785 0.414716 0.724125
3.535117 0.416810 0.697913
3.546287 0.393669 0.698132
3.546723 0.391284 0.720898
3.442941 0.423188 0.719366
3.443528 0.424844 0.697041
3.440695 0.400130 0.695464
3.440363 0.398037 0.721676
3.542254 0.412427 0.720415
3.542841 0.414083 0.698091
3.540008 0.389369 0.696514
3.539676 0.387276 0.722726
3.475259 0.472531 0.723357
3.477817 0.472782 0.698809
3.458212 0.455128 0.696670
3.457625 0.453472 0.718994
3.545224 0.401246 0.725153
3.547783 0.401497 0.700605
3.528178 0.383843 0.698466
3.527591 0.382187 0.720790
3.527093 0.490853 0.722163
3.529569 0.490659 0.699859
3.504040 0.486315 0.698825
3.501481 0.486064 0.723372
3.544658 0.392525 0.723931
3.547134 0.392331 0.701627
3.521605 0.387987 0.700593
3.519046 0.387736 0.725141
3.581607 0.475433 0.722981
3.585274 0.473477 0.703071
3.560434 0.486298 0.701671
3.557958 0.486492 0.723975
3.537491 0.385821 0.721125
3.541159 0.383865 0.701215
3.516319 0.396685 0.699815
3.513843 0.396879 0.722119
3.485197 0.394901 0.672548
3.497135 0.371468 0.669321
3.492446 0.364939 0.670471
3.475091 0.372795 0.671522
3.494843 0.390347 0.771877
3.506780 0.366915 0.768650
3.502091 0.360386 0.769800
3.484737 0.368242 0.770851
3.510213 0.350556 0.669510
3.492859 0.358412 0.670561
3.497548 0.364941 0.669411
3.521196 0.353883 0.668417
3.519068 0.359032 0.768655
3.501714 0.366888 0.769706
3.506403 0.373417 0.768556
3.530052 0.362359 0.767562
3.549651 0.466843 0.676643
3.574819 0.445437 0.674797
3.561778 0.438292 0.672756
3.538129 0.449350 0.673750
3.545203 0.451526 0.775262
3.570370 0.430120 0.773416
3.557329 0.422976 0.771374
3.533681 0.434034 0.772368
3.576001 0.446545 0.675050
3.589340 0.434864 0.674018
3.581262 0.427222 0.671954
3.562960 0.439400 0.673009
3.569229 0.428984 0.773160
3.582567 0.417303 0.772129
3.574489 0.409660 0.770065
3.556187 0.421839 0.771119
3.510486 0.352228 0.669372
3.521469 0.355555 0.668279
3.527840 0.344373 0.668320
3.518824 0.357344 0.768791
3.529808 0.360671 0.767699
3.536179 0.349488 0.767740
3.582113 0.332135 0.742831
3.599854 0.351099 0.744398
3.586187 0.352051 0.763014
3.520365 0.393907 0.694341
3.538106 0.412872 0.695908
3.524439 0.413824 0.714524
3.596800 0.359412 0.753607
3.586480 0.340761 0.752904
3.592726 0.339496 0.733424
3.513810 0.406451 0.723943
3.503490 0.387801 0.723241
3.509736 0.386535 0.703760
3.526180 0.266298 0.702616
3.527986 0.268041 0.695408
3.540974 0.272809 0.696284
3.543178 0.267528 0.702623
3.507460 0.353186 0.748223
3.509265 0.354930 0.741014
3.522253 0.359698 0.741890
3.524458 0.354416 0.748230
3.570674 0.311558 0.691709
3.568469 0.316839 0.685370
3.564679 0.329745 0.685467
3.569469 0.335503 0.686781
3.496975 0.310407 0.759141
3.494770 0.315689 0.752802
3.490979 0.328595 0.752899
3.495770 0.334352 0.754213
3.467543 0.308124 0.706035
3.470252 0.307355 0.700954
3.475036 0.294344 0.700837
3.473230 0.292601 0.708046
3.554701 0.342418 0.740781
3.557411 0.341649 0.735700
3.562195 0.328638 0.735583
3.560389 0.326895 0.742792
3.516435 0.370540 0.689423
3.511645 0.364783 0.688109
3.497664 0.360120 0.687253
3.494954 0.360888 0.692333
3.548783 0.299326 0.751570
3.543993 0.293569 0.750256
3.530012 0.288906 0.749400
3.527302 0.289674 0.754480
3.528805 0.328508 0.671109
3.507324 0.318856 0.674020
3.511569 0.333335 0.671808
3.536410 0.341368 0.769886
3.514929 0.331716 0.772796
3.519174 0.346195 0.770584
3.592091 0.470502 0.630544
3.581122 0.461431 0.629542
3.572031 0.472430 0.629490
3.583000 0.481501 0.630493
3.586454 0.466310 0.730197
3.575484 0.457239 0.729195
3.566393 0.468237 0.729143
3.577363 0.477308 0.730145
3.621463 0.430206 0.680906
3.620189 0.429636 0.703954
3.609190 0.420166 0.702934
3.610493 0.421135 0.679903
3.557090 0.506594 0.679858
3.555816 0.506023 0.702906
3.544817 0.496554 0.701887
3.546120 0.497523 0.678856
3.617728 0.512150 0.684024
3.615779 0.511222 0.707011
3.625545 0.500581 0.707124
3.626819 0.501151 0.684076
3.542645 0.446667 0.676637
3.540696 0.445740 0.699624
3.550462 0.435098 0.699737
3.551736 0.435669 0.676689
3.540068 0.427390 0.675717
3.538765 0.426421 0.698748
3.529654 0.437213 0.698751
3.530977 0.438388 0.675666
3.616525 0.491270 0.683041
3.615222 0.490301 0.706072
3.606111 0.501094 0.706075
3.607435 0.502268 0.682990
3.536609 0.508181 0.678740
3.535285 0.507006 0.701825
3.545629 0.516324 0.702729
3.547578 0.517252 0.679742
3.601805 0.432496 0.679916
3.600481 0.431321 0.703001
3.610825 0.440640 0.703905
3.612774 0.441567 0.680919
3.616387 0.509606 0.711743
3.614318 0.506537 0.737542
3.627293 0.489539 0.736569
3.626153 0.498965 0.711856
3.540086 0.447349 0.694940
3.538017 0.444280 0.720739
3.550993 0.427282 0.719766
3.549852 0.436708 0.695053
3.552556 0.521281 0.701278
3.542212 0.511963 0.700375
3.534830 0.511821 0.725567
3.550487 0.518212 0.727077
3.603892 0.435680 0.705404
3.593548 0.426361 0.704500
3.586165 0.426220 0.729693
3.601823 0.432611 0.731203
3.624880 0.427813 0.711359
3.617042 0.416951 0.709326
3.612741 0.427769 0.685627
3.623740 0.437239 0.686647
3.553408 0.488984 0.744973
3.545570 0.478122 0.742940
3.541269 0.488940 0.719241
3.552267 0.498410 0.720260
3.540833 0.425288 0.692742
3.545135 0.414470 0.716441
3.524339 0.435939 0.717937
3.531722 0.436081 0.692745
3.613152 0.491427 0.712126
3.617453 0.480609 0.735825
3.596658 0.502078 0.737321
3.604040 0.502219 0.712128
3.563038 0.475585 0.678192
3.583833 0.454116 0.676696
3.575152 0.444373 0.674660
3.549984 0.465780 0.676506
3.557947 0.462417 0.777089
3.578742 0.440948 0.775593
3.570061 0.431205 0.773557
3.544893 0.452612 0.775403
3.582333 0.335701 0.715684
3.584386 0.336243 0.733274
3.584480 0.318080 0.734993
3.583537 0.311756 0.720612
3.482911 0.334157 0.725330
3.484965 0.334699 0.742920
3.485059 0.316536 0.744640
3.484116 0.310212 0.730259
3.552287 0.363428 0.668642
3.533092 0.347360 0.668093
3.526721 0.358542 0.668052
3.550146 0.362574 0.768515
3.530952 0.346506 0.767967
3.524580 0.357689 0.767926
3.507222 0.440605 0.674549
3.517328 0.462710 0.675575
3.532834 0.445393 0.673339
3.513301 0.433209 0.773989
3.523407 0.455315 0.775015
3.538912 0.437998 0.772780
3.572231 0.412106 0.670333
3.559547 0.434885 0.672296
3.577849 0.422706 0.671241
3.572277 0.403557 0.769867
3.559593 0.426336 0.771829
3.577895 0.414157 0.770775
3.607415 0.451545 0.706504
3.603748 0.453501 0.726414
3.616432 0.430723 0.724452
3.617607 0.430761 0.705376
3.519053 0.405763 0.697781
3.515386 0.407719 0.717691
3.528070 0.384940 0.715729
3.529245 0.384978 0.696652
3.621711 0.401372 0.722870
3.618448 0.375569 0.722918
3.619566 0.376248 0.702868
3.622886 0.401410 0.703793
3.522800 0.414244 0.717309
3.519537 0.388440 0.717358
3.520655 0.389120 0.697308
3.523975 0.414282 0.698233
3.608933 0.377662 0.746340
3.615543 0.383862 0.726973
3.621161 0.394462 0.727881
3.619253 0.396312 0.747042
3.522361 0.425586 0.732612
3.528971 0.431787 0.713246
3.534588 0.442387 0.714154
3.532680 0.444237 0.733315
3.615411 0.383664 0.727112
3.608801 0.377464 0.746479
3.598481 0.358813 0.745776
3.529086 0.431956 0.713112
3.522476 0.425755 0.732478
3.512157 0.407105 0.731776
3.595261 0.377957 0.768347
3.608927 0.377005 0.749731
3.612190 0.402808 0.749682
3.515380 0.387948 0.709193
3.529046 0.386995 0.690577
3.532309 0.412799 0.690528
3.521925 0.278393 0.713229
3.569497 0.307331 0.713839
3.612737 0.271357 0.711539
3.591580 0.220646 0.709533
3.523427 0.273819 0.813013
3.571000 0.302757 0.813623
3.614239 0.266783 0.811323
3.593082 0.216072 0.809317
3.499538 0.366098 0.717586
3.555663 0.361905 0.716549
3.569460 0.307390 0.713842
3.521887 0.278452 0.713232
3.501041 0.361524 0.817370
3.557166 0.357331 0.816333
3.570962 0.302816 0.813626
3.523390 0.273878 0.813016
3.533036 0.450235 0.720939
3.576586 0.414201 0.718631
3.555668 0.361975 0.716552
3.499543 0.366168 0.717589
3.534538 0.445661 0.820722
3.578088 0.409627 0.818415
3.557170 0.357401 0.816336
3.501045 0.361594 0.817373
3.609623 0.498666 0.722005
3.624272 0.444246 0.719290
3.576631 0.414254 0.718633
3.533081 0.450289 0.720940
3.611126 0.494092 0.821789
3.625775 0.439672 0.819074
3.578133 0.409680 0.818417
3.534583 0.445715 0.820724
3.700046 0.492892 0.720379
3.680504 0.440561 0.718275
3.624340 0.444263 0.719290
3.609691 0.498683 0.722005
3.701549 0.488319 0.820163
3.682006 0.435987 0.818059
3.625843 0.439689 0.819074
3.611193 0.494110 0.821789
3.769767 0.435119 0.716681
3.723809 0.404557 0.715972
3.680569 0.440535 0.718272
3.700111 0.492867 0.720377
3.771269 0.430546 0.816465
3.725311 0.399983 0.815756
3.682071 0.435961 0.818056
3.701613 0.488293 0.820161
3.792153 0.347414 0.712324
3.737641 0.349982 0.713262
3.723846 0.404498 0.715969
3.769804 0.435061 0.716678
3.793656 0.342840 0.812108
3.739144 0.345408 0.813046
3.725348 0.399924 0.815753
3.771307 0.430486 0.816462
3.758656 0.263277 0.708971
3.716720 0.297688 0.711180
3.737637 0.349913 0.713259
3.792149 0.347345 0.712321
3.760158 0.258704 0.808755
3.718223 0.293114 0.810964
3.739139 0.345339 0.813043
3.793651 0.342771 0.812105
3.682068 0.214847 0.707905
3.669036 0.267646 0.710521
3.716675 0.297634 0.711178
3.758611 0.263224 0.708970
3.683571 0.210273 0.807689
3.670538 0.263072 0.810305
3.718178 0.293060 0.810962
3.760113 0.258650 0.808754
3.682001 0.214829 0.707905
3.591645 0.220620 0.709531
3.612802 0.271331 0.711537
3.668968 0.267629 0.710521
3.683503 0.210255 0.807689
3.593147 0.216046 0.809315
3.614304 0.266757 0.811321
3.670471 0.263055 0.810305
3.667830 0.329053 0.713354
3.666108 0.302727 0.712173
3.639598 0.298788 0.712392
3.636562 0.325005 0.713639
3.669333 0.324479 0.813138
3.667610 0.298154 0.811957
3.641101 0.294214 0.812176
3.638064 0.320431 0.813423
3.667861 0.329058 0.713354
3.699952 0.331178 0.712968
3.696089 0.314144 0.712245
3.666138 0.302733 0.712173
3.669363 0.324485 0.813138
3.701454 0.326604 0.812752
3.697591 0.309570 0.812029
3.667640 0.298159 0.811957
3.680011 0.358160 0.714505
3.737582 0.349940 0.713261
3.699966 0.331201 0.712969
3.667874 0.329081 0.713355
3.681514 0.353586 0.814289
3.739084 0.345366 0.813045
3.701468 0.326627 0.812753
3.669377 0.324507 0.813139
3.680023 0.358194 0.714506
3.692490 0.391337 0.715838
3.723799 0.404490 0.715969
3.737594 0.349974 0.713263
3.681526 0.353620 0.814290
3.693993 0.386764 0.815622
3.725301 0.399916 0.815753
3.739096 0.345400 0.813047
3.660869 0.383229 0.715942
3.679605 0.404696 0.716644
3.692460 0.391346 0.715839
3.679993 0.358202 0.714507
3.662372 0.378656 0.815726
3.681108 0.400122 0.816428
3.693963 0.386772 0.815622
3.681496 0.353628 0.814291
3.723784 0.404524 0.715971
3.692476 0.391372 0.715839
3.679622 0.404722 0.716645
3.680544 0.440502 0.718271
3.725287 0.399950 0.815755
3.693978 0.386798 0.815623
3.681124 0.400148 0.816429
3.682046 0.435928 0.818055
3.569538 0.307362 0.713840
3.636524 0.324992 0.713639
3.639561 0.298774 0.712392
3.612778 0.271388 0.711540
3.571040 0.302788 0.813624
3.638026 0.320418 0.813423
3.641063 0.294201 0.812176
3.614280 0.266814 0.811324
3.555721 0.361913 0.716548
3.617374 0.350052 0.715076
3.636504 0.325027 0.713641
3.569518 0.307398 0.713842
3.557224 0.357339 0.816332
3.618876 0.345477 0.814860
3.638007 0.320453 0.813425
3.571021 0.302823 0.813626
3.576640 0.414179 0.718629
3.629518 0.379167 0.716228
3.617374 0.350092 0.715078
3.555722 0.361953 0.716550
3.578142 0.409605 0.818413
3.631021 0.374593 0.816012
3.618876 0.345518 0.814862
3.557224 0.357379 0.816334
3.624309 0.444199 0.719288
3.660814 0.383250 0.715944
3.629546 0.379196 0.716229
3.576668 0.414208 0.718630
3.625812 0.439625 0.819072
3.662316 0.378676 0.815728
3.631049 0.374622 0.816013
3.578170 0.409634 0.818414
3.624348 0.444212 0.719288
3.680511 0.440510 0.718272
3.679589 0.404730 0.716646
3.660852 0.383263 0.715944
3.625850 0.439638 0.819072
3.682014 0.435936 0.818056
3.681091 0.400156 0.816430
3.662355 0.378689 0.815728
3.716681 0.297696 0.711181
3.696119 0.314148 0.712245
3.699982 0.331182 0.712968
3.737598 0.349921 0.713260
3.718184 0.293122 0.810965
3.697622 0.309574 0.812029
3.701485 0.326608 0.812752
3.739101 0.345347 0.813044
3.669016 0.267681 0.710523
3.666142 0.302709 0.712172
3.696093 0.314121 0.712244
3.716656 0.297669 0.711180
3.670519 0.263107 0.810307
3.667645 0.298135 0.811956
3.697596 0.309546 0.812028
3.718158 0.293095 0.810964
3.668976 0.267671 0.710523
3.612810 0.271373 0.711539
3.639593 0.298759 0.712391
3.666102 0.302699 0.712172
3.670479 0.263096 0.810307
3.614312 0.266798 0.811322
3.641095 0.294185 0.812175
3.667605 0.298125 0.811956
3.617414 0.350082 0.715077
3.629559 0.379157 0.716227
3.645192 0.381184 0.716085
3.648682 0.354133 0.714792
3.618917 0.345508 0.814861
3.631061 0.374583 0.816011
3.646695 0.376610 0.815869
3.650184 0.349559 0.814576
3.648706 0.354136 0.714792
3.645216 0.381187 0.716084
3.660850 0.383214 0.715942
3.679974 0.358187 0.714507
3.650208 0.349562 0.814576
3.646718 0.376613 0.815868
3.662352 0.378640 0.815726
3.681476 0.353613 0.814291
3.617418 0.350055 0.715076
3.648686 0.354106 0.714791
3.652183 0.327054 0.713498
3.636548 0.325030 0.713641
3.618920 0.345480 0.814860
3.650188 0.349531 0.814575
3.653685 0.322480 0.813282
3.638050 0.320456 0.813425
3.648709 0.354109 0.714791
3.679977 0.358160 0.714505
3.667840 0.329081 0.713355
3.652206 0.327058 0.713498
3.650212 0.349534 0.814574
3.681480 0.353586 0.814289
3.669343 0.324507 0.813139
3.653709 0.322483 0.813282
3.554029 0.487277 0.866603
3.540178 0.475855 0.864732
3.549918 0.464468 0.864856
3.563563 0.476164 0.866974
3.563469 0.493179 0.767326
3.549618 0.481757 0.765454
3.559358 0.470370 0.765579
3.573004 0.482066 0.767696
3.540477 0.475252 0.864720
3.526819 0.463548 0.862744
3.536571 0.452170 0.862726
3.550217 0.463865 0.864844
3.549292 0.482337 0.765462
3.535633 0.470633 0.763486
3.545386 0.459255 0.763468
3.559032 0.470950 0.765587
3.526955 0.462733 0.862691
3.513506 0.450878 0.860638
3.525226 0.441961 0.860722
3.536707 0.451355 0.862673
3.535471 0.471425 0.763535
3.522023 0.459571 0.761482
3.533743 0.450653 0.761566
3.545224 0.460048 0.763517
3.516676 0.454402 0.860991
3.506976 0.434305 0.860431
3.520540 0.427940 0.860646
3.528396 0.445485 0.861074
3.518831 0.456018 0.761127
3.509131 0.435921 0.760567
3.522696 0.429556 0.760782
3.530552 0.447101 0.761211
3.506751 0.434179 0.860423
3.497261 0.413932 0.859787
3.510824 0.407566 0.860041
3.520315 0.427813 0.860638
3.509338 0.436009 0.760574
3.499847 0.415763 0.759937
3.513410 0.409397 0.760191
3.522902 0.429644 0.760789
3.486027 0.392969 0.859057
3.479188 0.372464 0.857663
3.491173 0.369519 0.858619
3.499589 0.386602 0.859350
3.492063 0.396153 0.759390
3.485224 0.375648 0.757996
3.497210 0.372703 0.758953
3.505625 0.389787 0.759684
3.497133 0.413967 0.859784
3.487642 0.393720 0.859147
3.501204 0.387354 0.859441
3.510696 0.407601 0.860038
3.499956 0.415687 0.759939
3.490465 0.395441 0.759302
3.504027 0.389074 0.759595
3.513519 0.409321 0.760193
3.479765 0.371822 0.857670
3.477409 0.350242 0.857097
3.492278 0.350345 0.857327
3.491751 0.368877 0.858627
3.484638 0.376251 0.757987
3.482281 0.354672 0.757415
3.497150 0.354775 0.757645
3.496624 0.373307 0.758944
3.478294 0.349261 0.857080
3.479512 0.327494 0.855491
3.493340 0.327508 0.856162
3.493163 0.349364 0.857310
3.481396 0.355611 0.757430
3.482613 0.333844 0.755841
3.496441 0.333857 0.756512
3.496264 0.355713 0.757660
3.479031 0.328279 0.855518
3.478059 0.306343 0.854543
3.493035 0.306436 0.855051
3.492859 0.328293 0.856188
3.483094 0.333015 0.755813
3.482122 0.311079 0.754838
3.497098 0.311172 0.755346
3.496923 0.333029 0.756484
3.563281 0.475671 0.866915
3.549635 0.463975 0.864797
3.559375 0.452588 0.864922
3.573007 0.464275 0.867181
3.573306 0.482536 0.767756
3.559660 0.470840 0.765639
3.569400 0.459453 0.765763
3.583033 0.471140 0.768022
3.549927 0.463598 0.864798
3.536281 0.451903 0.862679
3.546033 0.440526 0.862661
3.559667 0.452210 0.864923
3.559341 0.471194 0.765633
3.545695 0.459500 0.763514
3.555447 0.448123 0.763496
3.569081 0.459807 0.765758
3.535981 0.450366 0.862508
3.524500 0.440972 0.860557
3.536431 0.431904 0.860564
3.545733 0.438989 0.862490
3.545971 0.461017 0.763681
3.534491 0.451623 0.761730
3.546421 0.442555 0.761737
3.555724 0.449640 0.763663
3.528663 0.445643 0.861082
3.520807 0.428099 0.860653
3.534372 0.421734 0.860868
3.540594 0.436576 0.861088
3.530310 0.446927 0.761203
3.522454 0.429382 0.760775
3.536018 0.423017 0.760990
3.542241 0.437859 0.761210
3.520366 0.427887 0.860641
3.510874 0.407639 0.860044
3.524437 0.401274 0.860298
3.533930 0.421522 0.860856
3.522879 0.429558 0.760787
3.513387 0.409311 0.760189
3.526950 0.402945 0.760444
3.536443 0.423193 0.761002
3.501153 0.386432 0.859415
3.492737 0.369348 0.858684
3.507374 0.366145 0.858883
3.514715 0.380065 0.859708
3.504089 0.389948 0.759620
3.495673 0.372865 0.758889
3.510310 0.369661 0.759088
3.517651 0.383581 0.759913
3.510746 0.407674 0.860041
3.501254 0.387426 0.859443
3.514816 0.381060 0.859736
3.524309 0.401308 0.860295
3.513496 0.409236 0.760191
3.504004 0.388989 0.759593
3.517566 0.382622 0.759887
3.527059 0.402870 0.760445
3.493130 0.367210 0.858573
3.493656 0.348678 0.857274
3.508639 0.348790 0.857471
3.507767 0.364007 0.858772
3.495273 0.374971 0.758998
3.495800 0.356439 0.757699
3.510783 0.356550 0.757896
3.509910 0.371767 0.759197
3.493838 0.350085 0.857367
3.494015 0.328228 0.856219
3.508996 0.328331 0.856567
3.508821 0.350196 0.857564
3.495618 0.354993 0.757603
3.495795 0.333137 0.756456
3.510776 0.333240 0.756804
3.510601 0.355105 0.757801
3.493497 0.328237 0.856208
3.493672 0.306381 0.855070
3.508648 0.306474 0.855578
3.508477 0.328340 0.856556
3.496314 0.333084 0.756465
3.496490 0.311228 0.755328
3.511466 0.311321 0.755836
3.511295 0.333187 0.756813
3.572721 0.464010 0.867132
3.559089 0.452323 0.864873
3.568829 0.440935 0.864997
3.582448 0.452614 0.867398
3.583338 0.471382 0.768072
3.569706 0.459695 0.765813
3.579446 0.448308 0.765937
3.593065 0.459987 0.768338
3.559378 0.451942 0.864873
3.545745 0.440258 0.862612
3.555497 0.428881 0.862593
3.569119 0.440555 0.864998
3.569389 0.460052 0.765807
3.555755 0.448368 0.763546
3.565508 0.436990 0.763527
3.579129 0.448665 0.765932
3.544278 0.437424 0.862127
3.534976 0.430340 0.860201
3.546907 0.421272 0.860207
3.554031 0.426047 0.862108
3.557200 0.451184 0.764026
3.547898 0.444100 0.762100
3.559828 0.435032 0.762107
3.566952 0.439807 0.764008
3.540872 0.437005 0.861096
3.534649 0.422163 0.860876
3.548213 0.415798 0.861091
3.552802 0.427937 0.861103
3.541988 0.437415 0.761203
3.535766 0.422573 0.760983
3.549330 0.416208 0.761198
3.553919 0.428348 0.761210
3.533982 0.421594 0.860859
3.524489 0.401346 0.860300
3.538052 0.394980 0.860555
3.547546 0.415229 0.861074
3.536419 0.423107 0.761000
3.526926 0.402859 0.760442
3.540489 0.396493 0.760696
3.549983 0.416742 0.761215
3.514456 0.379255 0.859665
3.507116 0.365334 0.858840
3.521753 0.362131 0.859039
3.528018 0.372888 0.859958
3.517938 0.384382 0.759957
3.510597 0.370462 0.759132
3.525234 0.367259 0.759331
3.531500 0.378016 0.760251
3.524360 0.401380 0.860298
3.514867 0.381132 0.859739
3.528430 0.374766 0.860032
3.537924 0.395014 0.860552
3.527035 0.402785 0.760443
3.517542 0.382537 0.759885
3.531104 0.376171 0.760178
3.540599 0.396419 0.760698
3.507680 0.363024 0.858684
3.508553 0.347807 0.857383
3.523536 0.347919 0.857581
3.522318 0.359820 0.858883
3.510027 0.372747 0.759286
3.510899 0.357530 0.757985
3.525882 0.357642 0.758183
3.524664 0.369544 0.759485
3.508833 0.350540 0.857580
3.509008 0.328675 0.856583
3.523988 0.328777 0.856931
3.523816 0.350652 0.857778
3.510620 0.354762 0.757785
3.510795 0.332897 0.756788
3.525775 0.332999 0.757136
3.525603 0.354874 0.757983
3.508489 0.328707 0.856572
3.508660 0.306840 0.855595
3.523636 0.306934 0.856103
3.523470 0.328809 0.856920
3.511314 0.332821 0.756797
3.511484 0.310955 0.755820
3.526461 0.311048 0.756328
3.526294 0.332924 0.757145
3.582162 0.452349 0.867346
3.568543 0.440670 0.864945
3.578283 0.429284 0.865070
3.591889 0.440953 0.867612
3.593371 0.460229 0.768390
3.579752 0.448550 0.765989
3.589492 0.437163 0.766114
3.603098 0.448833 0.768656
3.568881 0.438115 0.864713
3.555259 0.426441 0.862308
3.560065 0.412599 0.860414
3.578620 0.426728 0.864837
3.579385 0.451081 0.766216
3.565763 0.439406 0.763812
3.570569 0.425564 0.761917
3.589124 0.439694 0.766341
3.553229 0.428614 0.861104
3.548640 0.416474 0.861092
3.562204 0.410109 0.861307
3.565159 0.419546 0.861110
3.553518 0.427656 0.761209
3.548929 0.415516 0.761197
3.562493 0.409151 0.761412
3.565448 0.418588 0.761215
3.547596 0.415303 0.861076
3.538102 0.395054 0.860557
3.551665 0.388688 0.860811
3.561160 0.408937 0.861291
3.549960 0.416656 0.761213
3.540466 0.396408 0.760694
3.554029 0.390042 0.760948
3.563524 0.410291 0.761428
3.527589 0.371571 0.859856
3.521324 0.360814 0.858937
3.535961 0.357611 0.859136
3.541151 0.365205 0.860149
3.531957 0.379323 0.760353
3.525692 0.368566 0.759434
3.540329 0.365363 0.759633
3.545519 0.372956 0.760646
3.537974 0.395087 0.860554
3.528480 0.374838 0.860034
3.542042 0.368472 0.860328
3.551537 0.388721 0.860809
3.540576 0.396334 0.760696
3.531081 0.376085 0.760176
3.544643 0.369719 0.760469
3.554138 0.389968 0.760950
3.522347 0.349968 0.857696
3.522519 0.328094 0.856849
3.537500 0.328197 0.857197
3.535766 0.358667 0.859198
3.527102 0.355562 0.758066
3.527274 0.333687 0.757219
3.542254 0.333790 0.757567
3.540521 0.364260 0.759568
3.523482 0.329176 0.856934
3.523649 0.307300 0.856117
3.538625 0.307393 0.856625
3.538463 0.329279 0.857282
3.526312 0.332558 0.757132
3.526478 0.310682 0.756315
3.541454 0.310775 0.756823
3.541292 0.332661 0.757480
3.553590 0.423863 0.861692
3.546466 0.419088 0.859791
3.558396 0.410021 0.859797
3.567409 0.441973 0.764424
3.560285 0.437198 0.762523
3.572215 0.428131 0.762529
3.521598 0.359059 0.858780
3.522816 0.347158 0.857478
3.536235 0.355856 0.858980
3.525408 0.370305 0.759589
3.526626 0.358403 0.758286
3.540045 0.367102 0.759788
3.635481 0.477333 0.818840
3.635923 0.477100 0.805863
3.626196 0.488496 0.805597
3.625754 0.488729 0.818574
3.559520 0.412465 0.817418
3.559962 0.412232 0.804441
3.550235 0.423628 0.804174
3.549793 0.423860 0.817152
3.625744 0.488741 0.818574
3.626185 0.488508 0.805596
3.616458 0.499904 0.805330
3.616017 0.500137 0.818307
3.549784 0.423871 0.817152
3.550226 0.423638 0.804174
3.540499 0.435034 0.803908
3.540057 0.435267 0.816885
3.616007 0.500148 0.818307
3.616449 0.499915 0.805329
3.606722 0.511311 0.805063
3.606281 0.511544 0.818041
3.540047 0.435279 0.816886
3.540489 0.435046 0.803908
3.530761 0.446442 0.803642
3.530320 0.446675 0.816619
3.606226 0.511605 0.818112
3.606668 0.511373 0.805135
3.596941 0.522768 0.804869
3.596692 0.522719 0.817742
3.530355 0.446635 0.816547
3.530796 0.446403 0.803570
3.521069 0.457798 0.803304
3.520820 0.457749 0.816176
3.589967 0.309403 0.808412
3.590409 0.309170 0.795434
3.590247 0.331055 0.796091
3.589806 0.331288 0.809068
3.490127 0.308766 0.805024
3.490569 0.308533 0.792047
3.490407 0.330418 0.792703
3.489965 0.330651 0.805681
3.589733 0.333724 0.809023
3.590174 0.333491 0.796046
3.588441 0.363960 0.798047
3.587999 0.364193 0.811024
3.490036 0.328268 0.805728
3.490478 0.328035 0.792751
3.488744 0.358505 0.794752
3.488303 0.358737 0.807729
3.579242 0.333147 0.811285
3.579684 0.332914 0.798308
3.584874 0.340508 0.799321
3.584432 0.340741 0.812298
3.497063 0.389822 0.807471
3.497504 0.389589 0.794494
3.502694 0.397182 0.795507
3.502253 0.397415 0.808484
3.588524 0.347864 0.812311
3.588965 0.347631 0.799334
3.598461 0.367880 0.799815
3.598019 0.368113 0.812792
3.498176 0.390320 0.808473
3.498617 0.390087 0.795496
3.508112 0.410336 0.795977
3.507671 0.410569 0.808954
3.598028 0.368134 0.812792
3.598470 0.367901 0.799815
3.607965 0.388151 0.800294
3.607523 0.388383 0.813272
3.507680 0.410589 0.808955
3.508122 0.410356 0.795977
3.517617 0.430606 0.796457
3.517175 0.430839 0.809434
3.610001 0.394748 0.813242
3.610443 0.394515 0.800265
3.613397 0.403953 0.800068
3.612955 0.404185 0.813045
3.514710 0.424504 0.809464
3.515152 0.424271 0.796487
3.518107 0.433708 0.796290
3.517665 0.433941 0.809267
3.595301 0.379161 0.812895
3.595743 0.378928 0.799918
3.614298 0.393058 0.804342
3.613857 0.393290 0.817319
3.535340 0.458989 0.809422
3.535782 0.458757 0.796444
3.554338 0.472886 0.800868
3.553896 0.473119 0.813845
3.616198 0.395163 0.817368
3.616640 0.394930 0.804391
3.630246 0.406599 0.806933
3.629804 0.406832 0.819911
3.551587 0.471273 0.813803
3.552029 0.471040 0.800825
3.565635 0.482709 0.803368
3.565193 0.482942 0.816345
3.525344 0.259039 0.807115
3.525786 0.258806 0.794137
3.540762 0.258899 0.794645
3.540320 0.259132 0.807623
3.524783 0.358921 0.805304
3.525225 0.358688 0.792326
3.540201 0.358781 0.792835
3.539759 0.359014 0.805812
3.510352 0.258946 0.806606
3.510794 0.258713 0.793629
3.525770 0.258806 0.794137
3.525329 0.259039 0.807114
3.509792 0.358828 0.804795
3.510234 0.358595 0.791818
3.525210 0.358688 0.792326
3.524769 0.358921 0.805303
3.495362 0.258852 0.806098
3.495803 0.258619 0.793120
3.510780 0.258713 0.793629
3.510338 0.258945 0.806606
3.494801 0.358734 0.804286
3.495242 0.358501 0.791308
3.510219 0.358595 0.791817
3.509777 0.358827 0.804794
3.480334 0.258758 0.805544
3.480866 0.258548 0.792541
3.495752 0.258618 0.793075
3.495310 0.258851 0.806052
3.479847 0.358642 0.803822
3.480378 0.358432 0.790819
3.495264 0.358502 0.791353
3.494823 0.358735 0.804330
3.626329 0.271041 0.630879
3.603024 0.270659 0.644735
3.601309 0.289864 0.642379
3.624614 0.290245 0.628523
3.676630 0.285961 0.715892
3.653325 0.285579 0.729748
3.651610 0.304784 0.727392
3.674915 0.305166 0.713536
3.699583 0.279080 0.643082
3.676106 0.275382 0.630027
3.674391 0.294586 0.627671
3.697868 0.298285 0.640727
3.650377 0.285322 0.729799
3.626900 0.281624 0.716743
3.625185 0.300828 0.714388
3.648661 0.304526 0.727443
3.624613 0.290265 0.628521
3.601308 0.289884 0.642377
3.599593 0.309088 0.640021
3.622898 0.309470 0.626165
3.674913 0.305184 0.713534
3.651608 0.304802 0.727390
3.649893 0.324007 0.725035
3.673199 0.324389 0.711179
3.697866 0.298303 0.640724
3.674390 0.294605 0.627669
3.672675 0.313810 0.625313
3.696151 0.317508 0.638369
3.648659 0.304546 0.727441
3.625183 0.300848 0.714385
3.623468 0.320053 0.712030
3.646944 0.323751 0.725085
3.655310 0.231040 0.695632
3.646340 0.231073 0.702430
3.632589 0.228726 0.693307
3.655894 0.229107 0.679451
3.646490 0.329810 0.683516
3.637520 0.329843 0.690314
3.623768 0.327495 0.681191
3.647074 0.327877 0.667335
3.666258 0.232531 0.699811
3.655327 0.231042 0.695631
3.655911 0.229109 0.679450
3.679388 0.232807 0.692506
3.657437 0.331300 0.687695
3.646506 0.329811 0.683515
3.647090 0.327878 0.667334
3.670567 0.331576 0.680389
3.671780 0.287960 0.735722
3.680750 0.287927 0.728923
3.679035 0.307131 0.726568
3.670066 0.307164 0.733366
3.612085 0.272977 0.657033
3.621055 0.272945 0.650234
3.619340 0.292149 0.647879
3.610370 0.292182 0.654677
3.670063 0.307184 0.733364
3.679033 0.307151 0.726566
3.677318 0.326356 0.724210
3.668348 0.326389 0.731009
3.610369 0.292200 0.654674
3.619339 0.292168 0.647876
3.617624 0.311372 0.645520
3.608653 0.311405 0.652319
3.691607 0.286015 0.705429
3.691681 0.284895 0.696249
3.689967 0.304100 0.693894
3.689892 0.305219 0.703073
3.592100 0.277162 0.705701
3.592174 0.276043 0.696521
3.590460 0.295247 0.694166
3.590385 0.296367 0.703345
3.689890 0.305239 0.703071
3.689965 0.304120 0.693892
3.688249 0.323325 0.691536
3.688175 0.324444 0.700715
3.590383 0.296385 0.703342
3.590458 0.295266 0.694163
3.588743 0.314470 0.691807
3.588668 0.315590 0.700987
3.674198 0.279593 0.665749
3.663568 0.278028 0.660727
3.661853 0.297232 0.658372
3.672483 0.298798 0.663393
3.630780 0.286717 0.755438
3.620150 0.285152 0.750416
3.618435 0.304356 0.748061
3.629065 0.305921 0.753082
3.672481 0.298817 0.663391
3.661850 0.297251 0.658369
3.660135 0.316456 0.656013
3.670766 0.318021 0.661035
3.629064 0.305941 0.753080
3.618433 0.304376 0.748059
3.616718 0.323580 0.745703
3.627349 0.325146 0.750725
3.634122 0.275647 0.662753
3.623111 0.275663 0.670903
3.621396 0.294868 0.668548
3.632408 0.294852 0.660397
3.692900 0.290632 0.742130
3.681889 0.290648 0.750280
3.680174 0.309853 0.747925
3.691185 0.309837 0.739774
3.632406 0.294871 0.660395
3.621395 0.294887 0.668545
3.619680 0.314092 0.666189
3.630691 0.314075 0.658039
3.691183 0.309856 0.739772
3.680171 0.309872 0.747923
3.678457 0.329077 0.745567
3.689468 0.329061 0.737417
3.612979 0.278769 0.703598
3.614645 0.279981 0.712267
3.612930 0.299186 0.709911
3.611264 0.297974 0.701242
3.710720 0.285084 0.683931
3.712386 0.286296 0.692600
3.710671 0.305501 0.690244
3.709005 0.304289 0.681575
3.611263 0.297992 0.701242
3.612929 0.299204 0.709911
3.611214 0.318409 0.707555
3.609547 0.317197 0.698886
3.709003 0.304309 0.681571
3.710669 0.305521 0.690240
3.708954 0.324726 0.687884
3.707288 0.323513 0.679215
3.632649 0.284487 0.735892
3.643580 0.285976 0.740072
3.641865 0.305180 0.737717
3.630934 0.303691 0.733537
3.669176 0.276386 0.643263
3.680107 0.277875 0.647443
3.678392 0.297080 0.645087
3.667461 0.295591 0.640907
3.630932 0.303710 0.733534
3.641863 0.305199 0.737714
3.640147 0.324404 0.735359
3.629217 0.322914 0.731178
3.667460 0.295610 0.640905
3.678391 0.297099 0.645085
3.676675 0.316304 0.642730
3.665745 0.314815 0.638549
3.643657 0.366326 0.662618
3.643073 0.368259 0.678799
3.654003 0.369748 0.682979
3.667133 0.370024 0.675674
3.652478 0.267557 0.674734
3.651894 0.269489 0.690914
3.662824 0.270978 0.695095
3.675954 0.271255 0.687789
3.634086 0.368290 0.685599
3.643057 0.368257 0.678800
3.643641 0.366325 0.662620
3.620336 0.365943 0.676476
3.642906 0.269520 0.697713
3.651877 0.269488 0.690915
3.652461 0.267555 0.674734
3.629155 0.267174 0.688590
3.578478 0.507629 0.613019
3.596492 0.507523 0.597611
3.597325 0.487127 0.599171
3.579310 0.487233 0.614579
3.643211 0.516053 0.688641
3.661225 0.515947 0.673233
3.662057 0.495551 0.674793
3.644043 0.495657 0.690201
3.645525 0.508821 0.588413
3.667632 0.512793 0.595996
3.668463 0.492397 0.597556
3.646357 0.488425 0.589973
3.612233 0.514653 0.682422
3.634339 0.518624 0.690005
3.635171 0.498228 0.691564
3.613065 0.494256 0.683982
3.579311 0.487213 0.614581
3.597325 0.487106 0.599172
3.598157 0.466710 0.600732
3.580143 0.466816 0.616141
3.644044 0.495637 0.690203
3.662058 0.495530 0.674794
3.662890 0.475134 0.676354
3.644876 0.475240 0.691763
3.646358 0.488404 0.589975
3.668464 0.492376 0.597557
3.669296 0.471980 0.599117
3.647190 0.468008 0.591535
3.613066 0.494236 0.683984
3.635172 0.498208 0.691566
3.636004 0.477812 0.693126
3.613898 0.473840 0.685543
3.617295 0.562845 0.645910
3.624778 0.562809 0.639562
3.622663 0.560726 0.627839
3.604649 0.560832 0.643247
3.629693 0.464886 0.661081
3.637175 0.464849 0.654733
3.635061 0.462766 0.643010
3.617047 0.462873 0.658419
3.624792 0.562811 0.639559
3.634390 0.564858 0.644935
3.644784 0.564699 0.635419
3.622678 0.560728 0.627836
3.637190 0.464851 0.654731
3.646787 0.466898 0.660107
3.657182 0.466740 0.650591
3.635075 0.462768 0.643008
3.631359 0.424052 0.664204
3.618712 0.422039 0.661542
3.636727 0.421933 0.646133
3.638841 0.424016 0.657857
3.618961 0.522012 0.649033
3.606314 0.519999 0.646370
3.624329 0.519893 0.630962
3.626443 0.521976 0.642685
3.664855 0.477224 0.688218
3.664023 0.497620 0.686658
3.656540 0.497656 0.693006
3.657372 0.477260 0.694566
3.600436 0.468791 0.612329
3.599604 0.489187 0.610769
3.592121 0.489223 0.617117
3.592954 0.468827 0.618677
3.664022 0.497640 0.686657
3.663190 0.518036 0.685097
3.655707 0.518072 0.691445
3.656539 0.497676 0.693005
3.599604 0.489208 0.610767
3.598772 0.509604 0.609207
3.591289 0.509640 0.615555
3.592121 0.489244 0.617115
3.672986 0.515372 0.646923
3.674466 0.517352 0.658499
3.675297 0.496956 0.660059
3.673817 0.494976 0.648483
3.574004 0.512343 0.660095
3.575484 0.514323 0.671670
3.576316 0.493927 0.673230
3.574836 0.491947 0.661655
3.673818 0.494957 0.648485
3.675298 0.496937 0.660061
3.676130 0.476541 0.661621
3.674651 0.474561 0.650045
3.574837 0.491924 0.661656
3.576317 0.493904 0.673232
3.577149 0.473508 0.674792
3.575669 0.471528 0.663216
3.640779 0.512866 0.617799
3.651952 0.514839 0.621408
3.652784 0.494443 0.622968
3.641610 0.492470 0.619360
3.609184 0.518813 0.712385
3.620358 0.520786 0.715993
3.621189 0.500389 0.717553
3.610015 0.498416 0.713945
3.641611 0.492450 0.619361
3.652785 0.494423 0.622969
3.653617 0.474027 0.624530
3.642444 0.472054 0.620921
3.610016 0.498395 0.713947
3.621190 0.500368 0.717555
3.622022 0.479972 0.719115
3.610849 0.477999 0.715507
3.606463 0.472766 0.633179
3.605631 0.493162 0.631619
3.613379 0.493168 0.625329
3.614211 0.472772 0.626889
3.669196 0.481235 0.710463
3.668364 0.501632 0.708903
3.676112 0.501638 0.702613
3.676944 0.481242 0.704173
3.605631 0.493182 0.631617
3.604799 0.513578 0.630057
3.612547 0.513585 0.623767
3.613379 0.493189 0.625327
3.668362 0.501652 0.708902
3.667530 0.522048 0.707342
3.675278 0.522055 0.701052
3.676110 0.501659 0.702612
3.596622 0.517118 0.678462
3.593301 0.515170 0.668595
3.594132 0.494773 0.670155
3.597454 0.496722 0.680022
3.691207 0.518520 0.646341
3.687886 0.516571 0.636475
3.688717 0.496175 0.638034
3.692039 0.498123 0.647901
3.597455 0.496702 0.680023
3.594133 0.494753 0.670157
3.594965 0.474357 0.671716
3.598287 0.476305 0.681583
3.692040 0.498103 0.647903
3.688718 0.496154 0.638036
3.689550 0.475758 0.639596
3.692872 0.477707 0.649463
3.617495 0.477359 0.698971
3.616663 0.497755 0.697411
3.607066 0.495708 0.692035
3.607898 0.475312 0.693595
3.667008 0.472752 0.612326
3.666176 0.493148 0.610766
3.656579 0.491101 0.605391
3.657411 0.470705 0.606951
3.616662 0.497776 0.697409
3.615830 0.518172 0.695849
3.606233 0.516125 0.690474
3.607065 0.495729 0.692034
3.666175 0.493168 0.610765
3.665343 0.513565 0.609205
3.655746 0.511517 0.603830
3.656578 0.491121 0.605390
3.563167 0.468766 0.661449
3.565761 0.473844 0.677844
3.564213 0.492983 0.675680
3.562335 0.489162 0.659889
3.661836 0.473295 0.646486
3.664430 0.478374 0.662881
3.662882 0.497512 0.660716
3.661004 0.493692 0.644926
3.565945 0.472111 0.678315
3.568538 0.477190 0.694710
3.566275 0.495071 0.691941
3.564397 0.491250 0.676150
3.664250 0.480116 0.662443
3.666844 0.485194 0.678838
3.664581 0.503075 0.676069
3.662703 0.499254 0.660278
3.642606 0.435750 0.702248
3.621392 0.434730 0.704762
3.630331 0.428566 0.686210
3.641504 0.430539 0.689818
3.635234 0.528656 0.666273
3.614020 0.527636 0.668787
3.622959 0.521472 0.650235
3.634132 0.523445 0.653844
3.644522 0.429966 0.687279
3.652270 0.429972 0.680989
3.666609 0.435731 0.695265
3.645624 0.435177 0.699708
3.631145 0.524020 0.656378
3.638893 0.524027 0.650088
3.653232 0.529785 0.664364
3.632247 0.529231 0.668807
3.616711 0.427638 0.682359
3.614117 0.422559 0.665964
3.626763 0.424572 0.668626
3.628243 0.426553 0.680202
3.613493 0.524561 0.658369
3.610899 0.519483 0.641973
3.623546 0.521496 0.644636
3.625025 0.523476 0.656212
3.613429 0.428492 0.685389
3.624962 0.427406 0.683232
3.616023 0.433570 0.701784
3.616774 0.523714 0.655365
3.628307 0.522629 0.653208
3.619368 0.528793 0.671760
3.701233 0.475049 0.634475
3.700401 0.495445 0.632915
3.704724 0.499397 0.649327
3.704866 0.478981 0.651304
3.604093 0.474751 0.657793
3.603261 0.495147 0.656233
3.607584 0.499100 0.672645
3.607726 0.478684 0.674622
3.704940 0.477152 0.651739
3.704797 0.497567 0.649762
3.709120 0.501519 0.666174
3.708573 0.481085 0.668569
3.607660 0.480522 0.674220
3.607518 0.500937 0.672243
3.611841 0.504889 0.688656
3.611293 0.484455 0.691050
3.699001 0.515662 0.629198
3.704013 0.519633 0.645193
3.704155 0.499218 0.647170
3.699833 0.495266 0.630758
3.602997 0.515764 0.656826
3.608009 0.519735 0.672821
3.608152 0.499320 0.674798
3.603829 0.495368 0.658386
3.704101 0.517779 0.645640
3.709114 0.521750 0.661635
3.708566 0.501315 0.664029
3.704244 0.497364 0.647617
3.607930 0.521597 0.672407
3.612942 0.525568 0.688402
3.612395 0.505134 0.690797
3.608072 0.501182 0.674384
3.661308 0.426421 0.654562
3.664941 0.430353 0.671392
3.654235 0.428528 0.673946
3.650913 0.426579 0.664079
3.644008 0.523358 0.637713
3.647641 0.527291 0.654542
3.636935 0.525465 0.657096
3.633614 0.523516 0.647229
3.655927 0.428965 0.674526
3.666633 0.430791 0.671972
3.670266 0.434724 0.688802
3.635252 0.525033 0.656539
3.645958 0.526859 0.653985
3.649591 0.530792 0.670815
3.646101 0.567848 0.650172
3.634016 0.565983 0.653560
3.651114 0.571819 0.666167
3.665920 0.471546 0.667870
3.653835 0.469682 0.671258
3.670933 0.475517 0.683865
3.562071 0.488968 0.657786
3.563949 0.492789 0.673576
3.562401 0.511928 0.671412
3.561239 0.509365 0.656226
3.661266 0.493925 0.647026
3.663144 0.497746 0.662816
3.661596 0.516885 0.660651
3.660434 0.514321 0.645466
3.564118 0.490948 0.673955
3.565996 0.494769 0.689746
3.563733 0.512650 0.686976
3.562570 0.510087 0.671790
3.662978 0.499593 0.662468
3.664856 0.503414 0.678259
3.662593 0.521295 0.675490
3.661430 0.518732 0.660304
3.618994 0.564822 0.657287
3.606031 0.563392 0.658235
3.607194 0.565955 0.673421
3.630940 0.466875 0.672903
3.617976 0.465446 0.673851
3.619139 0.468008 0.689037
3.604774 0.560830 0.643130
3.605937 0.563393 0.658316
3.618900 0.564823 0.657368
3.617420 0.562843 0.645792
3.616910 0.462878 0.658561
3.618072 0.465441 0.673747
3.631036 0.466871 0.672799
3.629556 0.464891 0.661223
3.607238 0.565992 0.673625
3.630652 0.569207 0.676430
3.630212 0.566832 0.661100
3.619038 0.564859 0.657491
3.619117 0.467975 0.688841
3.642530 0.471189 0.691646
3.642091 0.468815 0.676316
3.630917 0.466842 0.672707
3.627377 0.568563 0.675618
3.651783 0.572030 0.666605
3.634685 0.566195 0.653998
3.626937 0.566188 0.660288
3.645839 0.471838 0.692453
3.670245 0.475305 0.683441
3.653148 0.469470 0.670834
3.645400 0.469463 0.677123
3.632113 0.564389 0.644162
3.635435 0.566337 0.654029
3.647520 0.568201 0.650640
3.642508 0.564230 0.634646
3.649084 0.467374 0.660900
3.652405 0.469322 0.670766
3.664490 0.471187 0.667378
3.659478 0.467215 0.651383
3.721623 0.304244 0.671861
3.719908 0.323449 0.669505
3.724021 0.325878 0.686315
3.725736 0.306673 0.688671
3.624931 0.298611 0.696334
3.623216 0.317816 0.693978
3.627329 0.320245 0.710788
3.629044 0.301041 0.713144
3.725740 0.306676 0.688688
3.724025 0.325880 0.686332
3.728138 0.328310 0.703142
3.729853 0.309105 0.705498
3.629048 0.301043 0.713161
3.627333 0.320248 0.710805
3.631446 0.322677 0.727615
3.633161 0.303472 0.729971
3.723340 0.285021 0.674219
3.721624 0.304225 0.671863
3.725738 0.306655 0.688673
3.727453 0.287450 0.691029
3.626648 0.279387 0.698692
3.624932 0.298592 0.696336
3.629046 0.301021 0.713146
3.630761 0.281816 0.715502
3.727457 0.287452 0.691046
3.725742 0.306657 0.688690
3.729855 0.309086 0.705500
3.731570 0.289882 0.707856
3.630765 0.281819 0.715519
3.629050 0.301024 0.713163
3.633163 0.303453 0.729973
3.634878 0.284248 0.732329
3.578234 0.292297 0.672844
