4.033072 0.667713 0.063400
4.033254 0.693183 0.054859
4.033270 0.701360 0.072853
4.033101 0.680234 0.088205
3.873236 0.668748 0.063068
3.873418 0.694218 0.054527
3.873434 0.702395 0.072521
3.873265 0.681269 0.087873
4.033101 0.663457 0.035920
4.033240 0.685249 0.037176
4.033254 0.693175 0.054837
4.033072 0.667705 0.063378
3.873265 0.664491 0.035587
3.873404 0.686283 0.036843
3.873418 0.694209 0.054504
3.873236 0.668739 0.063046
4.033187 0.667908 0.008465
4.033354 0.697154 0.018826
4.033240 0.685251 0.037151
4.033101 0.663459 0.035895
3.873350 0.668941 0.008137
3.873518 0.698187 0.018498
3.873404 0.686283 0.036823
3.873265 0.664492 0.035567
4.033320 0.680623 -0.016263
4.033476 0.710725 0.002407
4.033354 0.697165 0.018807
4.033187 0.667919 0.008447
3.873484 0.681655 -0.016597
3.873640 0.711757 0.002072
3.873518 0.698197 0.018473
3.873351 0.668951 0.008112
4.033489 0.700358 -0.035859
4.033577 0.721256 -0.013311
4.033476 0.710739 0.002387
4.033321 0.680637 -0.016282
3.873652 0.701390 -0.036192
3.873740 0.722289 -0.013645
3.873640 0.711771 0.002054
3.873484 0.681669 -0.016616
4.033676 0.725175 -0.048395
4.033689 0.733943 -0.027341
4.033577 0.721272 -0.013326
4.033489 0.700373 -0.035874
3.873839 0.726211 -0.048730
3.873852 0.734979 -0.027676
3.873741 0.722308 -0.013661
3.873653 0.701409 -0.036209
4.033863 0.752656 -0.052649
4.033816 0.754406 -0.024951
4.033689 0.733964 -0.027349
4.033676 0.725197 -0.048403
3.874027 0.753692 -0.052984
3.873980 0.755442 -0.025286
3.873852 0.735000 -0.027683
3.873840 0.726232 -0.048737
4.034032 0.780106 -0.048198
4.033936 0.773996 -0.021419
4.033816 0.754429 -0.024949
4.033863 0.752679 -0.052647
3.874196 0.781144 -0.048534
3.874100 0.775034 -0.021754
3.873980 0.755467 -0.025284
3.874027 0.753717 -0.052983
4.034166 0.804838 -0.035487
4.034045 0.793342 -0.013185
4.033936 0.774017 -0.021412
4.034032 0.780127 -0.048192
3.874330 0.805879 -0.035821
3.874209 0.794384 -0.013520
3.874100 0.775058 -0.021747
3.874196 0.781169 -0.048526
4.034253 0.824434 -0.015755
4.034137 0.810034 -0.005083
4.034045 0.793363 -0.013174
4.034166 0.804859 -0.035476
3.874416 0.825474 -0.016087
3.874301 0.811074 -0.005415
3.874209 0.794403 -0.013506
3.874330 0.805899 -0.035808
4.034283 0.836971 0.009065
4.034122 0.813849 0.014036
4.034137 0.810048 -0.005066
4.034253 0.824448 -0.015738
3.874446 0.838009 0.008735
3.874286 0.814887 0.013706
3.874301 0.811087 -0.005396
3.874416 0.825486 -0.016068
4.034253 0.841223 0.036550
4.034084 0.814625 0.035168
4.034122 0.813855 0.014060
4.034283 0.836977 0.009089
3.874417 0.842260 0.036218
3.874247 0.815663 0.034836
3.874286 0.814892 0.013729
3.874446 0.838014 0.008757
4.034167 0.836774 0.064003
4.034001 0.808467 0.055707
4.034083 0.814624 0.035193
4.034253 0.841222 0.036575
3.874331 0.837811 0.063668
3.874164 0.809503 0.055372
3.874247 0.815661 0.034859
3.874417 0.842259 0.036241
4.034033 0.824063 0.088735
4.033913 0.800901 0.074572
4.034001 0.808460 0.055728
4.034167 0.836768 0.064024
3.874197 0.825097 0.088403
3.874077 0.801935 0.074240
3.874164 0.809494 0.055397
3.874331 0.837802 0.063692
4.033864 0.804330 0.108333
4.033819 0.791867 0.091310
4.033913 0.800888 0.074595
4.034033 0.824050 0.088758
3.874027 0.805366 0.107996
3.873983 0.792902 0.090973
3.874076 0.801923 0.074257
3.874197 0.825085 0.088420
4.033677 0.779508 0.120869
4.033687 0.772245 0.093821
4.033819 0.791848 0.091323
4.033864 0.804312 0.108346
3.873840 0.780544 0.120531
3.873850 0.773281 0.093483
3.873983 0.792884 0.090985
3.874027 0.805348 0.108009
4.033489 0.752027 0.125120
4.033553 0.751407 0.093405
4.033686 0.772223 0.093826
4.033676 0.779485 0.120874
3.873653 0.753062 0.124782
3.873716 0.752442 0.093067
3.873850 0.773258 0.093487
3.873840 0.780520 0.120536
4.033320 0.724572 0.120672
4.033418 0.730512 0.092982
4.033553 0.751381 0.093405
4.033489 0.752001 0.125120
3.873484 0.725611 0.120333
3.873581 0.731551 0.092643
3.873716 0.752420 0.093066
3.873653 0.753040 0.124781
4.033187 0.699840 0.107960
4.033295 0.711018 0.090967
4.033418 0.730490 0.092976
4.033320 0.724549 0.120666
3.873351 0.700879 0.107623
3.873459 0.712056 0.090631
3.873581 0.731528 0.092639
3.873484 0.725587 0.120329
4.033270 0.701371 0.072874
4.033295 0.711000 0.090953
4.033187 0.699823 0.107946
4.033101 0.680245 0.088226
3.873434 0.702409 0.072540
3.873458 0.712037 0.090619
3.873350 0.700860 0.107611
3.873265 0.681283 0.087892
4.033254 0.693205 0.054845
4.033426 0.715119 0.040183
4.033452 0.726998 0.065453
4.033270 0.701382 0.072839
3.873418 0.694243 0.054517
3.873590 0.716156 0.039856
3.873615 0.728035 0.065125
3.873434 0.702420 0.072512
4.033240 0.685270 0.037164
4.033354 0.697174 0.018839
4.033426 0.715111 0.040164
4.033254 0.693197 0.054825
3.873404 0.686302 0.036835
3.873518 0.698205 0.018510
3.873590 0.716142 0.039834
3.873418 0.694228 0.054496
4.034045 0.793336 -0.013163
4.033989 0.791933 0.009465
4.033856 0.769330 0.002092
4.033936 0.774010 -0.021390
3.874208 0.794379 -0.013494
3.874153 0.792976 0.009133
3.874020 0.770373 0.001761
3.874100 0.775053 -0.021721
4.034083 0.814599 0.035166
4.033942 0.791345 0.030416
4.033989 0.791955 0.009493
4.034122 0.813829 0.014059
3.874247 0.815641 0.034835
3.874105 0.792387 0.030084
3.874153 0.792997 0.009161
3.874286 0.814871 0.013727
4.034001 0.808441 0.055699
4.033885 0.789133 0.051048
4.033942 0.791345 0.030435
4.034083 0.814599 0.035186
3.874164 0.809480 0.055370
3.874049 0.790171 0.050719
3.874105 0.792383 0.030106
3.874247 0.815637 0.034857
4.033913 0.800877 0.074563
4.033765 0.776700 0.070476
4.033885 0.789128 0.051068
4.034001 0.808436 0.055719
3.874076 0.801911 0.074233
3.873928 0.777734 0.070146
3.874049 0.790162 0.050738
3.874164 0.809471 0.055390
4.033418 0.730514 0.092948
4.033452 0.727028 0.065474
4.033642 0.754873 0.060891
4.033553 0.751382 0.093371
3.873581 0.731553 0.092618
3.873616 0.728068 0.065143
3.873806 0.755912 0.060561
3.873716 0.752421 0.093041
4.034137 0.810027 -0.005065
4.034122 0.813828 0.014037
4.033989 0.791954 0.009471
4.034045 0.793356 -0.013157
3.874301 0.811069 -0.005396
3.874286 0.814870 0.013707
3.874153 0.792996 0.009141
3.874209 0.794398 -0.013487
4.033819 0.791847 0.091302
4.033687 0.772244 0.093799
4.033765 0.776690 0.070499
4.033913 0.800867 0.074586
3.873983 0.792883 0.090965
3.873850 0.773280 0.093462
3.873928 0.777727 0.070163
3.874076 0.801904 0.074250
4.033452 0.727005 0.065477
4.033418 0.730491 0.092951
4.033295 0.711019 0.090943
4.033270 0.701390 0.072864
3.873615 0.728044 0.065145
3.873581 0.731529 0.092619
3.873459 0.712057 0.090610
3.873434 0.702428 0.072532
4.033816 0.754404 -0.024928
4.033708 0.745526 -0.000798
4.033577 0.721290 -0.013311
4.033689 0.733962 -0.027326
3.873980 0.755439 -0.025265
3.873871 0.746562 -0.001134
3.873741 0.722326 -0.013647
3.873852 0.734997 -0.027662
4.033802 0.768272 0.025622
4.033856 0.769328 0.002113
4.033989 0.791932 0.009486
4.033941 0.791323 0.030409
3.873965 0.769314 0.025293
3.874020 0.770370 0.001785
3.874153 0.792974 0.009157
3.874105 0.792364 0.030080
4.033708 0.745517 -0.000781
4.033607 0.738404 0.025697
4.033476 0.710763 0.002405
4.033577 0.721281 -0.013294
3.873871 0.746551 -0.001111
3.873771 0.739438 0.025367
3.873640 0.711798 0.002075
3.873741 0.722316 -0.013624
4.033801 0.768249 0.025617
4.033607 0.738428 0.025705
4.033708 0.745541 -0.000773
4.033856 0.769305 0.002109
3.873965 0.769288 0.025291
3.873771 0.739467 0.025379
3.873871 0.746580 -0.001100
3.874020 0.770344 0.001782
4.033885 0.789113 0.051041
4.033785 0.772032 0.045839
4.033802 0.768274 0.025642
4.033941 0.791325 0.030428
3.874049 0.790150 0.050716
3.873949 0.773070 0.045514
3.873965 0.769312 0.025317
3.874105 0.792362 0.030104
4.033354 0.697189 0.018823
4.033476 0.710749 0.002423
4.033607 0.738389 0.025716
4.033426 0.715125 0.040148
3.873518 0.698226 0.018493
3.873640 0.711785 0.002093
3.873771 0.739426 0.025386
3.873590 0.716162 0.039818
4.033785 0.772009 0.045841
4.033643 0.754890 0.060851
4.033607 0.738431 0.025731
4.033801 0.768251 0.025643
3.873948 0.773049 0.045515
3.873806 0.755930 0.060525
3.873771 0.739471 0.025405
3.873965 0.769291 0.025317
4.033452 0.727022 0.065442
4.033427 0.715143 0.040173
4.033607 0.738407 0.025740
4.033642 0.754866 0.060860
3.873616 0.728060 0.065115
3.873590 0.716182 0.039846
3.873771 0.739446 0.025414
3.873806 0.755905 0.060533
4.033765 0.776677 0.070469
4.033643 0.754906 0.060869
4.033785 0.772025 0.045859
4.033885 0.789105 0.051062
3.873928 0.777716 0.070141
3.873806 0.755944 0.060541
3.873949 0.773063 0.045531
3.874049 0.790144 0.050733
4.033643 0.754897 0.060894
4.033764 0.776668 0.070495
4.033686 0.772221 0.093795
4.033553 0.751406 0.093374
3.873806 0.755934 0.060561
3.873928 0.777706 0.070161
3.873850 0.773259 0.093461
3.873716 0.752443 0.093041
4.033856 0.769310 0.002088
4.033708 0.745546 -0.000794
4.033816 0.754424 -0.024924
4.033936 0.773991 -0.021394
3.874020 0.770349 0.001754
3.873872 0.746585 -0.001128
3.873980 0.755463 -0.025258
3.874100 0.775030 -0.021728
