3.777011 0.298640 -0.907732
3.805007 0.289027 -0.889781
3.793555 0.264569 -0.889728
3.767709 0.278981 -0.907692
3.748831 0.312005 -0.856545
3.776827 0.302392 -0.838595
3.765375 0.277934 -0.838542
3.739529 0.292346 -0.856506
3.766404 0.276738 -0.907695
3.792250 0.262326 -0.889731
3.776727 0.240228 -0.889832
3.753831 0.258992 -0.907779
3.740809 0.294547 -0.856503
3.766655 0.280135 -0.838539
3.751133 0.258037 -0.838640
3.728236 0.276801 -0.856587
3.752156 0.257009 -0.907796
3.775052 0.238245 -0.889849
3.755930 0.219177 -0.890101
3.736694 0.241715 -0.908002
3.729880 0.278746 -0.856571
3.752776 0.259982 -0.838623
3.733654 0.240914 -0.838875
3.714418 0.263452 -0.856776
3.734701 0.240053 -0.908033
3.753937 0.217515 -0.890132
3.731797 0.202057 -0.890528
3.716821 0.227676 -0.908354
3.716374 0.265083 -0.856745
3.735610 0.242545 -0.838845
3.713470 0.227086 -0.839240
3.698494 0.252706 -0.857066
3.714569 0.226386 -0.908399
3.729545 0.200766 -0.890572
3.705059 0.189387 -0.891099
3.694814 0.217301 -0.908825
3.700703 0.253972 -0.857023
3.715679 0.228353 -0.839196
3.691193 0.216973 -0.839723
3.680947 0.244888 -0.857449
3.692372 0.216421 -0.908882
3.702618 0.188507 -0.891155
3.676531 0.181553 -0.891797
3.671341 0.210906 -0.909400
3.683342 0.245751 -0.857394
3.693588 0.217837 -0.839667
3.667501 0.210883 -0.840309
3.662311 0.240236 -0.857912
3.668785 0.210464 -0.909467
3.673975 0.181110 -0.891864
3.647078 0.178793 -0.892602
3.647117 0.208685 -0.910063
3.664819 0.240670 -0.857847
3.670009 0.211317 -0.840244
3.643113 0.209000 -0.840982
3.643151 0.238891 -0.858443
3.644522 0.208693 -0.910138
3.644484 0.178801 -0.892676
3.617596 0.181190 -0.893487
3.622877 0.210704 -0.910792
3.645697 0.238883 -0.858369
3.645659 0.208992 -0.840908
3.618771 0.211381 -0.841719
3.624052 0.240895 -0.859024
3.620324 0.211163 -0.910873
3.615043 0.181649 -0.893568
3.588981 0.188672 -0.894428
3.599358 0.216904 -0.911566
3.626557 0.240445 -0.858945
3.621276 0.210931 -0.841640
3.595214 0.217954 -0.842500
3.605591 0.246186 -0.859638
3.700636 0.331554 -0.854153
3.721821 0.322994 -0.878356
3.714250 0.306767 -0.878320
3.694795 0.318761 -0.854054
3.740375 0.313379 -0.813125
3.761560 0.304819 -0.837328
3.753989 0.288591 -0.837292
3.734534 0.300586 -0.813026
3.721912 0.323162 -0.878369
3.743099 0.314599 -0.902638
3.733797 0.294940 -0.902599
3.714342 0.306934 -0.878333
3.761510 0.304630 -0.837363
3.782696 0.296068 -0.861633
3.773394 0.276409 -0.861593
3.753939 0.288403 -0.837327
3.696744 0.322196 -0.854038
3.716199 0.310202 -0.878303
3.705926 0.295535 -0.878370
3.688772 0.310608 -0.854086
3.732570 0.297122 -0.813043
3.752025 0.285128 -0.837308
3.741753 0.270461 -0.837375
3.724598 0.285534 -0.813091
3.716305 0.310310 -0.878329
3.735760 0.298316 -0.902595
3.723187 0.280570 -0.902679
3.706032 0.295643 -0.878395
3.751956 0.284993 -0.837331
3.771411 0.272999 -0.861597
3.758838 0.255253 -0.861681
3.741683 0.270326 -0.837397
3.691274 0.313612 -0.854061
3.708428 0.298539 -0.878345
3.695767 0.285878 -0.878511
3.681412 0.303584 -0.854188
3.722075 0.282506 -0.813116
3.739230 0.267433 -0.837400
3.726568 0.254772 -0.837566
3.712213 0.272478 -0.813243
3.708552 0.298627 -0.878370
3.725706 0.283554 -0.902653
3.710245 0.268260 -0.902859
3.695890 0.285966 -0.878536
3.739138 0.267312 -0.837423
3.756293 0.252239 -0.861707
3.740831 0.236944 -0.861913
3.726476 0.254651 -0.837590
3.684397 0.306108 -0.854141
3.698752 0.288402 -0.878464
3.684086 0.278131 -0.878726
3.672945 0.297944 -0.854343
3.709204 0.269933 -0.813290
3.723558 0.252227 -0.837613
3.708892 0.241957 -0.837874
3.697751 0.261770 -0.813492
3.698889 0.288467 -0.878489
3.713244 0.270761 -0.902812
3.695363 0.258384 -0.903133
3.684222 0.278197 -0.878750
3.723447 0.252124 -0.837637
3.737802 0.234418 -0.861960
3.719921 0.222041 -0.862281
3.708781 0.241854 -0.837899
3.676323 0.299911 -0.854277
3.687463 0.280098 -0.878659
3.671238 0.272531 -0.879008
3.663628 0.293860 -0.854547
3.694346 0.259787 -0.813559
3.705487 0.239974 -0.837941
3.689261 0.232406 -0.838290
3.681651 0.253736 -0.813829
3.687609 0.280139 -0.878683
3.698750 0.260327 -0.903066
3.678994 0.251242 -0.903492
3.671384 0.272572 -0.879032
3.705359 0.239891 -0.837966
3.716500 0.220079 -0.862349
3.696744 0.210994 -0.862775
3.689134 0.232324 -0.838315
3.667296 0.295211 -0.854463
3.674906 0.273882 -0.878923
3.657615 0.269247 -0.879349
3.653745 0.291457 -0.854794
3.677954 0.252374 -0.813914
3.685564 0.231044 -0.838375
3.668272 0.226409 -0.838800
3.664403 0.248620 -0.814246
3.675057 0.273897 -0.878947
3.682667 0.252567 -0.903407
3.661636 0.247052 -0.903926
3.657766 0.269262 -0.879372
3.685424 0.230986 -0.838401
3.693034 0.209656 -0.862861
3.672003 0.204141 -0.863380
3.668133 0.226351 -0.838826
3.657591 0.292150 -0.854694
3.661461 0.269940 -0.879249
3.643629 0.268378 -0.879737
3.643595 0.290806 -0.855076
3.660525 0.247921 -0.814346
3.664395 0.225710 -0.838901
3.646563 0.224149 -0.839389
3.646529 0.246577 -0.814728
3.661612 0.269929 -0.879271
3.665483 0.247719 -0.903826
3.643814 0.245940 -0.904421
3.643781 0.268367 -0.879760
3.664247 0.225677 -0.838927
3.668117 0.203467 -0.863481
3.646449 0.201688 -0.864077
3.646415 0.224116 -0.839416
3.647503 0.290821 -0.854964
3.647537 0.268393 -0.879625
3.629706 0.269953 -0.880163
3.633487 0.291928 -0.855384
3.642589 0.246562 -0.814841
3.642623 0.224134 -0.839502
3.624793 0.225694 -0.840040
3.628574 0.247669 -0.815262
3.647684 0.268356 -0.879648
3.647718 0.245928 -0.904309
3.626073 0.247940 -0.904963
3.629854 0.269915 -0.880185
3.642472 0.224127 -0.839529
3.642506 0.201700 -0.864191
3.620861 0.203711 -0.864845
3.624642 0.225687 -0.840067
3.637338 0.291264 -0.855263
3.633557 0.269288 -0.880041
3.616270 0.273921 -0.880611
3.623729 0.294789 -0.855710
3.624691 0.248339 -0.815384
3.620910 0.226364 -0.840162
3.603623 0.230997 -0.840732
3.611082 0.251864 -0.815831
3.633696 0.269226 -0.880064
3.629915 0.247251 -0.904842
3.608949 0.252991 -0.905535
3.616408 0.273859 -0.880634
3.620761 0.226383 -0.840189
3.616980 0.204408 -0.864968
3.596014 0.210148 -0.865661
3.603473 0.231016 -0.840759
3.682028 0.334140 -0.867043
3.722689 0.321227 -0.863490
3.716848 0.308433 -0.863392
3.694830 0.313537 -0.865230
3.677610 0.336639 -0.807318
3.718271 0.323726 -0.803766
3.712430 0.310932 -0.803667
3.690412 0.316036 -0.805505
3.694769 0.313378 -0.865227
3.716787 0.308275 -0.863389
3.708815 0.296687 -0.863437
3.697779 0.302447 -0.864484
3.690473 0.316167 -0.805506
3.712492 0.311063 -0.803668
3.704520 0.299475 -0.803717
3.693483 0.305236 -0.804764
3.681906 0.334004 -0.867046
3.694708 0.313401 -0.865232
3.682521 0.308898 -0.865837
3.673855 0.321560 -0.867083
3.677690 0.336776 -0.807319
3.690492 0.316173 -0.805505
3.678305 0.311669 -0.806110
3.669639 0.324332 -0.807356
3.694607 0.313239 -0.865231
3.697617 0.302308 -0.864489
3.689561 0.297198 -0.864745
3.682420 0.308736 -0.865836
3.690608 0.316307 -0.805504
3.693618 0.305376 -0.804761
3.685562 0.300266 -0.805018
3.678421 0.311803 -0.806109
3.697610 0.302239 -0.864486
3.708646 0.296479 -0.863439
3.698784 0.286450 -0.863566
3.689553 0.297129 -0.864742
3.693641 0.305425 -0.804762
3.704677 0.299664 -0.803715
3.694815 0.289636 -0.803842
3.685584 0.300315 -0.805019
3.673483 0.321220 -0.867089
3.682150 0.308557 -0.865844
3.671465 0.302956 -0.866157
3.661286 0.312803 -0.867309
3.669988 0.324657 -0.807350
3.678654 0.311994 -0.806104
3.667970 0.306393 -0.806417
3.657791 0.316240 -0.807569
3.682184 0.308526 -0.865840
3.689325 0.296989 -0.864749
3.679112 0.291098 -0.865008
3.671500 0.302925 -0.866153
3.678637 0.312002 -0.806106
3.685777 0.300464 -0.805015
3.675564 0.294574 -0.805274
3.667952 0.306401 -0.806419
3.689333 0.296961 -0.864747
3.698564 0.286282 -0.863570
3.687111 0.278118 -0.863772
3.679120 0.291070 -0.865006
3.685785 0.300469 -0.805015
3.695016 0.289790 -0.803838
3.683563 0.281626 -0.804040
3.675572 0.294578 -0.805274
3.661054 0.312594 -0.867309
3.671232 0.302747 -0.866157
3.663155 0.299064 -0.866331
3.658010 0.316436 -0.807569
3.668189 0.306589 -0.806417
3.660112 0.302906 -0.806592
3.671240 0.302755 -0.866157
3.678852 0.290928 -0.865012
3.668326 0.286064 -0.865242
3.663163 0.299072 -0.866331
3.668192 0.306560 -0.806415
3.675804 0.294734 -0.805271
3.665278 0.289869 -0.805501
3.660115 0.302877 -0.806590
3.678869 0.290923 -0.865011
3.686861 0.277971 -0.863777
3.674166 0.271921 -0.864047
3.668344 0.286059 -0.865241
3.675800 0.294713 -0.805270
3.683791 0.281761 -0.804035
3.671097 0.275710 -0.804306
3.665274 0.289848 -0.805500
3.660712 0.312550 -0.867321
3.662814 0.299019 -0.866344
3.651725 0.294743 -0.866508
3.646225 0.309441 -0.867689
3.658333 0.316479 -0.807557
3.660435 0.302948 -0.806580
3.649346 0.298672 -0.806745
3.643846 0.313370 -0.807926
3.662866 0.298983 -0.866339
3.668029 0.285975 -0.865250
3.657012 0.282005 -0.865452
3.651777 0.294707 -0.866504
3.660392 0.302958 -0.806583
3.665555 0.289950 -0.805493
3.654538 0.285980 -0.805696
3.649303 0.298682 -0.806747
3.668072 0.285958 -0.865247
3.673894 0.271820 -0.864054
3.660343 0.268065 -0.864385
3.657055 0.281988 -0.865450
3.665523 0.289940 -0.805494
3.671345 0.275801 -0.804300
3.657794 0.272047 -0.804632
3.654505 0.285970 -0.805696
3.645723 0.309387 -0.867702
3.651223 0.294689 -0.866521
3.640395 0.288427 -0.866413
3.631152 0.312060 -0.868163
3.644322 0.313419 -0.807914
3.649821 0.298721 -0.806733
3.638993 0.292459 -0.806625
3.629750 0.316092 -0.808375
3.651471 0.294660 -0.866512
3.656707 0.281958 -0.865460
3.647767 0.279037 -0.865568
3.640642 0.288398 -0.866404
3.649587 0.298720 -0.806739
3.654823 0.286018 -0.805688
3.645883 0.283097 -0.805795
3.638758 0.292458 -0.806632
3.656786 0.281925 -0.865456
3.660075 0.268002 -0.864391
3.646079 0.266658 -0.864773
3.647847 0.279004 -0.865563
3.654750 0.286027 -0.805691
3.658038 0.272104 -0.804626
3.644042 0.270760 -0.805008
3.645810 0.283106 -0.805798
3.647579 0.279004 -0.865571
3.645811 0.266659 -0.864781
3.631796 0.267766 -0.865201
3.640454 0.288365 -0.866407
3.646056 0.283109 -0.805791
3.644288 0.270763 -0.805001
3.630273 0.271870 -0.805421
3.638931 0.292469 -0.806627
3.640189 0.288435 -0.866418
3.631530 0.267836 -0.865212
3.617921 0.271361 -0.865658
3.630947 0.312068 -0.868168
3.639175 0.292418 -0.806619
3.630516 0.271819 -0.805413
3.616907 0.275344 -0.805859
3.629932 0.316051 -0.808369
3.811585 0.249850 -0.858896
3.802391 0.259819 -0.879704
3.824675 0.276163 -0.858930
3.765769 0.272683 -0.827712
3.756575 0.282652 -0.848520
3.778860 0.298997 -0.827747
3.708782 0.166395 -0.861088
3.732976 0.191627 -0.881174
3.735715 0.178143 -0.860497
3.688077 0.212217 -0.828463
3.712271 0.237450 -0.848549
3.715010 0.223965 -0.827871
3.739856 0.180208 -0.860110
3.737117 0.193692 -0.880788
3.759258 0.209151 -0.880392
3.764343 0.196455 -0.859660
3.710909 0.221929 -0.828264
3.708170 0.235413 -0.848941
3.730310 0.250872 -0.848546
3.735395 0.238176 -0.827813
3.767729 0.199218 -0.859606
3.762644 0.211914 -0.880338
3.781766 0.230982 -0.880086
3.789025 0.219470 -0.859310
3.732052 0.235448 -0.827867
3.726967 0.248144 -0.848599
3.746089 0.267212 -0.848347
3.753348 0.255700 -0.827571
3.784621 0.234292 -0.880056
3.800144 0.256390 -0.879955
3.809338 0.246421 -0.859147
3.791880 0.222779 -0.859280
3.743271 0.263946 -0.848377
3.758793 0.286044 -0.848276
3.767988 0.276075 -0.827468
3.750530 0.252433 -0.827600
3.596923 0.217799 -0.911650
3.586546 0.189567 -0.894512
3.562101 0.201012 -0.895394
3.577274 0.227095 -0.912361
3.607980 0.245307 -0.859555
3.597603 0.217076 -0.842418
3.573158 0.228520 -0.843300
3.588331 0.254603 -0.860266
3.575032 0.228399 -0.912445
3.559859 0.202316 -0.895479
3.537774 0.217834 -0.896357
3.557297 0.240968 -0.913152
3.590531 0.253323 -0.860183
3.575358 0.227240 -0.843217
3.553273 0.242758 -0.844095
3.572796 0.265892 -0.860890
3.555316 0.242642 -0.913236
3.535792 0.219508 -0.896441
3.516738 0.238627 -0.897288
3.540033 0.258101 -0.913917
3.574740 0.264249 -0.860808
3.555217 0.241115 -0.844013
3.536163 0.260234 -0.844860
3.559457 0.279708 -0.861490
3.538372 0.260094 -0.913996
3.515078 0.240620 -0.897367
3.499634 0.262760 -0.898158
3.526007 0.277975 -0.914632
3.561086 0.277752 -0.861412
3.537792 0.258278 -0.844783
3.522348 0.280418 -0.845574
3.548721 0.295632 -0.862048
3.524718 0.280226 -0.914704
3.498345 0.265011 -0.898230
3.486980 0.289499 -0.898940
3.515645 0.299984 -0.915274
3.549986 0.293423 -0.861977
3.523613 0.278208 -0.845503
3.512248 0.302696 -0.846213
3.540913 0.313181 -0.862547
3.514767 0.302425 -0.915338
3.486101 0.291940 -0.899004
3.479161 0.318032 -0.899611
3.509262 0.323460 -0.915825
3.541775 0.310785 -0.862484
3.513110 0.300301 -0.846151
3.506170 0.326392 -0.846758
3.536271 0.331820 -0.862972
3.508821 0.326017 -0.915878
3.478720 0.320589 -0.899664
3.476415 0.347492 -0.900151
3.507052 0.347690 -0.916268
3.536704 0.329311 -0.862920
3.506603 0.323883 -0.846707
3.504298 0.350786 -0.847194
3.534935 0.350985 -0.863310
3.507061 0.350285 -0.916308
3.476424 0.350087 -0.900191
3.478825 0.376984 -0.900543
3.509082 0.371938 -0.916588
3.534926 0.348438 -0.863271
3.504289 0.348240 -0.847154
3.506690 0.375137 -0.847506
3.536947 0.370091 -0.863551
3.509541 0.374492 -0.916615
3.479284 0.379538 -0.900570
3.486318 0.405611 -0.900775
3.515290 0.395467 -0.916778
3.536496 0.367585 -0.863525
3.506239 0.372630 -0.847480
3.513272 0.398703 -0.847685
3.542245 0.388559 -0.863688
3.627406 0.293466 -0.855584
3.619946 0.272598 -0.880485
3.603727 0.280164 -0.881070
3.614616 0.299302 -0.856043
3.607376 0.253198 -0.815958
3.599916 0.232331 -0.840860
3.583697 0.239897 -0.841445
3.594587 0.259034 -0.816418
3.620072 0.272513 -0.880507
3.612613 0.251645 -0.905408
3.592963 0.260941 -0.906119
3.603853 0.280079 -0.881092
3.599772 0.232376 -0.840887
3.592313 0.211508 -0.865788
3.572664 0.220804 -0.866499
3.583553 0.239942 -0.841472
3.618007 0.297360 -0.855915
3.607117 0.278222 -0.880942
3.592459 0.288491 -0.881524
3.606426 0.305329 -0.856373
3.591168 0.260992 -0.816547
3.580279 0.241854 -0.841574
3.565621 0.252123 -0.842156
3.579587 0.268961 -0.817004
3.607227 0.278117 -0.880964
3.596338 0.258979 -0.905992
3.578602 0.271548 -0.906698
3.592568 0.288385 -0.881547
3.580144 0.241924 -0.841601
3.569255 0.222786 -0.866628
3.551520 0.235355 -0.867335
3.565486 0.252193 -0.842184
3.609428 0.302827 -0.856247
3.595461 0.285989 -0.881399
3.582810 0.298649 -0.881961
3.599407 0.312687 -0.856690
3.576560 0.271483 -0.817131
3.562594 0.254645 -0.842283
3.549942 0.267305 -0.842845
3.566540 0.281343 -0.817574
3.595550 0.285866 -0.881422
3.581584 0.269029 -0.906573
3.566302 0.284488 -0.907255
3.582899 0.298526 -0.881984
3.562474 0.254737 -0.842310
3.548508 0.237899 -0.867462
3.533225 0.253358 -0.868143
3.549823 0.267397 -0.842872
3.601929 0.309703 -0.856571
3.585332 0.295664 -0.881842
3.575071 0.310330 -0.882366
3.593773 0.321155 -0.856984
3.563998 0.284353 -0.817694
3.547400 0.270314 -0.842965
3.537139 0.284980 -0.843490
3.555842 0.295805 -0.818108
3.585398 0.295528 -0.881865
3.568801 0.281489 -0.907136
3.556435 0.299369 -0.907772
3.575137 0.310194 -0.882390
3.547298 0.270426 -0.842992
3.530701 0.256387 -0.868263
3.518335 0.274267 -0.868899
3.537037 0.285092 -0.843517
3.595738 0.317777 -0.856875
3.577036 0.306952 -0.882257
3.569478 0.323179 -0.882728
3.589694 0.330472 -0.857247
3.553861 0.299210 -0.818218
3.535158 0.288386 -0.843600
3.527600 0.304612 -0.844071
3.547817 0.311905 -0.818590
3.577078 0.306806 -0.882281
3.558376 0.295982 -0.907663
3.549303 0.315740 -0.908233
3.569520 0.323033 -0.882752
3.535077 0.288514 -0.843627
3.516375 0.277689 -0.869009
3.507302 0.297447 -0.869579
3.527519 0.304740 -0.844098
3.591043 0.326804 -0.857151
3.570826 0.319510 -0.882632
3.566200 0.336805 -0.883036
3.587296 0.340357 -0.857471
3.546457 0.315604 -0.818687
3.526241 0.308311 -0.844168
3.521615 0.325605 -0.844572
3.542710 0.329157 -0.819007
3.570843 0.319360 -0.882657
3.550626 0.312067 -0.908137
3.545121 0.333101 -0.908625
3.566217 0.336654 -0.883060
3.526183 0.308450 -0.844195
3.505966 0.301157 -0.869675
3.500462 0.322192 -0.870163
3.521557 0.325745 -0.844598
3.587987 0.336510 -0.857391
3.566891 0.332958 -0.882956
3.565339 0.350794 -0.883279
3.586649 0.350510 -0.857649
3.542014 0.333035 -0.819088
3.520918 0.329483 -0.844652
3.519365 0.347319 -0.844976
3.540676 0.347035 -0.819345
3.566882 0.332806 -0.882981
3.545786 0.329254 -0.908545
3.544018 0.350927 -0.908935
3.565329 0.350643 -0.883304
3.520885 0.329631 -0.844679
3.499790 0.326079 -0.870243
3.498021 0.347752 -0.870633
3.519332 0.347468 -0.845002
3.586662 0.346600 -0.857587
3.565351 0.346885 -0.883218
3.566919 0.364721 -0.883452
3.587776 0.360620 -0.857774
3.540663 0.350976 -0.819407
3.519352 0.351261 -0.845038
3.520919 0.369097 -0.845272
3.541777 0.364996 -0.819595
3.565315 0.346738 -0.883244
3.544004 0.347022 -0.908875
3.546025 0.368675 -0.909155
3.566883 0.364574 -0.883478
3.519346 0.351412 -0.845063
3.498035 0.351696 -0.870694
3.500055 0.373349 -0.870975
3.520913 0.369248 -0.845297
3.587111 0.356769 -0.857733
3.566253 0.360870 -0.883411
3.570892 0.378164 -0.883548
3.590640 0.370383 -0.857845
3.542448 0.368879 -0.819636
3.521590 0.372980 -0.845313
3.526230 0.390275 -0.845450
3.545978 0.382494 -0.819747
3.566192 0.360731 -0.883438
3.545334 0.364832 -0.909115
3.551083 0.385806 -0.909278
3.570831 0.378026 -0.883575
3.521611 0.373131 -0.845338
3.500753 0.377232 -0.871015
3.506502 0.398206 -0.871178
3.526250 0.390425 -0.845475
3.630575 0.312196 -0.868180
3.617549 0.271489 -0.865671
3.604760 0.277325 -0.866130
3.609922 0.299366 -0.867451
3.630276 0.315934 -0.808357
3.617251 0.275227 -0.805848
3.604461 0.281063 -0.806307
3.609623 0.303104 -0.807628
3.609693 0.299479 -0.867458
3.604531 0.277437 -0.866137
3.592950 0.285406 -0.866595
3.598742 0.296457 -0.867241
3.609824 0.302991 -0.807621
3.604662 0.280949 -0.806300
3.593081 0.288918 -0.806758
3.598874 0.299968 -0.807404
3.630368 0.312370 -0.868191
3.609715 0.299540 -0.867461
3.605233 0.311733 -0.868106
3.617932 0.320417 -0.868674
3.630483 0.315802 -0.808349
3.609830 0.302972 -0.807620
3.605348 0.315165 -0.808264
3.618047 0.323850 -0.808833
3.609554 0.299641 -0.867466
3.598603 0.296619 -0.867249
3.593503 0.304677 -0.867626
3.605072 0.311834 -0.868111
3.609964 0.302855 -0.807614
3.599014 0.299833 -0.807397
3.593913 0.307891 -0.807774
3.605482 0.315048 -0.808258
3.598534 0.296626 -0.867249
3.592742 0.285575 -0.866603
3.582721 0.295436 -0.867046
3.593434 0.304684 -0.867626
3.599063 0.299811 -0.807396
3.593270 0.288761 -0.806750
3.583250 0.298621 -0.807193
3.593963 0.307869 -0.807773
3.617591 0.320789 -0.868691
3.604893 0.312104 -0.868122
3.599302 0.322791 -0.868543
3.609182 0.332986 -0.869124
3.618371 0.323500 -0.808817
3.605673 0.314815 -0.808249
3.600082 0.325502 -0.808670
3.609962 0.335697 -0.809250
3.604862 0.312069 -0.868120
3.593293 0.304913 -0.867636
3.587412 0.315127 -0.868023
3.599272 0.322756 -0.868541
3.605681 0.314833 -0.808250
3.594112 0.307676 -0.807765
3.588231 0.317890 -0.808152
3.600090 0.325520 -0.808671
3.593265 0.304904 -0.867635
3.582552 0.295656 -0.867055
3.574396 0.307108 -0.867469
3.587384 0.315119 -0.868022
3.594117 0.307668 -0.807765
3.583404 0.298420 -0.807185
3.575248 0.309872 -0.807599
3.588235 0.317882 -0.808152
3.608974 0.333218 -0.869130
3.599093 0.323023 -0.868550
3.595415 0.331101 -0.868782
3.610158 0.335478 -0.809244
3.600278 0.325283 -0.808664
3.596600 0.333361 -0.808896
3.599102 0.323016 -0.868550
3.587242 0.315386 -0.868031
3.582384 0.325913 -0.868339
3.595423 0.331093 -0.868782
3.600250 0.325280 -0.808663
3.588390 0.317650 -0.808145
3.583532 0.328177 -0.808452
3.596571 0.333357 -0.808895
3.587237 0.315369 -0.868030
3.574250 0.307359 -0.867477
3.568206 0.320054 -0.867849
3.582379 0.325895 -0.868338
3.588369 0.317654 -0.808144
3.575382 0.309644 -0.807591
3.569338 0.322340 -0.807964
3.583511 0.328181 -0.808452
3.608929 0.333560 -0.869140
3.595371 0.331443 -0.868792
3.591097 0.342532 -0.869000
3.605828 0.348050 -0.869456
3.610201 0.335155 -0.809235
3.596642 0.333037 -0.808887
3.592368 0.344127 -0.809095
3.607100 0.349645 -0.809551
3.595335 0.331391 -0.868790
3.582296 0.326210 -0.868347
3.578329 0.337228 -0.868580
3.591061 0.342480 -0.868998
3.596651 0.333080 -0.808888
3.583612 0.327900 -0.808445
3.579646 0.338917 -0.808679
3.592378 0.344169 -0.809096
3.582279 0.326167 -0.868345
3.568105 0.320326 -0.867857
3.564359 0.333880 -0.868176
3.578312 0.337185 -0.868579
3.583602 0.327933 -0.808446
3.569429 0.322091 -0.807957
3.565683 0.335645 -0.808277
3.579636 0.338950 -0.808679
3.605774 0.348552 -0.869464
3.591043 0.343033 -0.869008
3.584773 0.353858 -0.869037
3.608453 0.363128 -0.869615
3.607148 0.349169 -0.809543
3.592417 0.343651 -0.809087
3.586148 0.354476 -0.809116
3.609828 0.363746 -0.809694
3.591014 0.342785 -0.869004
3.578283 0.337533 -0.868587
3.575362 0.346473 -0.868706
3.584745 0.353610 -0.869033
3.592415 0.343885 -0.809091
3.579684 0.338633 -0.808673
3.576763 0.347573 -0.808792
3.586146 0.354710 -0.809119
3.578249 0.337453 -0.868584
3.564296 0.334148 -0.868182
3.562958 0.348147 -0.868439
3.575328 0.346393 -0.868704
3.579693 0.338706 -0.808675
3.565740 0.335400 -0.808272
3.564402 0.349400 -0.808530
3.576772 0.347645 -0.808794
3.575329 0.346661 -0.868708
3.562959 0.348415 -0.868444
3.564072 0.362435 -0.868631
3.584712 0.353799 -0.869035
3.576775 0.347400 -0.808790
3.564404 0.349154 -0.808526
3.565518 0.363174 -0.808713
3.586158 0.354537 -0.809117
3.584782 0.354064 -0.869039
3.564143 0.362700 -0.868635
3.567672 0.376315 -0.868746
3.608462 0.363334 -0.869617
3.586106 0.354294 -0.809114
3.565467 0.362931 -0.808710
3.568997 0.376545 -0.808821
3.609786 0.363564 -0.809692
3.546043 0.182574 -0.865484
3.556918 0.192044 -0.885707
3.572343 0.169493 -0.864523
3.567432 0.227982 -0.832721
3.578307 0.237451 -0.852943
3.593732 0.214900 -0.831759
3.462682 0.285377 -0.870031
3.488801 0.261455 -0.889293
3.474414 0.258441 -0.869272
3.506994 0.305662 -0.835135
3.533113 0.281741 -0.854397
3.518727 0.278727 -0.834376
3.476464 0.254296 -0.868849
3.490850 0.257310 -0.888869
3.506294 0.235170 -0.888079
3.492695 0.229810 -0.867999
3.516706 0.282832 -0.834804
3.531093 0.285846 -0.854825
3.546537 0.263706 -0.854035
3.532937 0.258346 -0.833955
3.495456 0.226423 -0.867866
3.509055 0.231784 -0.887946
3.528109 0.212665 -0.887099
3.515692 0.205131 -0.866951
3.530212 0.261689 -0.834085
3.543811 0.267049 -0.854165
3.562865 0.247930 -0.853318
3.550448 0.240396 -0.833170
3.531416 0.209810 -0.886959
3.553502 0.194292 -0.886081
3.542627 0.184823 -0.865858
3.518999 0.202276 -0.866811
3.559601 0.250748 -0.853456
3.581686 0.235231 -0.852578
3.570811 0.225762 -0.832355
3.547184 0.243215 -0.833308
3.516186 0.397903 -0.916790
3.487214 0.408047 -0.900788
3.498666 0.432504 -0.900841
3.525489 0.417562 -0.916830
3.541365 0.386169 -0.863675
3.512393 0.396313 -0.847673
3.523845 0.420771 -0.847726
3.550668 0.405828 -0.863715
3.526794 0.419805 -0.916827
3.499971 0.434747 -0.900838
3.515494 0.456846 -0.900737
3.539367 0.437551 -0.916743
3.549387 0.403627 -0.863718
3.522564 0.418570 -0.847728
3.538087 0.440668 -0.847627
3.561960 0.421373 -0.863633
3.541042 0.439534 -0.916726
3.517169 0.458829 -0.900720
3.536291 0.477897 -0.900468
3.556503 0.454828 -0.916520
3.560317 0.419428 -0.863650
3.536443 0.438723 -0.847644
3.555566 0.457791 -0.847392
3.575778 0.434722 -0.863445
3.558496 0.456490 -0.916489
3.538284 0.479559 -0.900437
3.560424 0.495018 -0.900041
3.576377 0.468867 -0.916168
3.573822 0.433091 -0.863475
3.553610 0.456160 -0.847423
3.575750 0.471619 -0.847028
3.591702 0.445468 -0.863154
3.578628 0.470157 -0.916123
3.562675 0.496308 -0.899997
3.587161 0.507687 -0.899470
3.598384 0.479242 -0.915697
3.589493 0.444202 -0.863198
3.573541 0.470353 -0.847071
3.598027 0.481732 -0.846545
3.609250 0.453286 -0.862772
3.600825 0.480122 -0.915640
3.589602 0.508567 -0.899413
3.615690 0.515521 -0.898772
3.621856 0.485637 -0.915122
3.606854 0.452423 -0.862827
3.595631 0.480868 -0.846600
3.621719 0.487822 -0.845958
3.627885 0.457938 -0.862309
3.624413 0.486080 -0.915055
3.618246 0.515964 -0.898705
3.645142 0.518281 -0.897967
3.646081 0.487859 -0.914459
3.625377 0.457504 -0.862374
3.619210 0.487388 -0.846024
3.646106 0.489706 -0.845286
3.647045 0.459283 -0.861778
3.648675 0.487850 -0.914385
3.647736 0.518273 -0.897893
3.674624 0.515884 -0.897082
3.670320 0.485839 -0.913730
3.644499 0.459291 -0.861851
3.643560 0.489714 -0.845359
3.670448 0.487325 -0.844548
3.666144 0.457279 -0.861197
3.672874 0.485380 -0.913650
3.677177 0.515425 -0.897001
3.703240 0.508402 -0.896141
3.693840 0.479639 -0.912956
3.663639 0.457729 -0.861276
3.667943 0.487775 -0.844628
3.694006 0.480751 -0.843768
3.684605 0.451988 -0.860583
3.589316 0.366705 -0.857825
3.569568 0.374486 -0.883528
3.577139 0.390713 -0.883564
3.595156 0.379501 -0.857857
3.547313 0.386202 -0.819767
3.527565 0.393983 -0.845470
3.535136 0.410211 -0.845506
3.553153 0.398998 -0.819799
3.569484 0.374360 -0.883556
3.549735 0.382141 -0.909259
3.559038 0.401800 -0.909299
3.577055 0.390588 -0.883592
3.527611 0.394128 -0.845494
3.507863 0.401909 -0.871197
3.517166 0.421568 -0.871237
3.535182 0.410356 -0.845530
3.593213 0.376108 -0.857860
3.575196 0.387321 -0.883567
3.585468 0.401987 -0.883501
3.601185 0.387696 -0.857812
3.555112 0.402419 -0.819796
3.537095 0.413631 -0.845503
3.547367 0.428298 -0.845437
3.563084 0.414007 -0.819748
3.575091 0.387211 -0.883596
3.557075 0.398424 -0.909302
3.569647 0.416170 -0.909218
3.585364 0.401878 -0.883530
3.537166 0.413766 -0.845526
3.519149 0.424978 -0.871233
3.531722 0.442724 -0.871149
3.547438 0.428433 -0.845460
3.598683 0.384692 -0.857837
3.582967 0.398984 -0.883526
3.595628 0.411645 -0.883360
3.608545 0.394720 -0.857710
3.565606 0.417035 -0.819723
3.549890 0.431326 -0.845412
3.562551 0.443988 -0.845246
3.575468 0.427063 -0.819596
3.582845 0.398895 -0.883555
3.567128 0.413186 -0.909244
3.582590 0.428480 -0.909038
3.595507 0.411556 -0.883389
3.549983 0.431447 -0.845434
3.534266 0.445738 -0.871122
3.549728 0.461032 -0.870917
3.562645 0.444108 -0.845267
3.604943 0.392010 -0.857999
3.592026 0.408935 -0.883649
3.606692 0.419205 -0.883387
3.616409 0.400137 -0.858769
3.579095 0.429794 -0.819307
3.566178 0.446719 -0.844957
3.580845 0.456989 -0.844695
3.590561 0.437921 -0.820077
3.592508 0.409055 -0.883436
3.579591 0.425979 -0.909086
3.597471 0.438356 -0.908765
3.607174 0.419325 -0.883175
3.565674 0.446635 -0.845220
3.552757 0.463559 -0.870869
3.570637 0.475936 -0.870548
3.580340 0.456905 -0.844958
3.613601 0.398724 -0.859007
3.603885 0.417792 -0.883625
3.620110 0.425360 -0.883276
3.626293 0.404781 -0.858570
3.593396 0.439350 -0.819839
3.583680 0.458418 -0.844457
3.599905 0.465986 -0.844109
3.606088 0.445407 -0.819402
3.603787 0.417382 -0.883242
3.594084 0.436414 -0.908832
3.613840 0.445498 -0.908405
3.620012 0.424950 -0.882893
3.583762 0.458867 -0.844891
3.574059 0.477898 -0.870480
3.593815 0.486983 -0.870054
3.599987 0.466435 -0.844542
3.622686 0.403371 -0.858584
3.616503 0.423949 -0.883290
3.633794 0.428584 -0.882865
3.636235 0.407131 -0.858118
3.609725 0.446828 -0.819388
3.603542 0.467407 -0.844094
3.620833 0.472041 -0.843669
3.623275 0.450588 -0.818922
3.616339 0.423625 -0.882978
3.610167 0.444173 -0.908490
3.631198 0.449689 -0.907972
3.633630 0.428260 -0.882553
3.603697 0.467773 -0.844456
3.597525 0.488321 -0.869968
3.618556 0.493836 -0.869449
3.620989 0.472408 -0.844031
3.632205 0.406436 -0.858251
3.629764 0.427890 -0.882999
3.647596 0.429451 -0.882510
3.646205 0.407771 -0.858104
3.627336 0.451288 -0.818788
3.624895 0.472742 -0.843535
3.642726 0.474303 -0.843046
3.641335 0.452623 -0.818641
3.629784 0.427593 -0.882654
3.627352 0.449022 -0.908072
3.649020 0.450801 -0.907476
3.647616 0.429155 -0.882165
3.624874 0.473081 -0.843930
3.622442 0.494510 -0.869348
3.644110 0.496289 -0.868752
3.642706 0.474643 -0.843441
3.642138 0.407985 -0.858425
3.643529 0.429665 -0.882830
3.661359 0.428106 -0.882293
3.656162 0.406855 -0.858601
3.645434 0.452410 -0.818320
3.646825 0.474090 -0.842725
3.664656 0.472530 -0.842188
3.659458 0.451279 -0.818496
3.643712 0.429166 -0.882277
3.645116 0.450812 -0.907589
3.666761 0.448800 -0.906934
3.661543 0.427607 -0.881740
3.646649 0.474631 -0.843328
3.648053 0.496277 -0.868639
3.669698 0.494266 -0.867984
3.664480 0.473072 -0.842790
3.652754 0.407637 -0.858880
3.657952 0.428888 -0.882572
3.675240 0.424255 -0.882002
3.666365 0.404108 -0.858555
3.662897 0.450491 -0.818217
3.668095 0.471742 -0.841908
3.685383 0.467109 -0.841338
3.676508 0.446961 -0.817892
3.657700 0.428296 -0.881861
3.662919 0.449490 -0.907055
3.683885 0.443749 -0.906362
3.674988 0.423663 -0.881291
3.668361 0.472376 -0.842668
3.673579 0.493570 -0.867862
3.694545 0.487828 -0.867169
3.685648 0.467743 -0.842098
3.608590 0.363706 -0.869618
3.567800 0.376687 -0.868748
3.573640 0.389483 -0.868780
3.595723 0.384345 -0.869188
3.609669 0.363220 -0.809690
3.568879 0.376201 -0.808819
3.574719 0.388997 -0.808852
3.596802 0.383858 -0.809260
3.595836 0.384574 -0.869187
3.573753 0.389712 -0.868779
3.581725 0.401300 -0.868731
3.592798 0.395520 -0.868961
3.596689 0.383657 -0.809261
3.574606 0.388796 -0.808852
3.582578 0.400384 -0.808804
3.593651 0.394603 -0.809034
3.608763 0.363913 -0.869619
3.595897 0.384551 -0.869189
3.608103 0.389044 -0.869233
3.616814 0.376357 -0.869582
3.609537 0.363013 -0.809690
3.596670 0.383651 -0.809260
3.608876 0.388144 -0.809304
3.617588 0.375457 -0.809653
3.595998 0.384713 -0.869187
3.592960 0.395659 -0.868961
3.601022 0.400766 -0.868913
3.608203 0.389207 -0.869231
3.596554 0.383517 -0.809261
3.593516 0.394463 -0.809035
3.601578 0.399570 -0.808988
3.608759 0.388010 -0.809305
3.592967 0.395728 -0.868959
3.581894 0.401509 -0.868729
3.591756 0.411537 -0.868602
3.601030 0.400835 -0.868912
3.593493 0.394414 -0.809036
3.582420 0.400195 -0.808806
3.592282 0.410223 -0.808679
3.601556 0.399520 -0.808988
3.617186 0.376697 -0.869577
3.608474 0.389385 -0.869228
3.619164 0.394983 -0.869101
3.629384 0.385114 -0.869358
3.617238 0.375132 -0.809658
3.608526 0.387819 -0.809309
3.619216 0.393418 -0.809182
3.629436 0.383549 -0.809438
3.608439 0.389416 -0.869227
3.601258 0.400975 -0.868909
3.611475 0.406864 -0.868765
3.619129 0.395014 -0.869100
3.608544 0.387811 -0.809309
3.601363 0.399371 -0.808991
3.611579 0.405260 -0.808847
3.619234 0.393410 -0.809182
3.600879 0.399502 -0.868909
3.591605 0.410204 -0.868600
3.603071 0.418331 -0.869370
3.611095 0.405391 -0.868765
3.601726 0.400868 -0.808991
3.592452 0.411570 -0.808681
3.603918 0.419697 -0.809451
3.611942 0.406757 -0.808847
3.629616 0.385323 -0.869351
3.619396 0.395193 -0.869094
3.627473 0.398876 -0.868919
3.629217 0.383352 -0.809445
3.618997 0.393221 -0.809188
3.627074 0.396904 -0.809013
3.619389 0.395184 -0.869095
3.611734 0.407034 -0.868760
3.622260 0.411898 -0.868536
3.627466 0.398867 -0.868920
3.618994 0.393250 -0.809187
3.611339 0.405100 -0.808852
3.621865 0.409964 -0.808629
3.627071 0.396933 -0.809012
3.612634 0.405545 -0.868751
3.604610 0.418485 -0.869355
3.617302 0.424542 -0.868918
3.623159 0.410409 -0.868527
3.610427 0.406615 -0.808861
3.602403 0.419555 -0.809465
3.615095 0.425613 -0.809029
3.620953 0.411479 -0.808638
3.629958 0.385367 -0.869345
3.627815 0.398920 -0.868914
3.638899 0.403198 -0.868574
3.644445 0.388476 -0.868977
3.628894 0.383310 -0.809450
3.626752 0.396862 -0.809018
3.637835 0.401141 -0.808679
3.643381 0.386418 -0.809082
3.627763 0.398956 -0.868913
3.622557 0.411987 -0.868530
3.633571 0.415958 -0.868222
3.638847 0.403234 -0.868574
3.626794 0.396853 -0.809018
3.621588 0.409884 -0.808634
3.632602 0.413856 -0.808327
3.637878 0.401132 -0.808678
3.623113 0.410625 -0.868532
3.617255 0.424758 -0.868923
3.630804 0.428518 -0.868457
3.634126 0.414596 -0.868225
3.621023 0.411273 -0.808632
3.615165 0.425406 -0.809023
3.628715 0.429166 -0.808557
3.632037 0.415245 -0.808325
3.644946 0.388531 -0.868962
3.639400 0.403253 -0.868559
3.650211 0.409525 -0.868025
3.659517 0.385857 -0.868501
3.642905 0.386369 -0.809096
3.637359 0.401092 -0.808693
3.648170 0.407364 -0.808159
3.657476 0.383696 -0.808635
3.639152 0.403282 -0.868565
3.633876 0.416006 -0.868214
3.642810 0.418930 -0.867898
3.649963 0.409554 -0.868031
3.637594 0.401093 -0.808686
3.632318 0.413817 -0.808334
3.641251 0.416742 -0.808019
3.648404 0.407365 -0.808151
3.633824 0.414244 -0.868228
3.630502 0.428165 -0.868460
3.644501 0.429500 -0.868314
3.642758 0.417168 -0.867912
3.632363 0.415603 -0.808321
3.629041 0.429524 -0.808554
3.643040 0.430860 -0.808407
3.641297 0.418528 -0.808005
3.641329 0.417299 -0.867915
3.643072 0.429631 -0.868317
3.657096 0.428500 -0.868493
3.648482 0.407922 -0.868048
3.642748 0.418394 -0.808002
3.644491 0.430726 -0.808404
3.658515 0.429596 -0.808580
3.649900 0.409018 -0.808135
3.649026 0.408479 -0.868061
3.657641 0.429057 -0.868506
3.671251 0.425527 -0.868181
3.658333 0.384811 -0.868537
3.649378 0.408442 -0.808122
3.657993 0.429020 -0.808567
3.671603 0.425491 -0.808242
3.658684 0.384775 -0.808598
3.478907 0.448164 -0.871570
3.489273 0.437558 -0.891494
3.465816 0.421851 -0.871536
3.522833 0.426357 -0.837107
3.533199 0.415751 -0.857030
3.509742 0.400044 -0.837072
3.581740 0.531602 -0.870456
3.558719 0.505732 -0.891102
3.554808 0.519854 -0.871047
3.600493 0.486841 -0.835278
3.577472 0.460971 -0.855923
3.573561 0.475092 -0.835869
3.550649 0.517799 -0.870836
3.554560 0.503677 -0.890890
3.532420 0.488218 -0.891285
3.526162 0.501552 -0.871286
3.577680 0.477120 -0.836089
3.581591 0.462998 -0.856143
3.559451 0.447539 -0.856538
3.553193 0.460873 -0.836539
3.522776 0.498789 -0.871340
3.529033 0.485455 -0.891339
3.509911 0.466387 -0.891591
3.501480 0.478536 -0.871636
3.556536 0.463600 -0.836486
3.562794 0.450267 -0.856485
3.543671 0.431199 -0.856737
3.535241 0.443348 -0.836782
3.507056 0.463078 -0.891622
3.491533 0.440979 -0.891723
3.481167 0.451585 -0.871799
3.498625 0.475227 -0.871667
3.546490 0.434465 -0.856707
3.530968 0.412367 -0.856808
3.520601 0.422973 -0.836884
3.538060 0.446615 -0.836752
3.696274 0.478744 -0.912872
3.705675 0.507506 -0.896057
3.730120 0.496062 -0.895175
3.715924 0.469447 -0.912161
3.682216 0.452867 -0.860665
3.691616 0.481630 -0.843850
3.716062 0.470185 -0.842968
3.701865 0.443571 -0.859955
3.718166 0.468143 -0.912076
3.732362 0.494758 -0.895090
3.754446 0.479240 -0.894211
3.735901 0.455575 -0.911370
3.699665 0.444851 -0.860038
3.713862 0.471465 -0.843051
3.735946 0.455948 -0.842173
3.717401 0.432282 -0.859331
3.737882 0.453901 -0.911286
3.756428 0.477566 -0.894128
3.775482 0.458447 -0.893281
3.753165 0.438441 -0.910605
3.715457 0.433925 -0.859413
3.734002 0.457590 -0.842254
3.753057 0.438471 -0.841407
3.730739 0.418466 -0.858731
3.754825 0.436448 -0.910526
3.777143 0.456453 -0.893202
3.792587 0.434314 -0.892411
3.767191 0.418568 -0.909890
3.729110 0.420422 -0.858809
3.751427 0.440427 -0.841485
3.766871 0.418288 -0.840694
3.741475 0.402542 -0.858173
3.768480 0.416317 -0.909818
3.793876 0.432063 -0.892339
3.805241 0.407575 -0.891629
3.777553 0.396559 -0.909248
3.740210 0.404751 -0.858244
3.765607 0.420497 -0.840765
3.776971 0.396009 -0.840055
3.749283 0.384993 -0.857674
3.778431 0.394118 -0.909184
3.806119 0.405133 -0.891565
3.813059 0.379042 -0.890957
3.783935 0.373083 -0.908697
3.748421 0.387389 -0.857736
3.776109 0.398404 -0.840117
3.783049 0.372313 -0.839509
3.753925 0.366354 -0.857249
3.784377 0.370526 -0.908644
3.813501 0.376485 -0.890905
3.815806 0.349582 -0.890417
3.786146 0.348852 -0.908255
3.753492 0.368863 -0.857301
3.782616 0.374822 -0.839561
3.784921 0.347919 -0.839074
3.755261 0.347189 -0.856911
3.786136 0.346257 -0.908214
3.815797 0.346987 -0.890377
3.813396 0.320090 -0.890026
3.784116 0.324605 -0.907934
3.755270 0.349736 -0.856950
3.784930 0.350465 -0.839113
3.782530 0.323568 -0.838762
3.753249 0.328083 -0.856670
3.783656 0.322050 -0.907907
3.812936 0.317536 -0.889999
3.805903 0.291463 -0.889794
3.777907 0.301076 -0.907744
3.753700 0.330589 -0.856696
3.782981 0.326075 -0.838788
3.775947 0.300002 -0.838583
3.747952 0.309615 -0.856533
3.662870 0.405411 -0.858713
3.671745 0.425559 -0.882160
3.687965 0.417993 -0.881574
3.675661 0.399574 -0.858287
3.680032 0.445647 -0.817733
3.688907 0.465794 -0.841179
3.705126 0.458228 -0.840594
3.692822 0.439810 -0.817307
3.671324 0.425009 -0.881418
3.680222 0.445095 -0.906489
3.699871 0.435799 -0.905778
3.687544 0.417443 -0.880832
3.689349 0.466383 -0.841970
3.698246 0.486469 -0.867041
3.717896 0.477172 -0.866330
3.705568 0.458817 -0.841385
3.672548 0.401244 -0.858317
3.684852 0.419662 -0.881605
3.699510 0.409394 -0.881022
3.684124 0.393289 -0.857489
3.695962 0.438124 -0.817275
3.708266 0.456543 -0.840563
3.722924 0.446274 -0.839981
3.707538 0.430169 -0.816448
3.684169 0.419405 -0.880960
3.696497 0.437761 -0.905906
3.714232 0.425193 -0.905199
3.698828 0.409136 -0.880378
3.708977 0.456834 -0.841256
3.721304 0.475190 -0.866201
3.739039 0.462622 -0.865494
3.723635 0.446566 -0.840673
3.680968 0.395761 -0.857517
3.696355 0.411865 -0.881050
3.709006 0.399206 -0.880488
3.690988 0.385903 -0.857004
3.710718 0.427677 -0.816418
3.726105 0.443782 -0.839951
3.738756 0.431122 -0.839389
3.720738 0.417819 -0.815905
3.695846 0.411655 -0.880503
3.711250 0.427711 -0.905324
3.726532 0.412252 -0.904642
3.708497 0.398995 -0.879941
3.726647 0.444021 -0.840547
3.742051 0.460077 -0.865368
3.757334 0.444618 -0.864686
3.739299 0.431362 -0.839985
3.688433 0.389011 -0.857172
3.706451 0.402314 -0.880656
3.716712 0.387648 -0.880132
3.696593 0.377550 -0.857013
3.723313 0.414686 -0.815736
3.741331 0.427989 -0.839220
3.751592 0.413323 -0.838695
3.731473 0.403225 -0.815577
3.705998 0.401994 -0.880060
3.724033 0.415251 -0.904761
3.736399 0.397371 -0.904126
3.716259 0.387328 -0.879535
3.741823 0.428333 -0.839865
3.759858 0.441590 -0.864566
3.772224 0.423709 -0.863930
3.752084 0.413667 -0.839340
3.694835 0.380595 -0.857120
3.714954 0.390693 -0.880239
3.722512 0.374467 -0.879767
3.700876 0.367907 -0.856556
3.733247 0.400152 -0.815469
3.753366 0.410250 -0.838588
3.760924 0.394024 -0.838116
3.739288 0.387464 -0.814904
3.714319 0.390715 -0.879644
3.734459 0.400758 -0.904235
3.743532 0.381000 -0.903665
3.721876 0.374489 -0.879173
3.754044 0.410245 -0.839230
3.774184 0.420288 -0.863820
3.783257 0.400530 -0.863250
3.761602 0.394018 -0.838759
3.699432 0.371135 -0.856438
3.721068 0.377695 -0.879650
3.725694 0.360401 -0.879246
3.703169 0.357607 -0.855457
3.740743 0.384206 -0.815021
3.762379 0.390766 -0.838233
3.767006 0.373471 -0.837829
3.744480 0.370677 -0.814040
3.720554 0.378162 -0.879268
3.742209 0.384673 -0.903760
3.747713 0.363638 -0.903273
3.725180 0.360868 -0.878865
3.762938 0.390308 -0.838662
3.784593 0.396820 -0.863154
3.790097 0.375785 -0.862667
3.767564 0.373014 -0.838259
3.702190 0.361601 -0.855331
3.724716 0.364395 -0.879120
3.726268 0.346559 -0.878796
3.703524 0.347613 -0.854784
3.745465 0.366652 -0.814165
3.767990 0.369446 -0.837954
3.769543 0.351609 -0.837631
3.746798 0.352663 -0.813618
3.724515 0.364715 -0.878944
3.747048 0.367486 -0.903352
3.748817 0.345813 -0.902962
3.726068 0.346879 -0.878620
3.768236 0.369127 -0.838178
3.790769 0.371898 -0.862586
3.792538 0.350225 -0.862197
3.769789 0.351291 -0.837855
3.703460 0.351733 -0.854808
3.726204 0.350679 -0.878820
3.724637 0.332843 -0.878586
3.702347 0.337709 -0.854710
3.746863 0.348511 -0.813593
3.769607 0.347457 -0.837606
3.768040 0.329621 -0.837372
3.745750 0.334488 -0.813496
3.726081 0.350784 -0.878681
3.748830 0.349718 -0.903023
3.746809 0.328065 -0.902742
3.724514 0.332947 -0.878447
3.769775 0.347347 -0.837794
3.792524 0.346281 -0.862135
3.790504 0.324628 -0.861855
3.768208 0.329510 -0.837560
3.702890 0.341280 -0.854685
3.725179 0.336413 -0.878561
3.720540 0.319118 -0.878424
3.699355 0.327679 -0.854221
3.745202 0.330885 -0.813522
3.767492 0.326019 -0.837397
3.762852 0.308724 -0.837260
3.741667 0.317284 -0.813057
3.725205 0.336791 -0.878487
3.747500 0.331908 -0.902783
3.741751 0.310934 -0.902620
3.720565 0.319496 -0.878350
3.767510 0.325628 -0.837519
3.789806 0.320745 -0.861814
3.784057 0.299770 -0.861651
3.762871 0.308333 -0.837382
3.660413 0.384065 -0.868469
3.673332 0.424781 -0.868113
3.686122 0.418944 -0.867687
3.681001 0.396929 -0.866954
3.656632 0.385511 -0.808666
3.669551 0.426227 -0.808309
3.682341 0.420389 -0.807883
3.677220 0.398375 -0.807151
3.680488 0.396238 -0.866958
3.685608 0.418252 -0.867690
3.697184 0.410297 -0.866862
3.691415 0.399263 -0.866526
3.677762 0.399068 -0.807146
3.682883 0.421082 -0.807879
3.694458 0.413127 -0.807051
3.688689 0.402093 -0.806715
3.660302 0.385547 -0.868474
3.680890 0.398412 -0.866960
3.685390 0.386209 -0.866964
3.672738 0.377499 -0.867990
3.656743 0.383987 -0.808660
3.677331 0.396851 -0.807146
3.681832 0.384648 -0.807150
3.669180 0.375939 -0.808176
3.680692 0.397834 -0.866980
3.691620 0.400859 -0.866549
3.696723 0.392806 -0.866173
3.685193 0.385631 -0.866985
3.677556 0.397445 -0.807123
3.688484 0.400470 -0.806692
3.693587 0.392417 -0.806316
3.682057 0.385242 -0.807128
3.690483 0.399541 -0.866566
3.696253 0.410575 -0.866902
3.706272 0.400717 -0.866388
3.695586 0.391488 -0.866190
3.689640 0.401804 -0.806675
3.695409 0.412837 -0.807010
3.705429 0.402980 -0.806497
3.694743 0.393750 -0.806299
3.673078 0.377128 -0.867975
3.685730 0.385837 -0.866949
3.691327 0.375148 -0.866714
3.681487 0.364930 -0.867543
3.668855 0.376289 -0.808190
3.681507 0.384998 -0.807164
3.687104 0.374309 -0.806929
3.677264 0.364091 -0.807757
3.685730 0.385694 -0.866951
3.697260 0.392869 -0.866139
3.703143 0.382657 -0.865755
3.691327 0.375004 -0.866716
3.681530 0.385159 -0.807161
3.693060 0.392334 -0.806349
3.698944 0.382122 -0.805965
3.687127 0.374469 -0.806926
3.695008 0.391752 -0.866201
3.705694 0.400982 -0.866399
3.713854 0.389520 -0.866240
3.700891 0.381541 -0.865817
3.695336 0.393466 -0.806287
3.706021 0.402696 -0.806485
3.714181 0.391234 -0.806326
3.701219 0.383254 -0.805902
3.681696 0.364698 -0.867530
3.691535 0.374916 -0.866701
3.695214 0.366838 -0.866469
3.677068 0.364310 -0.807770
3.686908 0.374527 -0.806941
3.690587 0.366450 -0.806709
3.691527 0.374923 -0.866702
3.703344 0.382576 -0.865741
3.708203 0.372049 -0.865440
3.695206 0.366845 -0.866469
3.686936 0.374531 -0.806939
3.698753 0.382183 -0.805978
3.703611 0.371657 -0.805677
3.690615 0.366453 -0.806707
3.701000 0.381240 -0.865807
3.713962 0.389220 -0.866231
3.720003 0.376532 -0.865666
3.705858 0.370714 -0.865506
3.701123 0.383532 -0.805911
3.714085 0.391512 -0.806335
3.720126 0.378824 -0.805770
3.705981 0.373006 -0.805610
3.681740 0.364356 -0.867526
3.695258 0.366496 -0.866466
3.699526 0.355410 -0.866082
3.684841 0.349867 -0.867211
3.677026 0.364633 -0.807773
3.690544 0.366773 -0.806712
3.694812 0.355687 -0.806328
3.680127 0.350143 -0.807457
3.695294 0.366548 -0.866463
3.708291 0.371752 -0.865433
3.712254 0.360736 -0.865094
3.699563 0.355462 -0.866079
3.690535 0.366730 -0.806713
3.703531 0.371934 -0.805683
3.707494 0.360918 -0.805344
3.694803 0.355644 -0.806329
3.706710 0.370485 -0.865486
3.720855 0.376303 -0.865646
3.724593 0.362775 -0.864666
3.710673 0.359469 -0.865147
3.705139 0.373210 -0.805629
3.719283 0.379028 -0.805789
3.723021 0.365500 -0.804808
3.709102 0.362194 -0.805290
3.684895 0.349365 -0.867200
3.699581 0.354908 -0.866071
3.705832 0.344093 -0.865401
3.682216 0.334789 -0.867049
3.680078 0.350619 -0.807467
3.694763 0.356163 -0.806338
3.701015 0.345347 -0.805668
3.677399 0.336043 -0.807316
3.699609 0.355156 -0.866073
3.712301 0.360430 -0.865088
3.715216 0.351494 -0.864760
3.705861 0.344341 -0.865403
3.694765 0.355928 -0.806334
3.707456 0.361202 -0.805349
3.710371 0.352266 -0.805021
3.701016 0.345113 -0.805664
3.711291 0.359937 -0.865142
3.725210 0.363242 -0.864661
3.726543 0.349254 -0.864113
3.714206 0.351000 -0.864814
3.708491 0.361703 -0.805294
3.722410 0.365009 -0.804812
3.723743 0.351020 -0.804265
3.711406 0.352767 -0.804966
3.714697 0.351707 -0.864799
3.727035 0.349961 -0.864099
3.725923 0.335937 -0.864002
3.705342 0.344554 -0.865442
3.710911 0.352038 -0.804980
3.723248 0.350291 -0.804279
3.722136 0.336268 -0.804182
3.701556 0.344885 -0.805623
3.705542 0.343761 -0.865414
3.726123 0.335144 -0.863973
3.722588 0.321542 -0.863509
3.681927 0.334456 -0.867062
3.701337 0.345657 -0.805652
3.721917 0.337039 -0.804211
3.718382 0.323438 -0.803747
3.677721 0.336352 -0.807300
3.744449 0.515439 -0.864981
3.734746 0.505333 -0.885490
3.718148 0.528521 -0.865943
3.721170 0.471058 -0.832099
3.711468 0.460952 -0.852608
3.694870 0.484140 -0.833060
3.827840 0.412620 -0.861514
3.802893 0.435904 -0.882983
3.816108 0.439555 -0.862272
3.781577 0.393395 -0.828606
3.756630 0.416680 -0.850075
3.769844 0.420331 -0.829365
3.814041 0.443711 -0.862097
3.800827 0.440060 -0.882808
3.785383 0.462199 -0.883599
3.797810 0.468197 -0.862947
3.771883 0.416216 -0.829548
3.758668 0.412564 -0.850259
3.743224 0.434704 -0.851049
3.755651 0.440702 -0.830398
3.795049 0.471583 -0.863080
3.782622 0.465585 -0.883732
3.763567 0.484705 -0.884579
3.774812 0.492876 -0.863995
3.758377 0.437359 -0.830267
3.745949 0.431362 -0.850919
3.726895 0.450481 -0.851766
3.738140 0.458652 -0.831183
3.760260 0.487559 -0.884718
3.738176 0.503077 -0.885597
3.747879 0.513183 -0.865088
3.771506 0.495730 -0.864135
3.730159 0.447663 -0.851628
3.708075 0.463180 -0.852506
3.717777 0.473286 -0.831997
3.741404 0.455834 -0.831045
