1.799086 1.407644 0.774185
1.806090 1.402441 0.785531
1.820224 1.412159 0.783236
1.816933 1.417135 0.772528
1.804937 1.396261 0.766201
1.811941 1.391058 0.777547
1.826075 1.400776 0.775252
1.822784 1.405752 0.764544
1.816686 1.417456 0.771802
1.819977 1.412481 0.782510
1.834134 1.422158 0.780189
1.834534 1.426946 0.770142
1.823063 1.405450 0.765266
1.826354 1.400474 0.775974
1.840511 1.410152 0.773652
1.840911 1.414939 0.763606
1.839232 1.427602 0.770089
1.838832 1.422815 0.780136
1.853549 1.418734 0.781801
1.856331 1.422651 0.772346
1.836245 1.414288 0.763659
1.835845 1.409500 0.773705
1.850561 1.405419 0.775370
1.853344 1.409336 0.765915
1.857887 1.422149 0.772248
1.855105 1.418232 0.781703
1.870010 1.409934 0.784607
1.874687 1.411443 0.776063
1.851819 1.409824 0.766018
1.849037 1.405907 0.775473
1.863942 1.397609 0.778376
1.868619 1.399117 0.769832
1.768314 1.430603 0.755248
1.771996 1.458038 0.746193
1.770892 1.453951 0.734281
1.768035 1.426624 0.744020
1.783280 1.428733 0.755006
1.786963 1.456167 0.745952
1.785859 1.452081 0.734039
1.783002 1.424754 0.743778
1.772039 1.458209 0.746626
1.775719 1.485647 0.737573
1.773770 1.481446 0.724975
1.770935 1.454122 0.734713
1.786926 1.456052 0.745501
1.790606 1.483490 0.736448
1.788657 1.479289 0.723850
1.785823 1.451965 0.733588
1.775776 1.485787 0.737925
1.779298 1.513081 0.728476
1.776676 1.508816 0.715446
1.773827 1.481586 0.725327
1.790556 1.483404 0.736076
1.794078 1.510698 0.726627
1.791456 1.506433 0.713597
1.788607 1.479203 0.723478
1.779283 1.513120 0.728293
1.781744 1.539526 0.716253
1.780310 1.535136 0.703195
1.776661 1.508854 0.715263
1.794099 1.510713 0.726788
1.796559 1.537120 0.714748
1.795125 1.532730 0.701691
1.791477 1.506448 0.713758
1.781673 1.539291 0.715652
1.784136 1.565696 0.703612
1.783879 1.561183 0.690530
1.780239 1.534900 0.702594
1.796636 1.537408 0.715325
1.799099 1.563814 0.703285
1.798842 1.559301 0.690203
1.795202 1.533018 0.702267
1.784162 1.565891 0.703304
1.788490 1.592440 0.692155
1.787902 1.588183 0.679455
1.783905 1.561378 0.690222
1.799081 1.563672 0.703570
1.803408 1.590222 0.692420
1.802821 1.585964 0.679721
1.798823 1.559159 0.690488
1.788530 1.592680 0.692464
1.793445 1.619103 0.681213
1.791956 1.615225 0.669035
1.787942 1.588422 0.679764
1.803376 1.590035 0.692089
1.808292 1.616458 0.680839
1.806802 1.612580 0.668661
1.802789 1.585777 0.679390
1.756653 1.272120 0.799805
1.757730 1.304358 0.793119
1.757254 1.311404 0.777801
1.755635 1.282059 0.783685
1.771663 1.271217 0.798604
1.772740 1.303456 0.791918
1.772264 1.310502 0.776600
1.770645 1.281157 0.782484
1.757738 1.304601 0.792980
1.759932 1.336459 0.785237
1.759514 1.340605 0.770380
1.757262 1.311648 0.777662
1.772735 1.303274 0.792044
1.774929 1.335131 0.784300
1.774511 1.339277 0.769444
1.772259 1.310320 0.776725
1.759950 1.336637 0.785243
1.762871 1.368125 0.776171
1.762059 1.369584 0.762489
1.759532 1.340783 0.770386
1.774916 1.335013 0.784279
1.777837 1.366501 0.775207
1.777025 1.367960 0.761525
1.774498 1.339159 0.769422
1.762875 1.368189 0.776114
1.765646 1.399417 0.766161
1.764954 1.398132 0.753593
1.762063 1.369648 0.762433
1.777839 1.366497 0.775246
1.780610 1.397725 0.765292
1.779918 1.396440 0.752724
1.777027 1.367956 0.761564
1.765629 1.399371 0.765852
1.768292 1.430410 0.755272
1.768014 1.426431 0.744045
1.764937 1.398086 0.753285
1.780633 1.397830 0.765581
1.783296 1.428869 0.755001
1.783017 1.424890 0.743773
1.779941 1.396546 0.753013
1.756634 1.271153 0.799389
1.755616 1.281092 0.783269
1.755170 1.279057 0.763280
1.756019 1.266170 0.760793
1.771681 1.272150 0.798997
1.770662 1.282090 0.782877
1.770216 1.280054 0.762888
1.771066 1.267168 0.760401
1.899444 1.433684 0.778660
1.915965 1.433011 0.779260
1.918175 1.459855 0.770253
1.901116 1.460728 0.769305
1.899876 1.428792 0.764397
1.916397 1.428119 0.764997
1.918607 1.454963 0.755989
1.901548 1.455836 0.755041
1.901006 1.460758 0.769290
1.918065 1.459885 0.770238
1.920282 1.486738 0.761249
1.902674 1.487800 0.759935
1.901662 1.455860 0.755038
1.918721 1.454987 0.755986
1.920939 1.481840 0.746996
1.903330 1.482901 0.745683
1.902598 1.487899 0.759896
1.920207 1.486837 0.761210
1.922579 1.513587 0.751913
1.904456 1.514857 0.750356
1.903410 1.482856 0.745702
1.921019 1.481795 0.747016
1.923390 1.508545 0.737719
1.905268 1.509814 0.736162
1.904380 1.515012 0.750294
1.922502 1.513742 0.751852
1.925232 1.540323 0.742208
1.906751 1.541747 0.740234
1.905349 1.509712 0.736204
1.923472 1.508442 0.737762
1.926202 1.535023 0.728119
1.907721 1.536447 0.726144
1.906664 1.541800 0.740207
1.925145 1.540376 0.742182
1.927878 1.566896 0.732384
1.909043 1.568533 0.730141
1.907814 1.536447 0.726151
1.926294 1.535023 0.728126
1.929028 1.561543 0.718328
1.910193 1.563180 0.716085
1.909125 1.568830 0.730027
1.927959 1.567192 0.732271
1.929416 1.593289 0.721074
1.911952 1.595296 0.719167
1.910117 1.562937 0.716177
1.928951 1.561299 0.718420
1.930408 1.587396 0.707224
1.912944 1.589402 0.705316
1.912606 1.595485 0.719100
1.930070 1.593479 0.721007
1.931363 1.618910 0.708068
1.915134 1.621990 0.708439
1.912293 1.589265 0.705360
1.929758 1.587259 0.707268
1.931050 1.612689 0.694329
1.914822 1.615770 0.694700
1.889117 1.429126 0.769761
1.893240 1.432908 0.775132
1.894911 1.459952 0.765776
1.891107 1.456482 0.760418
1.901937 1.425783 0.762548
1.906060 1.429566 0.767919
1.907732 1.456609 0.758564
1.903928 1.453140 0.753205
1.891001 1.456457 0.760234
1.894805 1.459926 0.765592
1.896473 1.486968 0.756238
1.892993 1.483816 0.750883
1.904038 1.453219 0.753370
1.907842 1.456689 0.758729
1.909510 1.483731 0.749374
1.906030 1.480579 0.744020
1.892932 1.483851 0.750749
1.896413 1.487003 0.756103
1.898271 1.513961 0.746562
1.894837 1.511086 0.741124
1.906094 1.480598 0.744135
1.909574 1.483750 0.749489
1.911432 1.510708 0.739948
1.907999 1.507832 0.734509
1.894916 1.511287 0.741175
1.898350 1.514163 0.746613
1.900721 1.540897 0.736553
1.896404 1.538025 0.730098
1.907924 1.507685 0.734438
1.911357 1.510561 0.739877
1.913729 1.537295 0.729817
1.909412 1.534424 0.723362
1.896545 1.538128 0.730304
1.900862 1.541000 0.736758
1.903241 1.567733 0.726692
1.898030 1.564866 0.719230
1.909276 1.534374 0.723136
1.913593 1.537245 0.729590
1.915972 1.563979 0.719524
1.910761 1.561111 0.712062
1.898070 1.565155 0.719137
1.903281 1.568022 0.726599
1.906108 1.594488 0.715738
1.900889 1.591666 0.707828
1.910727 1.560875 0.712133
1.915937 1.563743 0.719596
1.918764 1.590209 0.708735
1.913545 1.587386 0.700825
1.900639 1.591579 0.707392
1.905858 1.594402 0.715302
1.908386 1.620907 0.704642
1.903979 1.617914 0.695793
1.913801 1.587525 0.701239
1.919020 1.590348 0.709149
1.921548 1.616853 0.698488
1.917141 1.613860 0.689639
1.775204 1.432124 0.762240
1.805136 1.432155 0.764896
1.808170 1.459271 0.755689
1.778886 1.459558 0.753186
1.776420 1.427216 0.748028
1.806353 1.427247 0.750683
1.809387 1.454363 0.741476
1.780103 1.454651 0.738973
1.778947 1.459587 0.753181
1.808231 1.459300 0.755684
1.811223 1.486383 0.746428
1.782627 1.487025 0.744128
1.780049 1.454677 0.738960
1.809333 1.454390 0.741463
1.812324 1.481473 0.732208
1.783729 1.482115 0.729907
1.782689 1.487136 0.744094
1.811285 1.486494 0.746394
1.814196 1.513526 0.736827
1.786211 1.514430 0.734644
1.783673 1.482059 0.729923
1.812269 1.481417 0.732223
1.815180 1.508449 0.722656
1.787195 1.509353 0.720473
1.786197 1.515014 0.734407
1.814182 1.514111 0.736590
1.816888 1.540918 0.724991
1.788658 1.541421 0.722367
1.787215 1.508822 0.720689
1.815200 1.507918 0.722872
1.817906 1.534726 0.711274
1.789676 1.535229 0.708650
1.788502 1.541444 0.722344
1.816732 1.540941 0.724968
1.819410 1.567797 0.713455
1.790965 1.567849 0.710303
1.789837 1.535259 0.708650
1.818067 1.534756 0.711274
1.820745 1.561613 0.699762
1.792300 1.561665 0.696609
1.790902 1.567812 0.710314
1.819348 1.567760 0.713466
1.823225 1.594200 0.702131
1.795230 1.594361 0.699164
1.792369 1.561756 0.696576
1.820814 1.561704 0.699728
1.824691 1.588143 0.688394
1.796697 1.588305 0.685427
1.795262 1.594415 0.699144
1.823257 1.594254 0.702111
1.827170 1.620644 0.690741
1.800177 1.620839 0.687893
1.796673 1.588304 0.685425
1.824668 1.588142 0.688392
1.828581 1.614533 0.677022
1.801588 1.614727 0.674174
1.805169 1.432209 0.764880
1.835099 1.432252 0.767552
1.837484 1.459023 0.758150
1.808203 1.459326 0.755672
1.806379 1.427193 0.750705
1.836310 1.427235 0.753377
1.838694 1.454006 0.743975
1.809414 1.454309 0.741498
1.808265 1.459358 0.755666
1.837546 1.459055 0.758144
1.839836 1.485803 0.748720
1.811257 1.486441 0.746411
1.809357 1.454330 0.741485
1.838637 1.454027 0.743963
1.840927 1.480775 0.734540
1.812348 1.481414 0.732230
1.811314 1.486534 0.746382
1.839893 1.485895 0.748691
1.842206 1.512665 0.738996
1.814225 1.513566 0.736815
1.812296 1.481375 0.732240
1.840875 1.480737 0.734550
1.843188 1.507506 0.724854
1.815207 1.508408 0.722673
1.814189 1.513971 0.736652
1.842171 1.513070 0.738833
1.845104 1.540313 0.727756
1.816896 1.540779 0.725053
1.815248 1.508056 0.722815
1.843229 1.507155 0.724996
1.846162 1.534398 0.713920
1.817954 1.534864 0.711217
1.816737 1.540797 0.725031
1.844945 1.540331 0.727735
1.847840 1.567611 0.716694
1.819415 1.567654 0.713519
1.818118 1.534900 0.711216
1.846326 1.534433 0.713919
1.849221 1.561714 0.702879
1.820796 1.561756 0.699704
1.819383 1.567810 0.713447
1.847807 1.567767 0.716622
1.851238 1.594064 0.705023
1.823260 1.594250 0.702113
1.820835 1.561653 0.699753
1.849260 1.561611 0.702928
1.852690 1.587907 0.691328
1.824713 1.588093 0.688418
1.823327 1.594279 0.702107
1.851304 1.594093 0.705016
1.854683 1.620328 0.693429
1.827240 1.620669 0.690737
1.824653 1.588117 0.688402
1.852631 1.587930 0.691312
1.856010 1.614166 0.679725
1.828566 1.614507 0.677032
1.835137 1.432269 0.767549
1.865001 1.431327 0.770354
1.866934 1.458280 0.760953
1.837521 1.459040 0.758147
1.836332 1.427216 0.753386
1.866197 1.426274 0.756191
1.868129 1.453228 0.746790
1.838716 1.453987 0.743984
1.837498 1.459073 0.758133
1.866911 1.458313 0.760939
1.868869 1.485270 0.751523
1.839787 1.485821 0.748710
1.838744 1.454009 0.743979
1.868157 1.453249 0.746785
1.870115 1.480206 0.737369
1.841034 1.480757 0.734555
1.839764 1.485909 0.748676
1.868845 1.485358 0.751489
1.870875 1.512323 0.741826
1.842077 1.512678 0.738980
1.841062 1.480722 0.734570
1.870143 1.480171 0.737384
1.872173 1.507137 0.727721
1.843375 1.507492 0.724875
1.842075 1.513000 0.738854
1.870874 1.512645 0.741700
1.873169 1.539693 0.730668
1.845009 1.540242 0.727778
1.843381 1.507224 0.724980
1.872179 1.506869 0.727826
1.874475 1.533917 0.716794
1.846314 1.534467 0.713904
1.845014 1.540265 0.727769
1.873175 1.539716 0.730659
1.875471 1.566743 0.719619
1.847909 1.567545 0.716729
1.846314 1.534498 0.713891
1.874475 1.533949 0.716781
1.876771 1.560976 0.705741
1.849208 1.561778 0.702850
1.847902 1.567766 0.716633
1.875464 1.566964 0.719523
1.878717 1.593357 0.708107
1.851332 1.594063 0.705033
1.849221 1.561611 0.702924
1.876783 1.560808 0.705815
1.880036 1.587201 0.694399
1.852652 1.587907 0.691324
1.851373 1.594169 0.704988
1.878757 1.593463 0.708063
1.882185 1.619579 0.696038
1.854751 1.620404 0.693401
1.852618 1.587853 0.691345
1.880002 1.587148 0.694420
1.883430 1.613264 0.682395
1.855996 1.614089 0.679758
1.865035 1.431291 0.770369
1.894916 1.429945 0.773245
1.896907 1.457301 0.763901
1.866968 1.458244 0.760969
1.866222 1.426308 0.756181
1.896103 1.424962 0.759056
1.898094 1.452318 0.749713
1.868155 1.453262 0.746780
1.866924 1.458276 0.760954
1.896862 1.457332 0.763886
1.898854 1.484692 0.754536
1.868882 1.485233 0.751538
1.868203 1.453284 0.746776
1.898142 1.452341 0.749709
1.900134 1.479700 0.740359
1.870162 1.480241 0.737360
1.868846 1.485326 0.751501
1.898819 1.484785 0.754499
1.900724 1.512020 0.744874
1.870876 1.512292 0.741838
1.870201 1.480202 0.737378
1.900174 1.479661 0.740376
1.902079 1.506896 0.730751
1.872231 1.507168 0.727715
1.870888 1.512653 0.741698
1.900736 1.512381 0.744734
1.902224 1.539120 0.733658
1.873184 1.539701 0.730666
1.872223 1.506860 0.727834
1.902071 1.506588 0.730870
1.903559 1.533327 0.719794
1.874519 1.533908 0.716802
1.873206 1.539729 0.730657
1.902247 1.539148 0.733648
1.903732 1.565885 0.722575
1.875502 1.566756 0.719617
1.874500 1.533934 0.716789
1.903540 1.533353 0.719781
1.905026 1.560090 0.708707
1.876796 1.560961 0.705750
1.875500 1.566914 0.719549
1.903730 1.566043 0.722507
1.906549 1.592554 0.711198
1.878753 1.593307 0.708133
1.876803 1.560857 0.705795
1.905033 1.559985 0.708753
1.907852 1.586496 0.697444
1.880056 1.587250 0.694379
1.878676 1.593466 0.708053
1.906473 1.592712 0.711119
1.909813 1.619047 0.699519
1.882105 1.619582 0.696028
1.880138 1.587143 0.694435
1.907934 1.586390 0.697501
1.911275 1.612725 0.685901
1.883566 1.613260 0.682410
1.890610 1.271197 0.821822
1.906689 1.270769 0.822325
1.908244 1.297911 0.816082
1.891636 1.298338 0.815345
1.891077 1.267736 0.807147
1.907156 1.267308 0.807650
1.908711 1.294450 0.801407
1.892103 1.294877 0.800670
1.891643 1.298426 0.815324
1.908251 1.298000 0.816061
1.909641 1.325040 0.809371
1.892991 1.325554 0.808845
1.892098 1.294843 0.800678
1.908706 1.294416 0.801415
1.910096 1.321457 0.794725
1.893446 1.321971 0.794199
1.893252 1.325665 0.808821
1.909903 1.325151 0.809347
1.910953 1.352030 0.801975
1.895248 1.352749 0.802329
1.893187 1.321915 0.794209
1.909838 1.321401 0.794736
1.910888 1.348280 0.787364
1.895184 1.348999 0.787718
1.895477 1.352908 0.802282
1.911182 1.352190 0.801928
1.912664 1.379077 0.794436
1.896753 1.379752 0.794828
1.894958 1.348893 0.787751
1.910662 1.348175 0.787397
1.912144 1.375061 0.779905
1.896233 1.375737 0.780296
1.896676 1.379868 0.794797
1.912586 1.379192 0.794406
1.914432 1.405825 0.786841
1.898216 1.406536 0.786851
1.896314 1.375675 0.780311
1.912224 1.374999 0.779920
1.914070 1.401632 0.772355
1.897854 1.402343 0.772365
1.897995 1.406568 0.786843
1.914211 1.405858 0.786833
1.916138 1.432640 0.779380
1.899617 1.433314 0.778780
1.898078 1.402364 0.772356
1.914295 1.401653 0.772347
1.916221 1.428436 0.764893
1.899700 1.429109 0.764293
1.881794 1.266023 0.814320
1.884297 1.270503 0.818098
1.885322 1.297643 0.811621
1.881915 1.293211 0.807271
1.894869 1.263947 0.807089
1.897371 1.268426 0.810867
1.898397 1.295567 0.804389
1.894989 1.291135 0.800040
1.882205 1.293415 0.807696
1.885613 1.297847 0.812045
1.886961 1.324975 0.805566
1.882628 1.320571 0.800618
1.894700 1.290986 0.799601
1.898108 1.295418 0.803951
1.899456 1.322546 0.797472
1.895123 1.318142 0.792524
1.882743 1.320820 0.800712
1.887076 1.325224 0.805661
1.889072 1.352308 0.799169
1.884166 1.347926 0.793499
1.895010 1.317948 0.792416
1.899343 1.322352 0.797364
1.901339 1.349436 0.790872
1.896433 1.345054 0.785202
1.884173 1.347967 0.793495
1.889079 1.352349 0.799165
1.890355 1.379193 0.791711
1.885596 1.375069 0.786087
1.896429 1.345066 0.785192
1.901335 1.349448 0.790862
1.902611 1.376293 0.783408
1.897851 1.372168 0.777783
1.885537 1.375214 0.785945
1.890297 1.379339 0.791569
1.891837 1.406006 0.783622
1.887359 1.402169 0.778128
1.897913 1.372077 0.777910
1.902672 1.376201 0.783534
1.904212 1.402869 0.775587
1.899734 1.399031 0.770093
1.887267 1.402205 0.777969
1.891745 1.406042 0.783463
1.893367 1.432787 0.775400
1.889244 1.429005 0.770029
1.899829 1.399050 0.770237
1.904307 1.402887 0.775731
1.905929 1.429632 0.767668
1.901806 1.425850 0.762297
1.800348 1.292194 0.807258
1.803986 1.298535 0.813213
1.796200 1.317353 0.807668
1.789971 1.312715 0.800891
1.811298 1.294165 0.797072
1.814936 1.300506 0.803028
1.807151 1.319325 0.797483
1.800922 1.314686 0.790706
1.790049 1.313863 0.801067
1.796279 1.318502 0.807844
1.791886 1.337884 0.802292
1.783812 1.335210 0.794650
1.800829 1.313577 0.790518
1.807058 1.318216 0.797295
1.802666 1.337598 0.791744
1.794591 1.334924 0.784102
1.783784 1.336824 0.794325
1.791859 1.339498 0.801966
1.793025 1.359817 0.796367
1.785383 1.359718 0.787803
1.794615 1.333352 0.784415
1.802689 1.336025 0.792057
1.803855 1.356344 0.786458
1.796214 1.356246 0.777894
1.785205 1.359727 0.787598
1.792847 1.359825 0.796163
1.794008 1.380141 0.790557
1.787036 1.382567 0.781087
1.796394 1.356281 0.778086
1.804036 1.356379 0.786651
1.805198 1.376694 0.781045
1.798225 1.379121 0.771575
1.787768 1.384386 0.780884
1.794740 1.381960 0.790355
1.804135 1.400257 0.786102
1.797131 1.405460 0.774756
1.797504 1.377343 0.771766
1.804477 1.374916 0.781236
1.813871 1.393213 0.776983
1.806867 1.398416 0.765637
1.774407 1.432151 0.762119
1.771745 1.401112 0.772699
1.781946 1.389909 0.778871
1.787497 1.418311 0.769637
1.777192 1.427118 0.748174
1.774530 1.396079 0.758754
1.784732 1.384876 0.764926
1.790282 1.413278 0.755692
1.787531 1.418356 0.769628
1.781981 1.389954 0.778861
1.791257 1.383445 0.783273
1.800620 1.404518 0.777145
1.790270 1.413211 0.755715
1.784720 1.384808 0.764948
1.793997 1.378299 0.769360
1.803360 1.399372 0.763232
1.771585 1.400893 0.772741
1.768814 1.369665 0.782695
1.778935 1.364713 0.786380
1.781787 1.389690 0.778913
1.774682 1.396240 0.758730
1.771911 1.365013 0.768683
1.782032 1.360061 0.772369
1.784884 1.385037 0.764902
1.781748 1.389569 0.778944
1.778897 1.364592 0.786410
1.789194 1.360219 0.789867
1.791025 1.383059 0.783356
1.784943 1.385145 0.764880
1.782091 1.360168 0.772347
1.792388 1.355795 0.775804
1.794219 1.378635 0.769292
1.768875 1.369475 0.782769
1.765954 1.337987 0.791840
1.776782 1.337478 0.794225
1.778997 1.364523 0.786454
1.771844 1.365145 0.768627
1.768923 1.333657 0.777698
1.779751 1.333148 0.780083
1.781966 1.360193 0.772312
1.779062 1.364494 0.786476
1.776847 1.337449 0.794247
1.787760 1.337227 0.796455
1.789359 1.360121 0.789933
1.781922 1.360217 0.772296
1.779707 1.333172 0.780067
1.790620 1.332950 0.782274
1.792219 1.355844 0.775753
1.766008 1.337614 0.791956
1.763814 1.305757 0.799699
1.778718 1.310471 0.801372
1.776835 1.337105 0.794340
1.768867 1.333972 0.777599
1.766673 1.302115 0.785342
1.781577 1.306830 0.787015
1.779694 1.333463 0.779984
1.776903 1.337071 0.794362
1.778786 1.310438 0.801394
1.794054 1.315502 0.802986
1.787816 1.336849 0.796570
1.779653 1.333502 0.779966
1.781535 1.306868 0.786997
1.796804 1.311933 0.788590
1.790566 1.333279 0.782173
1.763918 1.305464 0.799787
1.762842 1.273226 0.806473
1.783382 1.284008 0.807946
1.778823 1.310179 0.801460
1.766570 1.302348 0.785268
1.765493 1.270110 0.791953
1.786034 1.280892 0.793427
1.781474 1.307063 0.786941
1.778867 1.310212 0.801461
1.783427 1.284041 0.807947
1.804513 1.294756 0.809420
1.794136 1.315276 0.803054
1.781465 1.307047 0.786943
1.786025 1.280875 0.793429
1.807110 1.291590 0.794901
1.796734 1.312111 0.788535
1.895096 1.430354 0.773100
1.865215 1.431699 0.770224
1.859862 1.425323 0.773141
1.883178 1.419286 0.776499
1.895913 1.424517 0.759214
1.866032 1.425863 0.756338
1.860679 1.419487 0.759255
1.883995 1.413450 0.762612
1.883437 1.419042 0.776606
1.860122 1.425079 0.773249
1.854719 1.418675 0.776175
1.871519 1.407969 0.779989
1.883718 1.413676 0.762511
1.860402 1.419713 0.759153
1.855000 1.413309 0.762079
1.871800 1.402603 0.765894
1.865227 1.432616 0.769764
1.835363 1.433559 0.766959
1.836389 1.429151 0.770167
1.859874 1.426240 0.772681
1.865967 1.424952 0.756792
1.836102 1.425894 0.753988
1.837129 1.421487 0.757195
1.860614 1.418575 0.759709
1.860196 1.426138 0.772750
1.836710 1.429050 0.770236
1.837694 1.424686 0.773419
1.854793 1.419735 0.775676
1.860288 1.418666 0.759646
1.836803 1.421578 0.757133
1.837787 1.417214 0.760316
1.854885 1.412262 0.762572
1.834989 1.433437 0.766999
1.805058 1.433395 0.764326
1.812115 1.424277 0.769695
1.836015 1.429030 0.770207
1.836422 1.426016 0.753944
1.806491 1.425973 0.751272
1.813549 1.416855 0.756640
1.837449 1.421608 0.757152
1.835705 1.428866 0.770256
1.811804 1.424112 0.769744
1.818840 1.415012 0.775099
1.836689 1.424502 0.773439
1.837768 1.421759 0.757111
1.813867 1.417006 0.756599
1.820903 1.407906 0.761954
1.838752 1.417395 0.760294
1.805064 1.432893 0.764588
1.775131 1.432862 0.761932
1.788221 1.419022 0.769451
1.812121 1.423775 0.769956
1.806432 1.426470 0.751007
1.776499 1.426440 0.748352
1.789589 1.412600 0.755870
1.813489 1.417352 0.756376
1.811953 1.423630 0.770004
1.788053 1.418877 0.769499
1.801142 1.405038 0.777016
1.818989 1.414529 0.775359
1.813677 1.417474 0.756341
1.789776 1.412722 0.755835
1.802866 1.398883 0.763352
1.820713 1.408374 0.761695
1.888423 1.266854 0.818008
1.888543 1.294042 0.810959
1.881788 1.302589 0.808972
1.876824 1.279487 0.814831
1.888228 1.263123 0.803394
1.888349 1.290310 0.796345
1.881594 1.298858 0.794357
1.876629 1.275755 0.800217
1.876761 1.279439 0.814844
1.881726 1.302541 0.808985
1.875883 1.309785 0.807359
1.865163 1.292071 0.811669
1.876674 1.275824 0.800199
1.881638 1.298927 0.794340
1.875795 1.306170 0.792714
1.865075 1.288456 0.797023
1.893650 1.402775 0.781329
1.895627 1.429576 0.773389
1.883708 1.418508 0.776788
1.886578 1.395267 0.783753
1.893432 1.398466 0.766874
1.895410 1.425266 0.758935
1.883491 1.414199 0.762333
1.886361 1.390958 0.769298
1.886524 1.395304 0.783743
1.883654 1.418545 0.776777
1.871736 1.407472 0.780160
1.880430 1.389038 0.785809
1.886397 1.390902 0.769315
1.883527 1.414143 0.762350
1.871609 1.403070 0.765732
1.880303 1.384636 0.771381
1.867474 1.286683 0.810552
1.862506 1.293440 0.816590
1.849737 1.287379 0.817744
1.852675 1.279173 0.812125
1.862726 1.293836 0.798149
1.857757 1.300593 0.804187
1.844989 1.294533 0.805340
1.847927 1.286326 0.799722
1.851751 1.278864 0.812224
1.848813 1.287070 0.817843
1.836082 1.283088 0.818467
1.836949 1.274648 0.812948
1.848824 1.286624 0.799624
1.845885 1.294831 0.805243
1.833155 1.290849 0.805867
1.834022 1.282409 0.800348
1.832600 1.274561 0.812383
1.831733 1.283002 0.817902
1.819187 1.289286 0.815855
1.817789 1.281877 0.810141
1.838343 1.282498 0.800912
1.837477 1.290938 0.806431
1.824930 1.297222 0.804384
1.823532 1.289813 0.798671
1.817822 1.281957 0.810212
1.819219 1.289366 0.815925
1.806647 1.295613 0.813933
1.803009 1.289272 0.807977
1.823472 1.289746 0.798595
1.824870 1.297155 0.804309
1.812298 1.303402 0.802316
1.808660 1.297061 0.796360
1.778721 1.264392 0.814426
1.806070 1.264284 0.814951
1.813286 1.275709 0.813389
1.792174 1.279401 0.812012
1.779106 1.261855 0.799561
1.806455 1.261748 0.800086
1.813671 1.273173 0.798524
1.792558 1.276864 0.797147
1.806062 1.264000 0.814994
1.833410 1.263900 0.815557
1.834391 1.271735 0.814826
1.813278 1.275425 0.813432
1.806511 1.262028 0.800045
1.833860 1.261928 0.800608
1.834841 1.269764 0.799877
1.813728 1.273453 0.798483
1.833362 1.263877 0.815559
1.860698 1.264750 0.816772
1.855384 1.274201 0.815105
1.834343 1.271712 0.814827
1.833956 1.261951 0.800609
1.861293 1.262824 0.801822
1.855979 1.272276 0.800155
1.834938 1.269787 0.799877
1.860664 1.265143 0.816709
1.887957 1.266328 0.818115
1.876358 1.278961 0.814938
1.855350 1.274594 0.815042
1.861375 1.262436 0.801886
1.888668 1.263621 0.803292
1.877069 1.276254 0.800115
1.856061 1.271887 0.800219
1.792050 1.279513 0.811988
1.813163 1.275822 0.813365
1.820314 1.287209 0.811812
1.805502 1.294524 0.809577
1.792702 1.276779 0.797167
1.813815 1.273087 0.798544
1.820967 1.284474 0.796992
1.806154 1.291789 0.794756
1.813077 1.275507 0.813412
1.834190 1.271818 0.814805
1.835040 1.279580 0.814101
1.820229 1.286895 0.811859
1.813937 1.273390 0.798501
1.835050 1.269700 0.799895
1.835900 1.277462 0.799190
1.821089 1.284777 0.796948
1.834541 1.271777 0.814824
1.855582 1.274266 0.815101
1.850192 1.283754 0.813395
1.835390 1.279539 0.814119
1.834736 1.269739 0.799878
1.855777 1.272228 0.800156
1.850387 1.281717 0.798449
1.835585 1.277501 0.799173
1.855542 1.274763 0.815016
1.876549 1.279129 0.814912
1.864951 1.291762 0.811737
1.850152 1.284251 0.813310
1.855852 1.271740 0.800240
1.876860 1.276107 0.800137
1.865261 1.288739 0.796961
1.850463 1.281229 0.798534
1.762252 1.274429 0.805962
1.776974 1.265907 0.813733
1.790426 1.280916 0.811319
1.782792 1.285211 0.807436
1.766096 1.268871 0.792476
1.780818 1.260349 0.800247
1.794270 1.275358 0.797833
1.786636 1.279653 0.793950
1.782849 1.285213 0.807451
1.790483 1.280918 0.811335
1.803935 1.295928 0.808924
1.786608 1.279673 0.793934
1.794242 1.275378 0.797817
1.807694 1.290388 0.795406
1.760844 1.264895 0.799782
1.760229 1.259913 0.761186
1.773238 1.255603 0.762864
1.775566 1.256373 0.807553
1.767486 1.278389 0.798615
1.766871 1.273407 0.760020
1.779880 1.269097 0.761697
1.782207 1.269867 0.806386
1.790591 1.109022 0.817432
1.790839 1.142328 0.821329
1.788606 1.141323 0.781437
1.789545 1.111192 0.790065
1.805658 1.109131 0.816700
1.805905 1.142438 0.820597
1.803672 1.141433 0.780704
1.804612 1.111302 0.789333
1.790879 1.141606 0.821308
1.787235 1.170513 0.820608
1.785720 1.171393 0.779177
1.788646 1.140601 0.781415
1.805861 1.143221 0.820615
1.802217 1.172128 0.819915
1.800702 1.173008 0.778484
1.803628 1.142216 0.780722
1.787265 1.170241 0.820486
1.782465 1.201086 0.817756
1.781231 1.201860 0.776708
1.785750 1.171121 0.779055
1.802179 1.172460 0.820033
1.797379 1.203306 0.817303
1.796145 1.204080 0.776256
1.800664 1.173340 0.778603
1.782473 1.201034 0.817752
1.777566 1.231807 0.813976
1.776061 1.232132 0.770548
1.781239 1.201809 0.776704
1.797361 1.203418 0.817300
1.792455 1.234191 0.813524
1.790950 1.234516 0.770096
1.796128 1.204193 0.776252
1.777630 1.231483 0.814072
1.771522 1.261556 0.807304
1.769194 1.260786 0.762615
1.776125 1.231808 0.770644
1.792380 1.234576 0.813415
1.786272 1.264648 0.806647
1.783944 1.263878 0.761958
1.790875 1.234900 0.769987
1.740538 1.082214 0.811787
1.767289 1.098797 0.814668
1.765321 1.099776 0.788764
1.737649 1.082004 0.787349
1.748628 1.069519 0.810813
1.775380 1.086103 0.813693
1.773411 1.087082 0.787790
1.745739 1.069310 0.786374
1.767314 1.098803 0.814786
1.794063 1.115388 0.817670
1.793017 1.117558 0.790303
1.765345 1.099782 0.788883
1.775410 1.086132 0.813579
1.802159 1.102717 0.816463
1.801113 1.104887 0.789095
1.773441 1.087111 0.787676
1.797765 1.108292 0.824576
1.771016 1.091707 0.821692
1.769205 1.077805 0.820218
1.794145 1.080487 0.821636
1.798455 1.109789 0.809581
1.771706 1.093204 0.806698
1.769895 1.079302 0.805224
1.794835 1.081984 0.806641
1.770997 1.091698 0.821690
1.744246 1.075114 0.818810
1.769187 1.077796 0.820216
1.771682 1.093198 0.806696
1.744930 1.076615 0.803815
1.769871 1.079296 0.805222
1.737097 1.076622 0.811979
1.734207 1.076412 0.787541
1.733367 1.063544 0.785858
1.734936 1.062793 0.810947
1.752041 1.075081 0.810617
1.749151 1.074871 0.786179
1.748311 1.062003 0.784496
1.749880 1.061252 0.809585
1.794408 1.079711 0.821526
1.769468 1.077029 0.820108
1.768279 1.060110 0.817250
1.794195 1.059700 0.816848
1.794568 1.082721 0.806745
1.769629 1.080039 0.805328
1.768440 1.063120 0.802469
1.794355 1.062711 0.802067
1.769420 1.077597 0.820201
1.744479 1.074916 0.818794
1.742319 1.061088 0.817763
1.768231 1.060678 0.817342
1.769627 1.079469 0.805234
1.744686 1.076787 0.803827
1.742525 1.062959 0.802796
1.768438 1.062550 0.802375
1.909058 1.079227 0.830393
1.926263 1.079760 0.831529
1.916464 1.110170 0.834815
1.899189 1.109708 0.834238
1.909744 1.081198 0.815453
1.926948 1.081731 0.816589
1.917150 1.112141 0.819875
1.899874 1.111679 0.819298
1.899399 1.109914 0.834269
1.916674 1.110377 0.834846
1.909179 1.141437 0.837838
1.892459 1.141222 0.837776
1.899648 1.111534 0.819274
1.916923 1.111997 0.819851
1.909429 1.143057 0.822842
1.892708 1.142842 0.822781
1.892529 1.142119 0.837822
1.909250 1.142334 0.837884
1.905989 1.174027 0.837675
1.889456 1.174017 0.837521
1.892627 1.142008 0.822738
1.909348 1.142223 0.822799
1.906087 1.173916 0.822591
1.889554 1.173906 0.822437
1.889394 1.174790 0.837477
1.905927 1.174799 0.837631
1.905616 1.206711 0.834324
1.888595 1.206794 0.833982
1.889612 1.173197 0.822478
1.906145 1.173207 0.822632
1.905834 1.205119 0.819325
1.888813 1.205202 0.818983
1.888423 1.207443 0.833881
1.905444 1.207361 0.834223
1.906213 1.238960 0.828540
1.888627 1.239085 0.827527
1.888986 1.204616 0.819074
1.906006 1.204534 0.819416
1.906775 1.236133 0.813733
1.889190 1.236258 0.812720
1.888599 1.239094 0.827524
1.906184 1.238969 0.828537
1.906610 1.270400 0.822401
1.890532 1.270828 0.821897
1.889220 1.236312 0.812711
1.906806 1.236187 0.813724
1.907232 1.267618 0.807587
1.891153 1.268046 0.807084
1.909134 1.078990 0.830361
1.914289 1.055485 0.827189
1.929892 1.060145 0.828096
1.926338 1.079523 0.831497
1.909682 1.081383 0.815477
1.914837 1.057877 0.812305
1.930440 1.062537 0.813212
1.926886 1.081915 0.816613
1.904203 1.055711 0.816105
1.908342 1.054628 0.823500
1.903188 1.078134 0.826672
1.899110 1.077765 0.820873
1.916623 1.059814 0.808592
1.920763 1.058731 0.815987
1.915608 1.082237 0.819159
1.911530 1.081868 0.813360
1.794511 1.079474 0.821474
1.794298 1.059463 0.816796
1.823357 1.059969 0.816855
1.822206 1.079088 0.821471
1.794519 1.082960 0.806798
1.794305 1.062949 0.802119
1.823364 1.063456 0.802178
1.822213 1.082575 0.806795
1.822202 1.079054 0.821463
1.823352 1.059935 0.816846
1.852397 1.060190 0.817038
1.849897 1.078674 0.821522
1.822274 1.082609 0.806803
1.823425 1.063490 0.802187
1.852469 1.063745 0.802378
1.849969 1.082229 0.806862
1.849509 1.078679 0.821510
1.852009 1.060195 0.817026
1.880956 1.058080 0.818467
1.877166 1.078361 0.822980
1.850414 1.082223 0.806875
1.852914 1.063739 0.802391
1.881861 1.061623 0.803832
1.878071 1.081904 0.808345
1.877232 1.078436 0.823002
1.881023 1.058154 0.818489
1.909983 1.056068 0.819682
1.904889 1.078121 0.824450
1.878061 1.081827 0.808326
1.881851 1.061546 0.803813
1.910811 1.059459 0.805007
1.905718 1.081513 0.809775
1.778810 1.264709 0.814366
1.784917 1.234637 0.821134
1.810635 1.235116 0.821259
1.806158 1.264602 0.814892
1.779013 1.261495 0.799629
1.785120 1.231423 0.806397
1.810838 1.231902 0.806522
1.806361 1.261387 0.800155
1.806176 1.264539 0.814905
1.810653 1.235053 0.821273
1.836287 1.235014 0.821533
1.833524 1.264439 0.815468
1.806397 1.261450 0.800142
1.810874 1.231965 0.806509
1.836508 1.231926 0.806769
1.833745 1.261350 0.800705
1.833367 1.264318 0.815488
1.836130 1.234894 0.821553
1.860651 1.235099 0.822190
1.860703 1.265191 0.816702
1.833955 1.261471 0.800686
1.836718 1.232047 0.806750
1.861239 1.232253 0.807388
1.861291 1.262345 0.801900
1.860677 1.265041 0.816728
1.860625 1.234949 0.822216
1.885184 1.235209 0.822980
1.887970 1.266226 0.818134
1.861369 1.262497 0.801875
1.861317 1.232405 0.807364
1.885876 1.232665 0.808127
1.888662 1.263682 0.803281
1.784879 1.233970 0.821249
1.789785 1.203197 0.825025
1.813922 1.204224 0.825671
1.810597 1.234449 0.821374
1.785169 1.232029 0.806293
1.790075 1.201256 0.810069
1.814211 1.202284 0.810714
1.810886 1.232509 0.806417
1.810597 1.234602 0.821353
1.813922 1.204377 0.825650
1.837991 1.204390 0.826524
1.836231 1.234563 0.821613
1.810936 1.232357 0.806440
1.814261 1.202132 0.810737
1.838331 1.202145 0.811611
1.836570 1.232318 0.806700
1.836175 1.234674 0.821594
1.837935 1.204501 0.826505
1.861200 1.204316 0.827470
1.860696 1.234880 0.822231
1.836675 1.232207 0.806720
1.838435 1.202034 0.811632
1.861700 1.201849 0.812597
1.861196 1.232412 0.807358
1.860693 1.234940 0.822221
1.861197 1.204376 0.827459
1.884677 1.204153 0.828482
1.885252 1.235201 0.822984
1.861247 1.232352 0.807370
1.861751 1.201788 0.812609
1.885231 1.201564 0.813631
1.885806 1.232612 0.808133
1.789658 1.202854 0.825059
1.794459 1.172009 0.827789
1.817285 1.173529 0.828647
1.813795 1.203882 0.825705
1.790210 1.201538 0.810042
1.795011 1.170692 0.812772
1.817838 1.172212 0.813629
1.814347 1.202565 0.810688
1.813805 1.203930 0.825701
1.817296 1.173577 0.828642
1.840217 1.173444 0.829589
1.837875 1.203944 0.826575
1.814383 1.202517 0.810693
1.817874 1.172164 0.813635
1.840795 1.172030 0.814582
1.838453 1.202531 0.811568
1.837871 1.203962 0.826573
1.840214 1.173462 0.829587
1.862698 1.172891 0.830621
1.861136 1.203776 0.827538
1.838503 1.202512 0.811571
1.840845 1.172012 0.814585
1.863330 1.171441 0.815619
1.861767 1.202327 0.812536
1.861136 1.203796 0.827536
1.862699 1.172911 0.830619
1.885523 1.172241 0.831772
1.884617 1.203573 0.828559
1.861812 1.202306 0.812540
1.863375 1.171420 0.815623
1.886199 1.170751 0.816776
1.885292 1.202082 0.813563
1.794494 1.171435 0.827820
1.798138 1.142529 0.828520
1.820573 1.142124 0.829111
1.817321 1.172955 0.828677
1.794982 1.171206 0.812745
1.798626 1.142299 0.813444
1.821061 1.141894 0.814036
1.817809 1.172725 0.813602
1.817339 1.172874 0.828679
1.820590 1.142043 0.829112
1.843262 1.141551 0.829675
1.840260 1.172740 0.829625
1.817837 1.172806 0.813602
1.821089 1.141976 0.814036
1.843760 1.141483 0.814599
1.840758 1.172673 0.814549
1.840189 1.172682 0.829623
1.843191 1.141493 0.829673
1.865889 1.140912 0.830692
1.862673 1.172111 0.830656
1.840875 1.172730 0.814553
1.843877 1.141540 0.814603
1.866576 1.140959 0.815623
1.863360 1.172159 0.815587
1.862667 1.172098 0.830656
1.865883 1.140898 0.830692
1.889217 1.140340 0.831815
1.885491 1.171428 0.831809
1.863412 1.172171 0.815589
1.866628 1.140971 0.815626
1.889962 1.140413 0.816748
1.886236 1.171501 0.816743
1.798191 1.141495 0.828468
1.797943 1.108189 0.824571
1.822329 1.109881 0.825343
1.820625 1.141090 0.829059
1.798578 1.143271 0.813493
1.798331 1.109965 0.809596
1.822716 1.111657 0.810368
1.821012 1.142866 0.814084
1.820656 1.141063 0.829057
1.822360 1.109853 0.825340
1.846889 1.109149 0.825806
1.843328 1.140570 0.829620
1.821029 1.142893 0.814088
1.822733 1.111684 0.810372
1.847262 1.110980 0.810838
1.843700 1.142401 0.814651
1.843144 1.140558 0.829611
1.846705 1.109137 0.825798
1.871094 1.109113 0.827182
1.865843 1.139977 0.830631
1.843931 1.142412 0.814661
1.847492 1.110992 0.810848
1.871881 1.110967 0.812233
1.866630 1.141831 0.815681
1.865860 1.140015 0.830636
1.871111 1.109150 0.827188
1.896181 1.108884 0.828558
1.889194 1.139456 0.831759
1.866660 1.141793 0.815678
1.871912 1.110929 0.812230
1.896982 1.110662 0.813599
1.889995 1.141235 0.816801
1.798047 1.108188 0.824573
1.794427 1.080383 0.821633
1.822121 1.079998 0.821630
1.822433 1.109880 0.825345
1.798225 1.109904 0.809587
1.794605 1.082099 0.806647
1.822299 1.081714 0.806644
1.822611 1.111596 0.810359
1.822453 1.109748 0.825329
1.822141 1.079866 0.821614
1.849836 1.079486 0.821673
1.846982 1.109044 0.825795
1.822644 1.111728 0.810375
1.822332 1.081846 0.806661
1.850027 1.081466 0.806719
1.847173 1.111024 0.810842
1.846687 1.108948 0.825771
1.849542 1.079389 0.821649
1.877198 1.079071 0.823119
1.871076 1.108923 0.827156
1.847519 1.111120 0.810867
1.850373 1.081562 0.806745
1.878030 1.081243 0.808215
1.871908 1.111096 0.812251
1.871108 1.108911 0.827156
1.877230 1.079058 0.823119
1.904887 1.078744 0.824568
1.896178 1.108644 0.828526
1.871928 1.111108 0.812254
1.878051 1.081256 0.808218
1.905708 1.080941 0.809666
1.896998 1.110842 0.813624
1.869834 1.288913 0.810069
1.880554 1.306627 0.805760
1.874446 1.312191 0.811791
1.864866 1.295670 0.816108
1.860389 1.291630 0.798626
1.871109 1.309344 0.794317
1.865000 1.314909 0.800347
1.855421 1.298387 0.804664
1.880937 1.307545 0.805575
1.888011 1.326663 0.800602
1.881414 1.330704 0.807052
1.874828 1.313110 0.811606
1.870744 1.308461 0.794493
1.877818 1.327580 0.789519
1.871221 1.331621 0.795969
1.864635 1.314026 0.800523
1.888376 1.327439 0.800254
1.892272 1.347570 0.794766
1.885542 1.350093 0.801926
1.881779 1.331480 0.806704
1.877463 1.326841 0.789857
1.881359 1.346972 0.784369
1.874630 1.349495 0.791529
1.870866 1.330882 0.796307
1.892639 1.348777 0.794121
1.891274 1.369075 0.788634
1.885533 1.370062 0.796254
1.885909 1.351300 0.801281
1.880995 1.345804 0.785003
1.879630 1.366102 0.779516
1.873889 1.367089 0.787136
1.874266 1.348326 0.792163
1.891267 1.370267 0.788065
1.886184 1.389474 0.782601
1.880843 1.389282 0.790588
1.885526 1.371254 0.795685
1.879631 1.364948 0.780074
1.874548 1.384155 0.774610
1.869207 1.383963 0.782596
1.873890 1.365935 0.787694
1.885815 1.390512 0.782285
1.877121 1.408946 0.776637
1.872444 1.407438 0.785181
1.880474 1.390320 0.790272
1.874904 1.383153 0.774915
1.866210 1.401586 0.769267
1.861532 1.400078 0.777811
1.869563 1.382961 0.782901
1.882063 1.302604 0.808960
1.888818 1.294057 0.810947
1.889241 1.321213 0.803869
1.883294 1.328966 0.802361
1.881323 1.298895 0.794357
1.888077 1.290348 0.796344
1.888500 1.317504 0.789266
1.882553 1.325257 0.787758
1.886814 1.395186 0.783770
1.885803 1.369714 0.791300
1.892064 1.375740 0.789162
1.893885 1.402694 0.781345
1.886124 1.390987 0.769297
1.885114 1.365514 0.776827
1.891375 1.371541 0.774690
1.893196 1.398495 0.766873
1.885718 1.369740 0.791295
1.886728 1.395213 0.783765
1.880634 1.388947 0.785831
1.885189 1.365486 0.776833
1.886199 1.390958 0.769303
1.880106 1.384692 0.771369
1.881910 1.302573 0.808974
1.883140 1.328934 0.802375
1.876066 1.309816 0.807348
1.881466 1.298931 0.794342
1.882696 1.325292 0.787743
1.875622 1.306174 0.792716
1.883627 1.329013 0.802324
1.889574 1.321260 0.803833
1.890997 1.348366 0.796619
1.887523 1.349143 0.796836
1.882224 1.325260 0.787781
1.888170 1.317508 0.789289
1.889593 1.344613 0.782076
1.886120 1.345391 0.782293
1.887513 1.349262 0.796806
1.890986 1.348484 0.796589
1.892409 1.375586 0.789180
1.886148 1.369560 0.791318
1.886133 1.345320 0.782310
1.889606 1.344542 0.782094
1.891029 1.371644 0.774685
1.884768 1.365618 0.776823
1.899316 1.077491 0.821044
1.903394 1.077860 0.826843
1.893524 1.108340 0.830688
1.890606 1.107391 0.825002
1.911310 1.082195 0.813197
1.915388 1.082564 0.818996
1.905519 1.113045 0.822842
1.902600 1.112095 0.817155
1.890233 1.107950 0.824699
1.893151 1.108899 0.830386
1.886211 1.140207 0.833892
1.883246 1.138522 0.827900
1.902957 1.111598 0.817465
1.905876 1.112547 0.823152
1.898936 1.143855 0.826659
1.895970 1.142170 0.820666
1.883164 1.139701 0.828153
1.886129 1.141386 0.834146
1.883055 1.173284 0.833845
1.879437 1.170789 0.828148
1.896042 1.141053 0.820416
1.899008 1.142739 0.826409
1.895934 1.174637 0.826108
1.892316 1.172142 0.820411
1.879526 1.171757 0.828341
1.883144 1.174252 0.834038
1.882345 1.206256 0.830543
1.878619 1.203088 0.825128
1.892224 1.171238 0.820214
1.895841 1.173732 0.825911
1.895043 1.205737 0.822416
1.891317 1.202569 0.817000
1.878596 1.203686 0.825009
1.882322 1.206854 0.830425
1.882526 1.238496 0.824071
1.879171 1.234734 0.819512
1.891340 1.202034 0.817109
1.895066 1.205202 0.822525
1.895270 1.236844 0.816171
1.891915 1.233082 0.811611
1.878975 1.235025 0.819099
1.882330 1.238786 0.823658
1.884263 1.270521 0.818031
1.881761 1.266041 0.814253
1.892114 1.232854 0.812013
1.895469 1.236616 0.816572
1.897402 1.268350 0.810945
1.894900 1.263871 0.807167
