3.598944 0.371844 -0.327597
3.602169 0.349426 -0.318391
3.607361 0.344097 -0.306293
3.605146 0.361163 -0.312618
3.617208 0.371184 -0.335673
3.620433 0.348766 -0.326466
3.625625 0.343437 -0.314368
3.623409 0.360503 -0.320693
3.602199 0.349431 -0.318325
3.605424 0.327013 -0.309119
3.609455 0.327697 -0.300316
3.607391 0.344102 -0.306226
3.620408 0.348721 -0.326518
3.623633 0.326303 -0.317311
3.627664 0.326988 -0.308509
3.625600 0.343393 -0.314419
3.605138 0.361100 -0.312632
3.607353 0.344034 -0.306306
3.612545 0.338705 -0.294208
3.611340 0.350419 -0.297653
3.623429 0.360550 -0.320653
3.625644 0.343484 -0.314327
3.630836 0.338156 -0.302229
3.629631 0.349869 -0.305674
3.607388 0.344036 -0.306227
3.609452 0.327631 -0.300317
3.613482 0.328315 -0.291515
3.612580 0.338707 -0.294129
3.625612 0.343454 -0.314397
3.627676 0.327049 -0.308487
3.631706 0.327733 -0.299685
3.630804 0.338125 -0.302299
3.610657 0.349899 -0.299896
3.611862 0.338185 -0.296451
3.613852 0.334659 -0.284050
3.614085 0.340738 -0.283638
3.630321 0.350375 -0.303403
3.631527 0.338661 -0.299958
3.633516 0.335135 -0.287556
3.633750 0.341214 -0.287145
3.611788 0.338181 -0.296939
3.612690 0.327789 -0.294325
3.613544 0.328577 -0.284949
3.613777 0.334655 -0.284538
3.631602 0.338648 -0.299467
3.632504 0.328256 -0.296853
3.633358 0.329043 -0.287477
3.633591 0.335121 -0.287066
3.613867 0.331558 -0.285605
3.613013 0.330771 -0.294981
3.609903 0.317204 -0.282951
3.612203 0.324497 -0.279154
3.633033 0.326043 -0.286811
3.632179 0.325255 -0.296187
3.629069 0.311688 -0.284157
3.631369 0.318981 -0.280360
3.612482 0.325279 -0.280586
3.610182 0.317986 -0.284383
3.607277 0.313835 -0.271263
3.610041 0.320590 -0.271800
3.631085 0.318184 -0.278908
3.628784 0.310891 -0.282705
3.625879 0.306740 -0.269586
3.628643 0.313495 -0.270123
3.614407 0.332711 -0.292322
3.610376 0.332027 -0.301124
3.607082 0.315132 -0.285387
3.611296 0.319144 -0.280292
3.630780 0.323309 -0.298859
3.626749 0.322625 -0.307662
3.623455 0.305731 -0.291924
3.627669 0.309742 -0.286830
3.612292 0.321347 -0.282976
3.608077 0.317336 -0.288070
3.603822 0.311335 -0.268319
3.609387 0.317196 -0.269856
3.626667 0.307518 -0.284116
3.622452 0.303507 -0.289210
3.618197 0.297505 -0.269459
3.623762 0.303367 -0.270996
3.610270 0.331859 -0.301156
3.606239 0.331174 -0.309958
3.602888 0.311119 -0.291025
3.606975 0.314964 -0.285418
3.626848 0.322788 -0.307644
3.622817 0.322104 -0.316447
3.619466 0.302049 -0.297514
3.623553 0.305894 -0.291907
3.608074 0.317335 -0.288101
3.603986 0.313490 -0.293709
3.598254 0.305472 -0.266813
3.603818 0.311334 -0.268350
3.622446 0.303498 -0.289183
3.618359 0.299653 -0.294790
3.612626 0.291635 -0.267894
3.618191 0.297497 -0.269431
3.578924 0.378072 -0.206616
3.582806 0.370530 -0.237548
3.593028 0.361244 -0.244868
3.589809 0.364810 -0.225160
3.592775 0.392421 -0.207821
3.596658 0.384878 -0.238754
3.606880 0.375592 -0.246074
3.603661 0.379159 -0.226365
3.588985 0.365737 -0.226609
3.592204 0.362171 -0.246317
3.602834 0.352442 -0.256112
3.599870 0.352475 -0.245152
3.604506 0.378209 -0.224944
3.607725 0.374642 -0.244652
3.618354 0.364914 -0.254447
3.615391 0.364947 -0.243487
3.598690 0.355531 -0.247441
3.601654 0.355498 -0.258401
3.610206 0.344370 -0.269236
3.609181 0.340570 -0.264862
3.616591 0.361867 -0.241227
3.619555 0.361834 -0.252187
3.628107 0.350707 -0.263023
3.627081 0.346907 -0.258649
3.583193 0.370152 -0.237973
3.588142 0.364803 -0.268872
3.596610 0.357817 -0.264133
3.593415 0.360866 -0.245293
3.596278 0.385246 -0.238379
3.601227 0.379897 -0.269279
3.609695 0.372911 -0.264539
3.606500 0.375960 -0.245699
3.593674 0.360665 -0.246043
3.596869 0.357616 -0.264882
3.607041 0.351227 -0.266426
3.604304 0.350937 -0.255838
3.606261 0.376145 -0.244957
3.609455 0.373096 -0.263797
3.619627 0.366706 -0.265340
3.616890 0.366416 -0.254752
3.602069 0.354383 -0.258226
3.604806 0.354673 -0.268814
3.611652 0.346048 -0.273991
3.610621 0.343255 -0.269061
3.619143 0.362953 -0.252377
3.621880 0.363243 -0.262965
3.628726 0.354618 -0.268142
3.627696 0.351825 -0.263213
3.589645 0.363912 -0.270884
3.597333 0.364941 -0.301863
3.603239 0.359043 -0.286306
3.598113 0.356926 -0.266144
3.599734 0.380785 -0.267318
3.607423 0.381814 -0.298298
3.613328 0.375916 -0.282741
3.608202 0.373799 -0.262578
3.597726 0.357276 -0.266573
3.602852 0.359392 -0.286735
3.610790 0.352833 -0.282433
3.607898 0.350887 -0.268116
3.608606 0.373437 -0.262138
3.613732 0.375553 -0.282301
3.621669 0.368994 -0.277998
3.618777 0.367047 -0.263682
3.605239 0.353712 -0.268460
3.608131 0.355659 -0.282777
3.613121 0.346768 -0.279180
3.612085 0.345088 -0.273637
3.621451 0.364206 -0.263337
3.624343 0.366153 -0.277654
3.629333 0.357262 -0.274056
3.628297 0.355582 -0.268514
3.594811 0.366882 -0.300633
3.600499 0.365032 -0.332146
3.606701 0.354351 -0.317167
3.600717 0.360983 -0.285076
3.609957 0.379870 -0.299586
3.615645 0.378020 -0.331099
3.621846 0.367339 -0.316120
3.615863 0.373972 -0.284029
3.600344 0.361439 -0.284101
3.606328 0.354806 -0.316192
3.612529 0.344125 -0.301213
3.608282 0.354879 -0.279798
3.616249 0.373500 -0.284979
3.622232 0.366867 -0.317070
3.628434 0.356186 -0.302092
3.624186 0.366941 -0.280677
3.606981 0.357190 -0.279676
3.611229 0.346436 -0.301091
3.614657 0.337275 -0.284833
3.611971 0.348300 -0.276079
3.625498 0.364613 -0.280779
3.629746 0.353858 -0.302194
3.633174 0.344697 -0.285936
3.630489 0.355722 -0.277182
3.608299 0.325564 -0.263188
3.608883 0.321031 -0.267738
3.604913 0.313487 -0.261986
3.602038 0.317780 -0.248640
3.626835 0.320950 -0.257330
3.627419 0.316418 -0.261880
3.623449 0.308874 -0.256128
3.620574 0.313166 -0.242782
3.603336 0.320830 -0.248459
3.606211 0.316538 -0.261805
3.598415 0.310638 -0.254074
3.594976 0.313962 -0.234377
3.619263 0.310101 -0.242942
3.622138 0.305809 -0.256288
3.614342 0.299910 -0.248557
3.610903 0.303233 -0.228861
3.595279 0.314681 -0.233644
3.598718 0.311358 -0.253340
3.590892 0.305417 -0.244866
3.587009 0.307887 -0.219715
3.610584 0.302501 -0.229572
3.614023 0.299177 -0.249268
3.606198 0.293237 -0.240794
3.602315 0.295706 -0.215643
3.609011 0.321992 -0.267171
3.610198 0.320311 -0.273305
3.607434 0.313556 -0.272768
3.605041 0.314447 -0.261419
3.627294 0.315452 -0.262464
3.628481 0.313771 -0.268599
3.625718 0.307016 -0.268062
3.623324 0.307908 -0.256713
3.606933 0.317704 -0.261216
3.609326 0.316812 -0.272565
3.603761 0.310950 -0.271028
3.599137 0.311804 -0.253485
3.621422 0.304639 -0.256908
3.623816 0.303747 -0.268257
3.618251 0.297885 -0.266719
3.613627 0.298739 -0.249177
3.599045 0.311668 -0.253582
3.603670 0.310814 -0.271124
3.598105 0.304952 -0.269587
3.591220 0.305727 -0.245108
3.613705 0.298864 -0.249070
3.618329 0.298010 -0.266613
3.612764 0.292148 -0.265075
3.605879 0.292923 -0.240596
3.577383 0.385158 -0.212511
3.588269 0.371895 -0.231055
3.590691 0.349692 -0.233223
3.580466 0.357644 -0.218387
3.594315 0.385317 -0.201904
3.605200 0.372054 -0.220449
3.607623 0.349851 -0.222616
3.597398 0.357803 -0.207780
3.588126 0.371029 -0.230733
3.599011 0.357768 -0.249276
3.600605 0.342278 -0.246981
3.590549 0.348826 -0.232901
3.605364 0.372900 -0.220804
3.616248 0.359638 -0.239348
3.617842 0.344148 -0.237052
3.607786 0.350696 -0.222972
3.598626 0.357382 -0.248431
3.609116 0.342422 -0.265853
3.608385 0.335947 -0.263027
3.600220 0.341892 -0.246136
3.616654 0.360003 -0.240226
3.627144 0.345043 -0.257648
3.626413 0.338568 -0.254822
3.618248 0.344513 -0.237931
3.580787 0.357588 -0.218866
3.591012 0.349636 -0.233702
3.593040 0.329400 -0.235601
3.583768 0.329891 -0.223110
3.597082 0.357810 -0.207308
3.607307 0.349858 -0.222144
3.609336 0.329622 -0.224042
3.600064 0.330113 -0.211552
3.591020 0.349389 -0.233705
3.601077 0.342841 -0.247785
3.602220 0.329402 -0.248299
3.593049 0.329153 -0.235603
3.607318 0.350098 -0.222169
3.617374 0.343549 -0.236249
3.618517 0.330111 -0.236763
3.609347 0.329861 -0.224067
3.600116 0.342848 -0.246099
3.608282 0.336903 -0.262991
3.608289 0.329962 -0.263332
3.601259 0.329410 -0.246613
3.618352 0.343536 -0.237965
3.626518 0.337591 -0.254856
3.626525 0.330650 -0.255197
3.619495 0.330098 -0.238479
3.583664 0.329464 -0.222937
3.592936 0.328973 -0.235427
3.594674 0.308091 -0.237199
3.586405 0.301297 -0.223270
3.600173 0.330491 -0.211730
3.609445 0.330000 -0.224220
3.611183 0.309118 -0.225992
3.602914 0.302323 -0.212064
3.592826 0.329619 -0.235284
3.601997 0.329869 -0.247980
3.602924 0.315606 -0.251138
3.594564 0.308737 -0.237056
3.609573 0.329360 -0.224389
3.618743 0.329610 -0.237085
3.619670 0.315347 -0.240244
3.611311 0.308479 -0.226162
3.601161 0.330022 -0.246391
3.608191 0.330574 -0.263109
3.608349 0.323543 -0.264097
3.602088 0.315759 -0.249549
3.619594 0.329465 -0.238703
3.626624 0.330017 -0.255422
3.626782 0.322986 -0.256410
3.620521 0.315202 -0.241862
3.750493 0.408089 -0.256525
3.750009 0.393244 -0.228030
3.739508 0.377152 -0.230885
3.739524 0.384988 -0.254985
3.733245 0.417408 -0.252670
3.732761 0.402563 -0.224175
3.722260 0.386470 -0.227030
3.722276 0.394307 -0.251130
3.739580 0.384794 -0.254007
3.739564 0.376957 -0.229907
3.728620 0.361058 -0.233458
3.728611 0.361692 -0.252467
3.722199 0.394462 -0.252110
3.722183 0.386626 -0.228010
3.711238 0.370726 -0.231561
3.711230 0.371361 -0.250570
3.749354 0.392995 -0.229589
3.753450 0.378311 -0.201299
3.740424 0.364527 -0.210167
3.738853 0.376902 -0.232444
3.733419 0.402787 -0.222564
3.737514 0.388103 -0.194273
3.724488 0.374320 -0.203142
3.722918 0.386695 -0.225419
3.738849 0.376668 -0.232104
3.740419 0.364293 -0.209827
3.727393 0.350510 -0.218695
3.727905 0.360769 -0.235655
3.722898 0.386899 -0.225771
3.724469 0.374525 -0.203494
3.711443 0.360741 -0.212363
3.711954 0.371000 -0.229322
3.730979 0.344261 -0.266649
3.739974 0.349348 -0.281563
3.738777 0.370185 -0.267378
3.730296 0.357853 -0.260367
3.714134 0.349057 -0.276264
3.723129 0.354144 -0.291178
3.721933 0.374981 -0.276994
3.713452 0.362649 -0.269983
3.739960 0.348810 -0.281845
3.748954 0.353897 -0.296759
3.747501 0.382371 -0.274021
3.738763 0.369647 -0.267661
3.723161 0.354699 -0.290917
3.732155 0.359787 -0.305831
3.730702 0.388261 -0.283093
3.721964 0.375537 -0.276733
3.730476 0.356312 -0.261976
3.738957 0.368644 -0.268987
3.739493 0.385670 -0.249891
3.728524 0.362569 -0.248351
3.713270 0.364219 -0.268348
3.721751 0.376551 -0.275359
3.722286 0.393578 -0.256263
3.711317 0.370477 -0.254723
3.738888 0.368679 -0.268765
3.747626 0.381403 -0.275125
3.750392 0.408807 -0.251209
3.739424 0.385706 -0.249669
3.721840 0.376552 -0.275589
3.730577 0.389276 -0.281949
3.733344 0.416680 -0.258033
3.722375 0.393579 -0.256493
3.752898 0.379918 -0.203609
3.738213 0.350080 -0.205595
3.730125 0.340620 -0.210558
3.739872 0.366135 -0.212477
3.738056 0.386454 -0.191938
3.723371 0.356617 -0.193925
3.715284 0.347156 -0.198887
3.725030 0.372671 -0.200806
3.739871 0.366118 -0.212469
3.730124 0.340603 -0.210550
3.724743 0.334725 -0.214116
3.726845 0.352334 -0.221337
3.725012 0.372667 -0.200828
3.715265 0.347152 -0.198909
3.709884 0.341274 -0.202476
3.711986 0.358884 -0.209696
3.737770 0.353277 -0.206903
3.729092 0.322987 -0.212314
3.726101 0.322396 -0.218131
3.729683 0.343817 -0.211865
3.723795 0.353366 -0.192623
3.715117 0.323076 -0.198034
3.712126 0.322486 -0.203851
3.715708 0.343906 -0.197586
3.729483 0.345867 -0.211775
3.725901 0.324447 -0.218040
3.722298 0.325450 -0.224529
3.724102 0.339989 -0.215342
3.715898 0.341848 -0.197687
3.712316 0.320428 -0.203952
3.708713 0.321431 -0.210441
3.710516 0.335970 -0.201254
3.730805 0.325345 -0.209495
3.733117 0.294228 -0.221170
3.727788 0.303011 -0.227700
3.727813 0.324754 -0.215312
3.713400 0.320666 -0.200871
3.715712 0.289550 -0.212545
3.710383 0.298332 -0.219075
3.710409 0.320075 -0.206688
3.727853 0.324873 -0.215163
3.727828 0.303129 -0.227550
3.722499 0.311911 -0.234080
3.724250 0.325876 -0.221651
3.710360 0.319966 -0.206850
3.710334 0.298222 -0.219237
3.705006 0.307005 -0.225767
3.706757 0.320969 -0.213338
3.725564 0.319089 -0.247274
3.727019 0.313214 -0.251001
3.731356 0.325675 -0.264226
3.727775 0.328706 -0.256499
3.706910 0.317522 -0.254256
3.708364 0.311647 -0.257983
3.712701 0.324108 -0.271209
3.709121 0.327139 -0.263482
3.725721 0.318072 -0.252649
3.723753 0.316589 -0.240383
3.729238 0.308494 -0.238514
3.731364 0.310665 -0.255440
3.709663 0.306763 -0.256316
3.707695 0.305280 -0.244051
3.713180 0.297185 -0.242182
3.715306 0.299356 -0.259108
3.723548 0.316863 -0.240363
3.721579 0.315380 -0.228097
3.726908 0.306598 -0.221568
3.729033 0.308768 -0.238494
3.707895 0.305003 -0.244042
3.705927 0.303520 -0.231777
3.711255 0.294738 -0.225247
3.713381 0.296908 -0.242173
3.731390 0.310681 -0.255612
3.729263 0.308511 -0.238686
3.734750 0.300416 -0.236817
3.737032 0.303274 -0.258404
3.715292 0.299324 -0.258937
3.713166 0.297153 -0.242011
3.718652 0.289058 -0.240142
3.720934 0.291916 -0.261729
3.729106 0.308720 -0.238657
3.726981 0.306550 -0.221731
3.732309 0.297767 -0.215201
3.734592 0.300625 -0.236788
3.713319 0.296939 -0.242002
3.711194 0.294769 -0.225075
3.716522 0.285987 -0.218546
3.718805 0.288844 -0.240133
3.722564 0.323762 -0.234213
3.723468 0.310950 -0.228168
3.725436 0.312432 -0.240433
3.724257 0.321776 -0.241592
3.703129 0.320782 -0.237759
3.704032 0.307970 -0.231714
3.706001 0.309453 -0.243980
3.704822 0.318796 -0.245139
3.724274 0.321670 -0.241597
3.725453 0.312326 -0.240438
3.727421 0.313809 -0.252703
3.725967 0.319684 -0.248976
3.704809 0.318902 -0.245154
3.705988 0.309558 -0.243995
3.707956 0.311041 -0.256260
3.706502 0.316917 -0.252533
3.730520 0.347909 -0.265562
3.730001 0.326178 -0.261839
3.736157 0.323557 -0.267926
3.739515 0.352996 -0.280476
3.714592 0.345366 -0.277353
3.714072 0.323635 -0.273629
3.720229 0.321014 -0.279717
3.723587 0.350453 -0.292267
3.739411 0.353597 -0.280497
3.736054 0.324158 -0.267947
3.742210 0.321537 -0.274035
3.748406 0.358684 -0.295411
3.723706 0.349854 -0.292267
3.720348 0.320415 -0.279717
3.726505 0.317793 -0.285805
3.732700 0.354941 -0.307181
3.727604 0.340483 -0.254138
3.727828 0.327987 -0.256556
3.731409 0.324956 -0.264283
3.731929 0.346686 -0.268006
3.708847 0.340382 -0.261019
3.709071 0.327886 -0.263437
3.712652 0.324855 -0.271164
3.713172 0.346586 -0.274888
3.729378 0.328407 -0.261938
3.725040 0.315946 -0.248713
3.730683 0.308539 -0.251504
3.735535 0.325785 -0.268026
3.714688 0.321366 -0.273507
3.710351 0.308905 -0.260282
3.715994 0.301498 -0.263074
3.720845 0.318745 -0.279595
3.735532 0.325737 -0.267993
3.730681 0.308491 -0.251472
3.736323 0.301083 -0.254264
3.741689 0.323116 -0.274081
3.720859 0.318783 -0.279636
3.716008 0.301537 -0.263115
3.721650 0.294129 -0.265907
3.727016 0.316161 -0.285724
3.729116 0.353983 -0.217246
3.727014 0.336374 -0.210025
3.722193 0.331248 -0.235004
3.723181 0.341869 -0.236905
3.709700 0.357217 -0.213816
3.707598 0.339607 -0.206595
3.702777 0.334481 -0.231574
3.703765 0.345102 -0.233476
3.726632 0.343950 -0.247788
3.729675 0.364488 -0.250868
3.729684 0.363854 -0.231859
3.724719 0.343689 -0.241047
3.707108 0.347987 -0.249092
3.710151 0.368525 -0.252172
3.710159 0.367891 -0.233163
3.705194 0.347726 -0.242351
3.724556 0.343012 -0.242302
3.729521 0.363177 -0.233114
3.729010 0.352918 -0.216154
3.723075 0.340803 -0.235814
3.705355 0.348396 -0.241071
3.710320 0.368561 -0.231883
3.709808 0.358302 -0.214924
3.703873 0.346188 -0.234583
3.727847 0.339659 -0.255009
3.732172 0.345863 -0.268877
3.731490 0.359455 -0.262596
3.727298 0.343771 -0.251250
3.708603 0.341232 -0.260144
3.712928 0.347435 -0.274012
3.712245 0.361028 -0.267731
3.708053 0.345344 -0.256386
3.727411 0.343373 -0.251917
3.731603 0.359057 -0.263263
3.729651 0.365314 -0.249638
3.726607 0.344776 -0.246558
3.707938 0.345754 -0.255704
3.712130 0.361438 -0.267050
3.710178 0.367696 -0.253425
3.707135 0.347157 -0.250345
3.727132 0.338125 -0.210101
3.725329 0.323586 -0.219288
3.722493 0.327716 -0.236421
3.722311 0.332999 -0.235079
3.707477 0.337831 -0.206520
3.705674 0.323293 -0.215708
3.702838 0.327423 -0.232840
3.702657 0.332706 -0.231499
3.725385 0.323649 -0.218938
3.723633 0.309684 -0.231366
3.722730 0.322497 -0.237412
3.722549 0.327780 -0.236070
3.705616 0.323210 -0.216070
3.703865 0.309245 -0.228498
3.702962 0.322057 -0.234544
3.702781 0.327340 -0.233202
