3.131901 0.693126 -0.811501
3.119285 0.703842 -0.810554
3.119666 0.688790 -0.811013
3.130971 0.681110 -0.811365
3.126604 0.694661 -0.930794
3.113987 0.705377 -0.929847
3.114368 0.690325 -0.930306
3.125674 0.682646 -0.930658
3.130362 0.677982 -0.811463
3.119056 0.685662 -0.811111
3.119440 0.670610 -0.811570
3.129109 0.665980 -0.812739
3.126283 0.685747 -0.930561
3.114977 0.693426 -0.930209
3.115360 0.678374 -0.930668
3.125030 0.673744 -0.931837
3.136151 0.665794 -0.813413
3.126481 0.670423 -0.812244
3.126863 0.655371 -0.812698
3.134902 0.653790 -0.814688
3.117988 0.673904 -0.931165
3.108318 0.678533 -0.929996
3.108700 0.663481 -0.930450
3.116739 0.661900 -0.932440
3.120597 0.597645 -0.814461
3.120346 0.611237 -0.813329
3.106385 0.611909 -0.813409
3.107188 0.597242 -0.813713
3.117743 0.603593 -0.933699
3.117491 0.617186 -0.932567
3.103530 0.617858 -0.932647
3.104333 0.603191 -0.932951
3.118534 0.612355 -0.813268
3.118152 0.627407 -0.812810
3.104352 0.628070 -0.812866
3.104573 0.613027 -0.813348
3.119302 0.616098 -0.932627
3.118919 0.631150 -0.932169
3.105120 0.631813 -0.932226
3.105341 0.616770 -0.932707
3.118257 0.627425 -0.812809
3.117875 0.642477 -0.812352
3.104236 0.643131 -0.812382
3.104457 0.628088 -0.812865
3.118814 0.631162 -0.932169
3.118432 0.646214 -0.931713
3.104793 0.646869 -0.931743
3.105014 0.631825 -0.932226
3.117975 0.642499 -0.812351
3.117593 0.657552 -0.811893
3.104115 0.658197 -0.811903
3.104336 0.643154 -0.812381
3.118331 0.646222 -0.931713
3.117949 0.661274 -0.931255
3.104471 0.661919 -0.931265
3.104692 0.646876 -0.931743
3.117704 0.657564 -0.811892
3.117322 0.672617 -0.811438
3.104005 0.673253 -0.811417
3.104227 0.658210 -0.811902
3.117836 0.661291 -0.931254
3.117455 0.676343 -0.930800
3.104137 0.676980 -0.930780
3.104359 0.661937 -0.931264
3.117436 0.672639 -0.811437
3.117053 0.687691 -0.810979
3.103898 0.688318 -0.810939
3.104119 0.673275 -0.811417
3.117340 0.676351 -0.930800
3.116957 0.691404 -0.930341
3.103802 0.692031 -0.930301
3.104023 0.676987 -0.930779
3.117152 0.687696 -0.810979
3.116771 0.702748 -0.810519
3.103776 0.703366 -0.810456
3.103998 0.688323 -0.810939
3.116857 0.691429 -0.930340
3.116475 0.706481 -0.929881
3.103480 0.707099 -0.929817
3.103702 0.692056 -0.930300
3.107206 0.600760 -0.813641
3.106402 0.615427 -0.813338
3.092441 0.616099 -0.813420
3.093796 0.600358 -0.812893
3.104288 0.599673 -0.933021
3.103485 0.614340 -0.932718
3.089524 0.615012 -0.932800
3.090879 0.599270 -0.932273
3.104547 0.612936 -0.813351
3.104326 0.627980 -0.812870
3.090526 0.628643 -0.812928
3.090586 0.613608 -0.813433
3.105339 0.616861 -0.932705
3.105118 0.631905 -0.932223
3.091318 0.632568 -0.932281
3.091378 0.617533 -0.932787
3.104421 0.627995 -0.812868
3.104199 0.643039 -0.812385
3.090561 0.643693 -0.812422
3.090621 0.628659 -0.812927
3.105023 0.631919 -0.932223
3.104802 0.646962 -0.931740
3.091163 0.647616 -0.931777
3.091223 0.632582 -0.932281
3.104305 0.643060 -0.812384
3.104085 0.658103 -0.811906
3.090606 0.658748 -0.811915
3.090667 0.643714 -0.812421
3.104696 0.646971 -0.931740
3.104475 0.662014 -0.931262
3.090997 0.662659 -0.931271
3.091057 0.647625 -0.931777
3.104187 0.658112 -0.811905
3.103965 0.673155 -0.811421
3.090649 0.673791 -0.811411
3.090709 0.658757 -0.811915
3.104372 0.662036 -0.931261
3.104150 0.677079 -0.930776
3.090834 0.677715 -0.930767
3.090894 0.662681 -0.931270
3.104068 0.673182 -0.811420
3.103847 0.688225 -0.810941
3.090691 0.688853 -0.810905
3.090752 0.673819 -0.811410
3.104047 0.677081 -0.930776
3.103827 0.692125 -0.930298
3.090671 0.692752 -0.930262
3.090731 0.677718 -0.930767
3.103963 0.688226 -0.810942
3.103742 0.703270 -0.810459
3.090748 0.703888 -0.810398
3.090807 0.688854 -0.810905
3.103710 0.692154 -0.930297
3.103489 0.707197 -0.929814
3.090495 0.707815 -0.929754
3.090554 0.692782 -0.930261
3.089839 0.599709 -0.812924
3.088485 0.615451 -0.813452
3.074523 0.616123 -0.813533
3.074422 0.601097 -0.814063
3.094807 0.599920 -0.932241
3.093453 0.615662 -0.932769
3.079491 0.616334 -0.932850
3.079390 0.601309 -0.933380
3.090569 0.613520 -0.813436
3.090509 0.628554 -0.812931
3.076709 0.629217 -0.812989
3.076608 0.614192 -0.813518
3.091367 0.617624 -0.932784
3.091307 0.632658 -0.932278
3.077507 0.633321 -0.932337
3.077406 0.618296 -0.932865
3.090613 0.628567 -0.812930
3.090553 0.643601 -0.812425
3.076914 0.644255 -0.812458
3.076813 0.629230 -0.812988
3.091203 0.632675 -0.932278
3.091143 0.647709 -0.931774
3.077504 0.648364 -0.931806
3.077403 0.633338 -0.932337
3.090656 0.643619 -0.812424
3.090595 0.658653 -0.811918
3.077118 0.659298 -0.811929
3.077017 0.644273 -0.812456
3.091041 0.647722 -0.931774
3.090980 0.662756 -0.931268
3.077503 0.663401 -0.931278
3.077402 0.648376 -0.931806
3.090701 0.658667 -0.811918
3.090641 0.673702 -0.811414
3.077324 0.674338 -0.811398
3.077223 0.659312 -0.811928
3.090875 0.662772 -0.931267
3.090816 0.677806 -0.930764
3.077499 0.678442 -0.930748
3.077398 0.663417 -0.931278
3.090752 0.673721 -0.811413
3.090691 0.688756 -0.810909
3.077536 0.689383 -0.810871
3.077435 0.674357 -0.811398
3.090705 0.677816 -0.930763
3.090644 0.692851 -0.930259
3.077490 0.693478 -0.930221
3.077388 0.678453 -0.930748
3.090798 0.688756 -0.810909
3.090739 0.703790 -0.810402
3.077744 0.704409 -0.810339
3.077644 0.689383 -0.810871
3.090537 0.692881 -0.930258
3.090478 0.707914 -0.929750
3.077483 0.708533 -0.929688
3.077382 0.693508 -0.930220
3.076389 0.599061 -0.814052
3.076490 0.614086 -0.813522
3.062529 0.614758 -0.813605
3.062267 0.599742 -0.814157
3.077395 0.603347 -0.933391
3.077496 0.618372 -0.932862
3.063535 0.619044 -0.932944
3.063273 0.604028 -0.933497
3.076587 0.614102 -0.813521
3.076688 0.629127 -0.812993
3.062888 0.629790 -0.813051
3.062626 0.614774 -0.813604
3.077400 0.618386 -0.932862
3.077501 0.633412 -0.932333
3.063701 0.634075 -0.932392
3.063438 0.619058 -0.932944
3.076786 0.629136 -0.812992
3.076887 0.644161 -0.812461
3.063248 0.644815 -0.812497
3.062986 0.629799 -0.813050
3.077403 0.633434 -0.932333
3.077504 0.648459 -0.931802
3.063865 0.649113 -0.931839
3.063603 0.634097 -0.932392
3.076993 0.644179 -0.812460
3.077094 0.659205 -0.811932
3.063616 0.659850 -0.811942
3.063354 0.644833 -0.812496
3.077399 0.648470 -0.931802
3.077500 0.663496 -0.931275
3.064022 0.664141 -0.931285
3.063760 0.649125 -0.931839
3.077196 0.659222 -0.811932
3.077297 0.674247 -0.811401
3.063980 0.674883 -0.811391
3.063718 0.659867 -0.811941
3.077398 0.663509 -0.931275
3.077499 0.678534 -0.930745
3.064182 0.679170 -0.930735
3.063920 0.664154 -0.931284
3.077402 0.674259 -0.811401
3.077503 0.689284 -0.810874
3.064348 0.689912 -0.810837
3.064085 0.674895 -0.811391
3.077394 0.678552 -0.930744
3.077496 0.693578 -0.930217
3.064340 0.694205 -0.930180
3.064078 0.679189 -0.930734
3.077618 0.689288 -0.810874
3.077719 0.704314 -0.810343
3.064725 0.704931 -0.810283
3.064463 0.689915 -0.810837
3.077381 0.693604 -0.930216
3.077482 0.708630 -0.929685
3.064488 0.709247 -0.929625
3.064226 0.694232 -0.930179
3.062251 0.599654 -0.814161
3.062513 0.614670 -0.813608
3.048552 0.615342 -0.813690
3.048128 0.600335 -0.814266
3.063261 0.604117 -0.933493
3.063523 0.619133 -0.932941
3.049562 0.619805 -0.933023
3.049138 0.604798 -0.933599
3.062607 0.614686 -0.813607
3.062870 0.629702 -0.813054
3.049070 0.630365 -0.813114
3.048646 0.615358 -0.813689
3.063429 0.619148 -0.932941
3.063691 0.634164 -0.932389
3.049891 0.634827 -0.932448
3.049468 0.619820 -0.933023
3.062968 0.629708 -0.813054
3.063230 0.644724 -0.812500
3.049591 0.645378 -0.812535
3.049168 0.630371 -0.813113
3.063594 0.634189 -0.932388
3.063856 0.649205 -0.931835
3.050217 0.649859 -0.931870
3.049794 0.634852 -0.932448
3.063325 0.644744 -0.812499
3.063588 0.659760 -0.811945
3.050110 0.660406 -0.811961
3.049686 0.645398 -0.812534
3.063761 0.649215 -0.931835
3.064024 0.664232 -0.931281
3.050546 0.664877 -0.931297
3.050123 0.649870 -0.931870
3.063692 0.659773 -0.811944
3.063954 0.674789 -0.811395
3.050638 0.675426 -0.811382
3.050215 0.660418 -0.811960
3.063919 0.664249 -0.931281
3.064181 0.679266 -0.930731
3.050865 0.679902 -0.930719
3.050442 0.664894 -0.931296
3.064069 0.674797 -0.811394
3.064331 0.689813 -0.810841
3.051175 0.690440 -0.810806
3.050752 0.675433 -0.811382
3.064068 0.679288 -0.930730
3.064330 0.694305 -0.930177
3.051175 0.694932 -0.930142
3.050752 0.679925 -0.930718
3.064446 0.689814 -0.810841
3.064708 0.704829 -0.810286
3.051713 0.705448 -0.810224
3.051290 0.690441 -0.810806
3.064216 0.694334 -0.930175
3.064479 0.709350 -0.929621
3.051484 0.709969 -0.929559
3.051061 0.694961 -0.930140
3.047681 0.600681 -0.814260
3.048104 0.615688 -0.813683
3.034566 0.619976 -0.813856
3.033558 0.601362 -0.814365
3.049558 0.604455 -0.933606
3.049981 0.619463 -0.933029
3.036443 0.623751 -0.933202
3.035436 0.605136 -0.933711
3.048032 0.614752 -0.813722
3.048455 0.629759 -0.813147
3.034655 0.630422 -0.813203
3.034494 0.619040 -0.813894
3.050054 0.620429 -0.932990
3.050478 0.635436 -0.932415
3.036678 0.636099 -0.932471
3.036516 0.624717 -0.933162
3.049154 0.630288 -0.813116
3.049578 0.645295 -0.812539
3.035939 0.645949 -0.812576
3.035354 0.630951 -0.813172
3.049780 0.634936 -0.932445
3.050203 0.649944 -0.931867
3.036564 0.650598 -0.931904
3.035980 0.635599 -0.932500
3.049686 0.645298 -0.812538
3.050110 0.660305 -0.811965
3.036632 0.660950 -0.811970
3.036047 0.645952 -0.812575
3.050095 0.649971 -0.931866
3.050519 0.664979 -0.931293
3.037041 0.665624 -0.931298
3.036457 0.650625 -0.931903
3.050212 0.660334 -0.811963
3.050636 0.675342 -0.811385
3.037319 0.675978 -0.811376
3.036735 0.660979 -0.811968
3.050417 0.664980 -0.931293
3.050841 0.679987 -0.930715
3.037524 0.680623 -0.930706
3.036939 0.665625 -0.931298
3.052545 0.673602 -0.811506
3.052968 0.688609 -0.810930
3.040887 0.687787 -0.810181
3.039228 0.674238 -0.811497
3.048933 0.681756 -0.930593
3.049356 0.696763 -0.930017
3.037275 0.695941 -0.929268
3.035616 0.682392 -0.930584
3.053096 0.691803 -0.810801
3.053520 0.706810 -0.810219
3.040526 0.707429 -0.810158
3.041015 0.690980 -0.810052
3.049228 0.693600 -0.930145
3.049652 0.708607 -0.929563
3.036658 0.709226 -0.929502
3.037147 0.692777 -0.929396
3.076262 0.540969 -0.861745
3.088588 0.540364 -0.861645
3.087361 0.544699 -0.850137
3.071944 0.546088 -0.851275
3.086190 0.651180 -0.906649
3.098516 0.650574 -0.906548
3.097288 0.654910 -0.895040
3.081871 0.656298 -0.896178
3.093737 0.540751 -0.860194
3.106062 0.540146 -0.860094
3.105919 0.545489 -0.849434
3.092509 0.545087 -0.848686
3.093394 0.650185 -0.907999
3.105720 0.649580 -0.907898
3.105577 0.654924 -0.897239
3.092167 0.654521 -0.896490
3.106241 0.543013 -0.854386
3.118567 0.542408 -0.854285
3.119507 0.548759 -0.844475
3.106097 0.548357 -0.843726
3.105567 0.646713 -0.913607
3.117893 0.646107 -0.913507
3.118833 0.652459 -0.903697
3.105424 0.652056 -0.902948
3.090140 0.764258 -0.853059
3.092209 0.758485 -0.841910
3.105203 0.757867 -0.841971
3.103614 0.763717 -0.852327
3.086962 0.659012 -0.909401
3.089031 0.653239 -0.898252
3.102025 0.652621 -0.898312
3.100436 0.658471 -0.908669
3.103514 0.762554 -0.850249
3.105104 0.756703 -0.839892
3.118099 0.756085 -0.839956
3.116988 0.762018 -0.849513
3.100561 0.659634 -0.910747
3.102151 0.653783 -0.900390
3.115146 0.653165 -0.900454
3.114035 0.659098 -0.910011
3.053238 0.541667 -0.934031
3.061977 0.540336 -0.920510
3.053246 0.540690 -0.920891
3.047413 0.541608 -0.936078
3.054169 0.660755 -0.925175
3.062908 0.659424 -0.911654
3.054178 0.659778 -0.912036
3.048344 0.660696 -0.927222
3.059723 0.540340 -0.919669
3.068465 0.539052 -0.906145
3.056743 0.539664 -0.906233
3.050993 0.540693 -0.920050
3.065176 0.659418 -0.912467
3.073918 0.658131 -0.898943
3.062196 0.658742 -0.899031
3.056446 0.659772 -0.912849
3.066013 0.539237 -0.906489
3.076023 0.536722 -0.888173
3.060287 0.538782 -0.892170
3.054291 0.539849 -0.906577
3.076385 0.657943 -0.898568
3.086395 0.655427 -0.880252
3.070658 0.657488 -0.884249
3.064663 0.658554 -0.898656
3.073563 0.539648 -0.866234
3.069244 0.544767 -0.855764
3.055122 0.545447 -0.855869
3.057826 0.541709 -0.870231
3.088861 0.652503 -0.902163
3.084542 0.657622 -0.891692
3.070420 0.658303 -0.891798
3.073124 0.654564 -0.906160
3.045693 0.541542 -0.934338
3.051526 0.540624 -0.919151
3.042666 0.540985 -0.919532
3.040034 0.541697 -0.933646
3.050050 0.660762 -0.928964
3.055883 0.659844 -0.913777
3.047022 0.660205 -0.914158
3.044391 0.660917 -0.928272
3.050876 0.540662 -0.919371
3.056626 0.539632 -0.905553
3.044646 0.540285 -0.905639
3.042016 0.541023 -0.919752
3.056541 0.659805 -0.913528
3.062291 0.658775 -0.899711
3.050311 0.659427 -0.899797
3.047681 0.660166 -0.913910
3.055734 0.539659 -0.905055
3.061730 0.538592 -0.890649
3.046330 0.539663 -0.890779
3.043754 0.540311 -0.905142
3.063192 0.658746 -0.900180
3.069188 0.657680 -0.885773
3.053788 0.658751 -0.885904
3.051212 0.659399 -0.900266
3.061909 0.540149 -0.874410
3.059206 0.543888 -0.860048
3.045083 0.544569 -0.860154
3.046509 0.541220 -0.874541
3.069010 0.656126 -0.901983
3.066307 0.659865 -0.887621
3.052185 0.660545 -0.887726
3.053610 0.657197 -0.902113
3.039393 0.541724 -0.933638
3.042024 0.541012 -0.919525
3.033034 0.541407 -0.919904
3.033662 0.542071 -0.934302
3.045018 0.660891 -0.928280
3.047649 0.660179 -0.914166
3.038659 0.660574 -0.914546
3.039287 0.661238 -0.928944
3.041951 0.541000 -0.919176
3.044581 0.540262 -0.905063
3.032339 0.540914 -0.905149
3.032961 0.541395 -0.919556
3.047724 0.660189 -0.914486
3.050354 0.659451 -0.900374
3.038113 0.660103 -0.900460
3.038735 0.660584 -0.914866
3.043675 0.540285 -0.904174
3.046251 0.539636 -0.889811
3.030873 0.540748 -0.889922
3.031433 0.540936 -0.904260
3.051262 0.659427 -0.901234
3.053838 0.658779 -0.886871
3.038460 0.659891 -0.886982
3.039020 0.660079 -0.901320
3.046411 0.540933 -0.875838
3.044986 0.544282 -0.861451
3.030863 0.544963 -0.861557
3.031033 0.542045 -0.875949
3.053679 0.657485 -0.900816
3.052253 0.660834 -0.886429
3.038131 0.661515 -0.886535
3.038300 0.658597 -0.900927
3.059898 0.773637 -0.924862
3.056230 0.773881 -0.925206
3.063104 0.773075 -0.911274
3.069225 0.772777 -0.911126
3.053477 0.654439 -0.928285
3.049808 0.654683 -0.928629
3.056683 0.653876 -0.914696
3.062803 0.653578 -0.914549
3.069447 0.772771 -0.911373
3.063327 0.773069 -0.911521
3.070205 0.772392 -0.897584
3.078776 0.771843 -0.897641
3.062597 0.653583 -0.914274
3.056476 0.653880 -0.914422
3.063355 0.653203 -0.900485
3.071926 0.652654 -0.900542
3.077993 0.771896 -0.898410
3.069422 0.772445 -0.898353
3.076306 0.771814 -0.884418
3.091164 0.771287 -0.880578
3.072727 0.652600 -0.899744
3.064156 0.653149 -0.899687
3.071040 0.652518 -0.885752
3.085897 0.651990 -0.881912
3.087515 0.766251 -0.857119
3.072658 0.766779 -0.860959
3.076590 0.761097 -0.845908
3.089585 0.760478 -0.845971
3.089559 0.657019 -0.905342
3.074701 0.657547 -0.909182
3.078633 0.651866 -0.894132
3.091628 0.651247 -0.894194
3.056593 0.773859 -0.925139
3.052928 0.774111 -0.925483
3.057283 0.773406 -0.911352
3.063467 0.773052 -0.911207
3.049436 0.654706 -0.928696
3.045771 0.654958 -0.929040
3.050126 0.654253 -0.914909
3.056310 0.653899 -0.914764
3.063062 0.773084 -0.911547
3.056877 0.773438 -0.911692
3.061238 0.772847 -0.897557
3.069940 0.772407 -0.897611
3.056727 0.653866 -0.914395
3.050542 0.654219 -0.914540
3.054903 0.653628 -0.900405
3.063605 0.653189 -0.900459
3.069760 0.772420 -0.897771
3.061058 0.772860 -0.897717
3.065422 0.772340 -0.883579
3.076644 0.771789 -0.883836
3.063797 0.653175 -0.900271
3.055094 0.653614 -0.900217
3.059459 0.653094 -0.886079
3.070681 0.652544 -0.886336
3.076635 0.768150 -0.864529
3.065413 0.768700 -0.864272
3.067573 0.763086 -0.849418
3.080567 0.762469 -0.849478
3.070698 0.656177 -0.905614
3.059476 0.656727 -0.905357
3.061636 0.651113 -0.890504
3.074630 0.650496 -0.890564
3.053097 0.774087 -0.925081
3.049663 0.774390 -0.925086
3.051201 0.773695 -0.911095
3.057452 0.773382 -0.910950
3.045592 0.654983 -0.929441
3.042158 0.655285 -0.929446
3.043697 0.654590 -0.915455
3.049947 0.654277 -0.915310
3.056729 0.773443 -0.911591
3.050478 0.773756 -0.911736
3.052259 0.773307 -0.897401
3.061089 0.772852 -0.897456
3.050676 0.654215 -0.914641
3.044426 0.654528 -0.914786
3.046206 0.654079 -0.900450
3.055037 0.653624 -0.900506
3.061042 0.772858 -0.897628
3.052212 0.773313 -0.897572
3.053993 0.772887 -0.883235
3.065407 0.772338 -0.883490
3.055089 0.653617 -0.900306
3.046259 0.654071 -0.900250
3.048040 0.653645 -0.885913
3.059454 0.653096 -0.886168
3.065376 0.768588 -0.863964
3.053962 0.769137 -0.863709
3.054542 0.763593 -0.849048
3.067536 0.762974 -0.849110
3.059489 0.656840 -0.905665
3.048075 0.657389 -0.905410
3.048655 0.651845 -0.890749
3.061649 0.651226 -0.890811
3.049478 0.774374 -0.924428
3.045568 0.774653 -0.924011
3.044703 0.774000 -0.910582
3.051016 0.773678 -0.910437
3.042334 0.655302 -0.930105
3.038425 0.655581 -0.929688
3.037559 0.654929 -0.916259
3.043872 0.654607 -0.916114
3.050337 0.773762 -0.911705
3.044024 0.774084 -0.911850
3.043157 0.773735 -0.897313
3.052118 0.773313 -0.897369
3.044552 0.654522 -0.914817
3.038238 0.654844 -0.914962
3.037372 0.654495 -0.900425
3.046332 0.654073 -0.900482
3.052065 0.773319 -0.897506
3.043104 0.773741 -0.897450
3.042239 0.773443 -0.882912
3.053845 0.772893 -0.883169
3.046386 0.654067 -0.900316
3.037425 0.654489 -0.900260
3.036561 0.654191 -0.885722
3.048167 0.653640 -0.885979
3.053929 0.769036 -0.863435
3.042323 0.769586 -0.863178
3.041515 0.764110 -0.848713
3.054509 0.763491 -0.848774
3.048084 0.657492 -0.905684
3.036478 0.658042 -0.905427
3.035669 0.652566 -0.890962
3.048663 0.651947 -0.891023
3.190147 0.715816 -0.870275
3.189598 0.703873 -0.872366
3.189420 0.703984 -0.896587
3.189783 0.717366 -0.895086
3.070805 0.719907 -0.868817
3.070257 0.707965 -0.870908
3.070078 0.708076 -0.895129
3.070442 0.721458 -0.893628
3.189817 0.719075 -0.895105
3.189454 0.705693 -0.896606
3.189430 0.705793 -0.920835
3.189256 0.720634 -0.919907
3.070407 0.719751 -0.893659
3.070044 0.706369 -0.895159
3.070020 0.706469 -0.919389
3.069846 0.721310 -0.918460
3.189515 0.702154 -0.872298
3.188848 0.690148 -0.871821
3.188421 0.688919 -0.895793
3.189337 0.702265 -0.896519
3.070338 0.709659 -0.870977
3.069671 0.697653 -0.870500
3.069244 0.696424 -0.894472
3.070160 0.709770 -0.895198
3.189233 0.700873 -0.896527
3.188317 0.687527 -0.895801
3.187722 0.686314 -0.919763
3.189210 0.700974 -0.920757
3.070263 0.711160 -0.895238
3.069348 0.697814 -0.894512
3.068753 0.696600 -0.918474
3.070240 0.711260 -0.919467
3.188837 0.689955 -0.871674
3.187907 0.677939 -0.871538
3.187824 0.677128 -0.890780
3.188410 0.688725 -0.895646
3.069680 0.697823 -0.870643
3.068750 0.685807 -0.870508
3.068668 0.684996 -0.889749
3.069254 0.696593 -0.894616
3.188524 0.691275 -0.895670
3.187938 0.679678 -0.890803
3.188112 0.678861 -0.910049
3.187929 0.690062 -0.919632
3.069140 0.694041 -0.894635
3.068554 0.682444 -0.889769
3.068728 0.681626 -0.909014
3.068545 0.692828 -0.918598
3.187864 0.677451 -0.869890
3.186611 0.665448 -0.871165
3.187234 0.665119 -0.884806
3.187782 0.676640 -0.889131
3.068791 0.686272 -0.872152
3.067539 0.674269 -0.873428
3.068161 0.673940 -0.887068
3.068709 0.685461 -0.891393
3.187919 0.681513 -0.888242
3.187372 0.669991 -0.883916
3.188329 0.669646 -0.897536
3.188093 0.680695 -0.907487
3.068572 0.680587 -0.892316
3.068024 0.669066 -0.887991
3.068981 0.668721 -0.901610
3.068746 0.679769 -0.911562
3.190381 0.729465 -0.869418
3.190174 0.717463 -0.870685
3.189811 0.719014 -0.895496
3.189884 0.730900 -0.890707
3.070985 0.730287 -0.867136
3.070779 0.718285 -0.868402
3.070415 0.719835 -0.893213
3.070488 0.731722 -0.888424
3.189884 0.730844 -0.890705
3.189810 0.718957 -0.895494
3.189249 0.720517 -0.920296
3.189606 0.732273 -0.912003
3.070488 0.731782 -0.888473
3.070414 0.719895 -0.893262
3.069853 0.721454 -0.918063
3.070210 0.733211 -0.909770
3.190221 0.742282 -0.868373
3.190384 0.730181 -0.869314
3.189887 0.731617 -0.890602
3.190044 0.743193 -0.885174
3.070820 0.741695 -0.866294
3.070983 0.729594 -0.867234
3.070486 0.731029 -0.888523
3.070643 0.742606 -0.883095
3.190046 0.742549 -0.884991
3.189889 0.730973 -0.890419
3.189612 0.732402 -0.911716
3.189803 0.743465 -0.901785
3.070639 0.743252 -0.883317
3.070483 0.731676 -0.888745
3.070205 0.733105 -0.910043
3.070397 0.744168 -0.900111
3.190141 0.753999 -0.866632
3.190231 0.741902 -0.867565
3.190053 0.742813 -0.884367
3.190206 0.754394 -0.878933
3.070722 0.754196 -0.866161
3.070811 0.742099 -0.867095
3.070633 0.743010 -0.883896
3.070787 0.754591 -0.878462
3.190193 0.753297 -0.879203
3.190039 0.741716 -0.884636
3.189797 0.742632 -0.901431
3.190223 0.753687 -0.891510
3.070800 0.755689 -0.878222
3.070647 0.744108 -0.883656
3.070404 0.745024 -0.900450
3.070830 0.756080 -0.890529
3.186390 0.666877 -0.866123
3.185141 0.654873 -0.867399
3.186763 0.655013 -0.875413
3.187013 0.666547 -0.879764
3.067758 0.672818 -0.878467
3.066509 0.660814 -0.879742
3.068130 0.660954 -0.887756
3.068381 0.672488 -0.892107
3.186933 0.673435 -0.879527
3.186682 0.661901 -0.875176
3.188084 0.662056 -0.883209
3.187890 0.673090 -0.893147
3.068463 0.665599 -0.892365
3.068213 0.654065 -0.888014
3.069615 0.654220 -0.896047
3.069420 0.665254 -0.905985
3.190087 0.765517 -0.864364
3.190128 0.753416 -0.865304
3.190193 0.753812 -0.877605
3.190392 0.765386 -0.872176
3.070695 0.766902 -0.866543
3.070735 0.754802 -0.867483
3.070801 0.755197 -0.879784
3.071000 0.766772 -0.874355
3.190353 0.763719 -0.872357
3.190153 0.752145 -0.877786
3.190183 0.752535 -0.890093
3.190643 0.763596 -0.880164
3.071039 0.768438 -0.874195
3.070840 0.756864 -0.879623
3.070870 0.757254 -0.891930
3.071330 0.768315 -0.882001
