4.011185 0.644781 -0.211264
4.055291 0.652193 -0.213759
4.046222 0.620069 -0.186912
4.055431 0.612884 -0.206606
4.048706 0.640905 -0.226271
4.069430 0.635710 -0.248919
4.070365 0.609449 -0.227734
4.069924 0.622401 -0.196677
4.063199 0.650422 -0.216342
4.083923 0.645227 -0.238990
4.084858 0.618966 -0.217806
4.068543 0.610839 -0.225246
4.067608 0.637100 -0.246430
4.083815 0.613242 -0.285147
4.079607 0.602348 -0.243286
4.086711 0.617555 -0.220344
4.085776 0.643817 -0.241529
4.101983 0.619958 -0.280246
4.097775 0.609064 -0.238385
4.090101 0.587134 -0.283590
4.084134 0.613957 -0.286713
4.105002 0.591155 -0.319226
4.105118 0.576552 -0.308478
4.107672 0.592372 -0.275651
4.101705 0.619195 -0.278775
4.122573 0.596393 -0.311287
4.122689 0.581791 -0.300540
4.104742 0.576746 -0.307664
4.104626 0.591348 -0.318411
4.117906 0.572770 -0.343218
4.116419 0.565641 -0.333197
4.123095 0.581566 -0.301408
4.122979 0.596169 -0.312155
4.136259 0.577590 -0.336962
4.134771 0.570462 -0.326941
4.116465 0.565541 -0.333255
4.117953 0.572670 -0.343276
4.127840 0.558852 -0.360848
4.127658 0.554428 -0.356926
4.134748 0.570534 -0.326929
4.136236 0.577662 -0.336950
4.146122 0.563845 -0.354522
4.145940 0.559420 -0.350600
4.130157 0.552126 -0.359488
4.130339 0.556551 -0.363410
4.156328 0.539478 -0.379395
4.143469 0.561699 -0.348070
4.143651 0.566124 -0.351993
4.169640 0.549051 -0.367978
3.930158 0.502239 -0.094863
3.929709 0.518999 -0.114398
3.973764 0.520564 -0.116501
3.969534 0.502885 -0.096936
3.930423 0.517219 -0.081644
3.929974 0.533979 -0.101178
3.974029 0.535544 -0.103282
3.969799 0.517864 -0.083717
3.969898 0.502975 -0.097035
3.974128 0.520654 -0.116600
4.007746 0.521960 -0.116906
4.007231 0.510885 -0.104861
3.969512 0.517780 -0.083624
3.973742 0.535460 -0.103189
4.007360 0.536766 -0.103496
4.006845 0.525691 -0.091451
4.007393 0.510936 -0.104911
4.007907 0.522011 -0.116956
4.046783 0.523550 -0.116768
4.006745 0.525649 -0.091409
4.007259 0.536724 -0.103454
4.046135 0.538264 -0.103266
3.930209 0.500406 -0.091855
3.969585 0.501052 -0.093928
3.971417 0.492693 -0.072951
3.930513 0.492043 -0.069895
3.930371 0.519026 -0.084611
3.969747 0.519672 -0.086684
3.971579 0.511313 -0.065707
3.930675 0.510663 -0.062652
3.930478 0.491835 -0.069311
3.971382 0.492486 -0.072366
3.973414 0.485294 -0.050630
3.930983 0.484803 -0.046929
3.930713 0.510854 -0.063192
3.971617 0.511505 -0.066248
3.973649 0.504312 -0.044511
3.931219 0.503821 -0.040810
3.931009 0.484619 -0.046286
3.973439 0.485110 -0.049988
3.975939 0.478856 -0.025133
3.931683 0.478849 -0.023530
3.931196 0.503993 -0.041406
3.973626 0.504484 -0.045107
3.976126 0.498230 -0.020253
3.931870 0.498223 -0.018650
3.931757 0.478597 -0.022119
3.976013 0.478604 -0.023723
3.978684 0.475788 0.003432
3.932263 0.476047 0.001240
3.931799 0.498466 -0.020011
3.976055 0.498473 -0.021615
3.978726 0.495656 0.005540
3.932304 0.495916 0.003349
3.932374 0.476029 0.001429
3.978796 0.475770 0.003620
3.981626 0.473819 0.031025
3.932871 0.473463 0.024790
3.932196 0.495929 0.003211
3.978618 0.495669 0.005402
3.981448 0.493719 0.032807
3.932693 0.493362 0.026572
3.932924 0.473429 0.026059
3.981679 0.473786 0.032294
3.985265 0.475389 0.060734
3.933558 0.473717 0.049536
3.932643 0.493395 0.025354
3.981398 0.493751 0.031590
3.984984 0.495355 0.060030
3.933277 0.493682 0.048831
3.933700 0.473808 0.050567
3.985406 0.475481 0.061766
3.989728 0.480368 0.086805
3.934633 0.475717 0.073940
3.933140 0.493595 0.047850
3.984847 0.495267 0.059049
3.989169 0.500155 0.084088
3.934073 0.495503 0.071224
3.935003 0.475789 0.074296
3.990098 0.480441 0.087161
3.996861 0.484198 0.099469
3.936144 0.478678 0.097534
3.933710 0.495438 0.070910
3.988805 0.500089 0.083775
3.995568 0.503847 0.096083
3.934851 0.498327 0.094148
3.971163 0.501101 -0.093748
4.008496 0.509011 -0.101575
4.012584 0.502142 -0.079000
3.972995 0.492742 -0.072771
3.968249 0.519632 -0.086873
4.005582 0.527543 -0.094699
4.009670 0.520674 -0.072125
3.970081 0.511274 -0.065896
3.973475 0.492654 -0.072260
4.013064 0.502054 -0.078489
4.017550 0.496312 -0.054944
3.975507 0.485461 -0.050523
3.969607 0.511348 -0.066363
4.009196 0.520748 -0.072592
4.013681 0.515006 -0.049048
3.971639 0.504156 -0.044627
3.975966 0.485374 -0.049831
4.018009 0.496225 -0.054252
4.023901 0.491764 -0.026009
3.978466 0.479121 -0.024976
3.971186 0.504231 -0.045270
4.013229 0.515081 -0.049691
4.019121 0.510620 -0.021448
3.973686 0.497977 -0.020416
3.978819 0.478999 -0.023748
4.024254 0.491642 -0.024781
4.029213 0.490147 0.005517
3.981490 0.476182 0.003406
3.973341 0.498091 -0.021588
4.018776 0.510734 -0.022621
4.023735 0.509240 0.007678
3.976012 0.495275 0.005566
3.981752 0.476220 0.003852
4.029474 0.490185 0.005964
4.035302 0.490747 0.037584
3.984582 0.474270 0.031257
3.975759 0.495234 0.005178
4.023481 0.509199 0.007290
4.029309 0.509761 0.038911
3.978588 0.493284 0.032584
3.984746 0.474306 0.032306
4.035466 0.490783 0.038633
4.042648 0.495098 0.072286
3.988331 0.475909 0.060746
3.978434 0.493250 0.031595
4.029155 0.509727 0.037922
4.036336 0.514041 0.071575
3.982020 0.494853 0.060035
4.047152 0.520947 -0.110269
4.098970 0.524569 -0.113248
4.112990 0.524479 -0.086185
4.078974 0.522633 -0.087379
4.045893 0.540881 -0.109750
4.097711 0.544502 -0.112730
4.111731 0.544412 -0.085666
4.077715 0.542566 -0.086860
4.099014 0.524577 -0.113405
4.150764 0.528126 -0.116387
4.146271 0.526478 -0.087159
4.113034 0.524487 -0.086341
4.097752 0.544500 -0.112576
4.149503 0.548049 -0.115559
4.145010 0.546401 -0.086331
4.111772 0.544410 -0.085512
4.112940 0.524473 -0.086027
4.146177 0.526464 -0.086846
4.149626 0.526020 -0.053759
4.109121 0.524170 -0.062941
4.111871 0.544423 -0.085769
4.145109 0.546414 -0.086588
4.148558 0.545970 -0.053501
4.108052 0.544120 -0.062683
4.109123 0.524169 -0.062744
4.149629 0.526020 -0.053562
4.153253 0.526678 -0.020642
4.126519 0.524884 -0.027586
4.108060 0.544121 -0.062817
4.148565 0.545971 -0.053636
4.152189 0.546629 -0.020716
4.125455 0.544835 -0.027659
4.126717 0.524896 -0.027671
4.153451 0.526691 -0.020727
4.155529 0.526723 0.004436
4.135445 0.525131 0.010418
4.125272 0.544823 -0.027508
4.152007 0.546618 -0.020565
4.154085 0.546651 0.004598
4.134001 0.545058 0.010581
4.135628 0.525146 0.010451
4.155712 0.526738 0.004469
4.155168 0.526679 0.039231
4.135844 0.524567 0.049187
4.133824 0.545044 0.010616
4.153908 0.546636 0.004634
4.153364 0.546577 0.039396
4.134040 0.544464 0.049352
4.135921 0.524574 0.049357
4.155246 0.526686 0.039401
4.152657 0.526368 0.076957
4.126188 0.524057 0.087095
4.133956 0.544457 0.049256
4.153281 0.546569 0.039300
4.150692 0.546251 0.076856
4.124223 0.543940 0.086994
4.125940 0.524037 0.087220
4.152409 0.526348 0.077082
4.148030 0.526075 0.115284
4.108554 0.523702 0.121826
4.124455 0.543960 0.086942
4.150923 0.546270 0.076804
4.146544 0.545998 0.115006
4.107069 0.543625 0.121548
4.108429 0.523694 0.121872
4.147904 0.526067 0.115330
4.141973 0.526272 0.153948
4.114815 0.524567 0.153074
4.107183 0.543633 0.121573
4.146659 0.546006 0.115031
4.140727 0.546210 0.153648
4.113570 0.544506 0.152774
4.150007 0.528103 -0.116242
4.169350 0.527267 -0.132236
4.170625 0.527127 -0.091614
4.145514 0.526456 -0.087014
4.150325 0.548074 -0.115716
4.169667 0.547237 -0.131710
4.170943 0.547097 -0.091088
4.145832 0.546426 -0.086488
4.146097 0.526460 -0.086767
4.171208 0.527131 -0.091367
4.171379 0.527348 -0.050698
4.149547 0.526016 -0.053679
4.145249 0.546421 -0.086664
4.170360 0.547092 -0.091264
4.170530 0.547310 -0.050595
4.148698 0.545978 -0.053577
4.149692 0.526024 -0.053471
4.171524 0.527356 -0.050489
4.170384 0.527729 -0.009874
4.153315 0.526682 -0.020551
4.148556 0.545970 -0.053712
4.170388 0.547303 -0.050730
4.169249 0.547675 -0.010115
4.152180 0.546628 -0.020792
4.153382 0.526686 -0.020686
4.170451 0.527733 -0.010009
4.155460 0.526719 0.004477
4.152110 0.546625 -0.020607
4.169179 0.547672 -0.009930
4.154188 0.546658 0.004556
4.155545 0.526724 0.004551
4.170536 0.527738 -0.009935
4.169193 0.527734 0.030713
4.155002 0.526666 0.039313
4.154108 0.546652 0.004532
4.169099 0.547667 -0.009954
4.167756 0.547662 0.030694
4.153565 0.546594 0.039294
4.155059 0.526670 0.039326
4.169250 0.527738 0.030725
4.169611 0.527751 0.071386
4.152471 0.526351 0.076881
4.153505 0.546589 0.039359
4.167696 0.547657 0.030759
4.168057 0.547671 0.071419
4.150917 0.546271 0.076914
4.152463 0.526351 0.076935
4.169603 0.527751 0.071440
4.170999 0.527778 0.112051
4.148084 0.526078 0.115137
4.150922 0.546271 0.076939
4.168062 0.547671 0.071443
4.169459 0.547698 0.112055
4.146543 0.545999 0.115140
4.147946 0.526069 0.115259
4.170861 0.527769 0.112174
4.171437 0.527870 0.152769
4.142014 0.526273 0.153877
4.146677 0.546008 0.115097
4.169592 0.547708 0.112011
4.170169 0.547809 0.152607
4.140745 0.546212 0.153714
4.182198 0.769271 0.333300
4.181543 0.768985 0.358963
4.161371 0.767163 0.357855
4.161624 0.767444 0.334334
4.180415 0.789171 0.333496
4.179760 0.788885 0.359159
4.159589 0.787062 0.358052
4.159841 0.787343 0.334531
4.170821 0.635915 0.341655
4.185324 0.635558 0.342303
4.188132 0.682795 0.342021
4.166385 0.682018 0.341121
4.171675 0.635755 0.321694
4.186178 0.635398 0.322342
4.188986 0.682635 0.322060
4.167239 0.681858 0.321160
4.166439 0.681947 0.341123
4.188186 0.682724 0.342023
4.185026 0.729551 0.341993
4.162658 0.728105 0.341244
4.167181 0.682022 0.321157
4.188928 0.682799 0.322057
4.185768 0.729626 0.322027
4.163401 0.728180 0.321278
4.163127 0.727739 0.341241
4.185495 0.729185 0.341991
4.181409 0.778745 0.343364
4.160835 0.776918 0.344398
4.162925 0.728642 0.321283
4.185293 0.730088 0.322032
4.181207 0.779648 0.323405
4.160634 0.777820 0.324440
4.186476 0.635686 0.342285
4.211399 0.636038 0.341416
4.208248 0.683436 0.339750
4.189284 0.682923 0.342003
4.185066 0.635271 0.322359
4.209990 0.635623 0.321490
4.206838 0.683020 0.319824
4.187875 0.682507 0.322077
4.189911 0.682924 0.341938
4.208875 0.683437 0.339685
4.206029 0.730869 0.338983
4.186751 0.729751 0.341909
4.187244 0.682601 0.322140
4.206208 0.683113 0.319887
4.203362 0.730545 0.319185
4.184084 0.729428 0.322110
4.187293 0.729673 0.341821
4.206571 0.730791 0.338896
4.202908 0.781024 0.338647
4.183207 0.779233 0.343194
4.183536 0.729603 0.322198
4.202814 0.730720 0.319272
4.199152 0.780953 0.319024
4.179451 0.779163 0.323571
3.927295 0.621985 0.288695
3.963237 0.626126 0.289329
3.958721 0.667342 0.307124
3.924023 0.664640 0.306865
3.926769 0.629815 0.270321
3.962711 0.633956 0.270955
3.958195 0.675173 0.288750
3.923497 0.672471 0.288491
3.963410 0.626085 0.289305
3.999265 0.630741 0.289533
3.993482 0.669939 0.306940
3.958894 0.667301 0.307100
3.962608 0.634004 0.270979
3.998462 0.638660 0.271207
3.992680 0.677858 0.288614
3.958092 0.675221 0.288775
3.999482 0.630685 0.289498
4.035288 0.635912 0.289291
4.028208 0.672454 0.306053
3.993699 0.669883 0.306904
3.998316 0.638723 0.271243
4.034122 0.643950 0.271036
4.027042 0.680491 0.287798
3.992534 0.677921 0.288649
4.035364 0.635796 0.289234
4.071307 0.639508 0.288058
4.061749 0.674722 0.305175
4.028284 0.672338 0.305996
4.034115 0.644072 0.271091
4.070058 0.647784 0.269916
4.060500 0.682998 0.287032
4.027035 0.680614 0.287854
4.070564 0.639744 0.288181
4.106107 0.636360 0.289660
4.093696 0.676356 0.304105
4.061007 0.674958 0.305298
4.070869 0.647550 0.269792
4.106412 0.644166 0.271271
4.094000 0.684162 0.285715
4.061311 0.682764 0.286908
4.102744 0.637625 0.289430
4.129443 0.619642 0.302311
4.116821 0.679084 0.307183
4.090333 0.677621 0.303875
4.109835 0.642892 0.271509
4.136534 0.624908 0.284390
4.123912 0.684351 0.289262
4.097424 0.682888 0.285953
4.127481 0.620933 0.301572
4.151631 0.613219 0.320303
4.141421 0.681853 0.320881
4.114859 0.680376 0.306444
4.138548 0.623605 0.285154
4.162698 0.615890 0.303884
4.152488 0.684525 0.304463
4.125926 0.683048 0.290025
4.150005 0.613639 0.318996
4.164050 0.634911 0.338549
4.159614 0.681013 0.338015
4.139795 0.682274 0.319574
4.164366 0.615477 0.305227
4.178411 0.636749 0.324781
4.173975 0.682852 0.324246
4.154157 0.684112 0.305806
3.923924 0.666144 0.307375
3.958621 0.668846 0.307634
3.953635 0.713684 0.318917
3.921692 0.711069 0.318978
3.923589 0.671054 0.288011
3.958287 0.673756 0.288270
3.953300 0.718595 0.299553
3.921358 0.715979 0.299614
3.958749 0.668919 0.307650
3.993337 0.671557 0.307489
3.986111 0.716374 0.318579
3.953763 0.713758 0.318933
3.958226 0.673688 0.288254
3.992814 0.676325 0.288093
3.985588 0.721143 0.299184
3.953239 0.718527 0.299537
3.993528 0.671614 0.307496
4.028037 0.674185 0.306646
4.019627 0.719049 0.317752
3.986302 0.716432 0.318587
3.992690 0.676273 0.288085
4.027198 0.678843 0.287234
4.018789 0.723708 0.298341
3.985464 0.721090 0.299175
4.028053 0.674188 0.306646
4.061519 0.676572 0.305824
4.052177 0.721417 0.316978
4.019644 0.719052 0.317752
4.027249 0.678846 0.287233
4.060714 0.681230 0.286411
4.051372 0.726075 0.297565
4.018839 0.723710 0.298340
4.061524 0.676511 0.305809
4.094213 0.677909 0.304616
4.083150 0.722981 0.316437
4.052182 0.721356 0.316963
4.060773 0.681294 0.286424
4.093462 0.682692 0.285231
4.082400 0.727764 0.297052
4.051432 0.726139 0.297579
4.093533 0.678113 0.304665
4.120022 0.679576 0.307974
4.112041 0.724593 0.315745
4.082471 0.723185 0.316486
4.094201 0.682491 0.285182
4.120689 0.683954 0.288491
4.112709 0.728971 0.296262
4.083139 0.727563 0.297003
4.116752 0.680292 0.307427
4.143314 0.681769 0.321865
4.137033 0.725535 0.322702
4.108771 0.725309 0.315198
4.124015 0.683241 0.289049
4.150577 0.684718 0.303487
4.144296 0.728483 0.304324
4.116034 0.728258 0.296820
4.140483 0.682438 0.320245
4.160302 0.681177 0.338686
4.156522 0.727336 0.338806
4.134202 0.726203 0.321082
4.153456 0.684050 0.305135
4.173275 0.682790 0.323576
4.169494 0.728948 0.323697
4.147175 0.727816 0.305972
3.921584 0.712330 0.319217
3.953527 0.714946 0.319156
3.948442 0.757280 0.324657
3.917170 0.754355 0.324309
3.921457 0.714806 0.299392
3.953400 0.717421 0.299330
3.948315 0.759755 0.304831
3.917043 0.756830 0.304484
3.953720 0.714938 0.319152
3.986068 0.717553 0.318799
3.979861 0.760093 0.324247
3.948635 0.757272 0.324653
3.953270 0.717434 0.299334
3.985618 0.720050 0.298981
3.979411 0.762590 0.304429
3.948185 0.759768 0.304834
3.986271 0.717636 0.318803
4.019596 0.720254 0.317968
4.011345 0.762946 0.323142
3.980064 0.760176 0.324251
3.985480 0.719973 0.298976
4.018805 0.722591 0.298141
4.010554 0.765283 0.303315
3.979273 0.762512 0.304424
4.019563 0.720295 0.317974
4.052096 0.722660 0.317200
4.044052 0.765898 0.322355
4.011311 0.762987 0.323148
4.018904 0.722555 0.298134
4.051436 0.724920 0.297360
4.043393 0.768158 0.302514
4.010652 0.765247 0.303308
4.052076 0.722698 0.317205
4.083044 0.724323 0.316679
4.073502 0.768572 0.321663
4.044032 0.765936 0.322360
4.051519 0.724886 0.297353
4.082487 0.726511 0.296827
4.072946 0.770760 0.301811
4.043476 0.768125 0.302508
4.082964 0.724247 0.316672
4.112534 0.725655 0.315930
4.104604 0.771251 0.321862
4.073422 0.768496 0.321656
4.082628 0.726592 0.296833
4.112198 0.728000 0.296091
4.104268 0.773596 0.302023
4.073086 0.770841 0.301817
4.110445 0.725610 0.315735
4.138706 0.725835 0.323239
4.133168 0.773959 0.326360
4.102515 0.771206 0.321667
4.114347 0.728048 0.296292
4.142608 0.728274 0.303796
4.137070 0.776398 0.306917
4.106417 0.773645 0.302224
4.134810 0.726066 0.321549
4.157129 0.727199 0.339273
4.154838 0.776377 0.342430
4.129272 0.774190 0.324670
4.146558 0.728046 0.305509
4.168878 0.729179 0.323234
4.166586 0.778357 0.326391
4.141020 0.776170 0.308631
3.930010 0.612759 0.273128
3.929308 0.585776 0.247361
3.961632 0.589442 0.248576
3.969917 0.619581 0.276460
3.928924 0.626508 0.258671
3.928222 0.599524 0.232904
3.960546 0.603191 0.234120
3.968830 0.633330 0.262004
3.929333 0.585593 0.247181
3.928947 0.559030 0.221004
3.964473 0.560461 0.219386
3.961657 0.589259 0.248397
3.928193 0.599651 0.233029
3.927807 0.573087 0.206852
3.963332 0.574518 0.205234
3.960517 0.603317 0.234245
3.928942 0.558317 0.220221
3.931597 0.534985 0.191296
3.967111 0.537740 0.191703
3.964467 0.559748 0.218603
3.927817 0.573749 0.207580
3.930472 0.550417 0.178655
3.965987 0.553172 0.179062
3.963342 0.575180 0.205962
3.931584 0.534033 0.189918
3.931562 0.515725 0.157611
3.968228 0.517220 0.156644
3.967098 0.536788 0.190324
3.930489 0.551327 0.179973
3.930466 0.533020 0.147665
3.967133 0.534514 0.146698
3.966003 0.554083 0.180379
3.961709 0.589233 0.248367
3.964525 0.560435 0.219356
3.999284 0.561917 0.217868
3.993966 0.593152 0.249668
3.960533 0.603348 0.234275
3.963348 0.574550 0.205264
3.998108 0.576032 0.203776
3.992790 0.607267 0.235576
3.964539 0.559778 0.218632
3.967183 0.537770 0.191732
4.002555 0.540700 0.191947
3.999298 0.561260 0.217144
3.963341 0.575155 0.205932
3.965985 0.553147 0.179031
4.001357 0.556078 0.179247
3.998100 0.576637 0.204444
3.967219 0.536849 0.190413
3.968349 0.517280 0.156733
4.004974 0.519098 0.155575
4.002591 0.539779 0.190629
3.965954 0.554027 0.180289
3.967084 0.534458 0.146609
4.003709 0.536276 0.145451
4.001325 0.556958 0.180504
3.994086 0.593162 0.249668
3.999404 0.561927 0.217868
4.028417 0.563567 0.216762
4.024341 0.597365 0.250932
3.992733 0.607262 0.235576
3.998051 0.576027 0.203777
4.027065 0.577666 0.202670
4.022989 0.611465 0.236840
3.999376 0.561286 0.217168
4.002632 0.540726 0.191971
4.034323 0.543279 0.191987
4.028390 0.562925 0.216062
3.998088 0.576616 0.204419
4.001345 0.556056 0.179222
4.033036 0.558609 0.179238
4.027102 0.578255 0.203312
4.002623 0.539825 0.190702
4.005006 0.519144 0.155648
4.041660 0.520948 0.154507
4.034314 0.542378 0.190718
4.001364 0.556916 0.180430
4.003747 0.536235 0.145377
4.040401 0.538039 0.144236
4.033055 0.559469 0.180446
4.024308 0.597336 0.250905
4.028385 0.563537 0.216735
4.073347 0.566965 0.216010
4.062687 0.602948 0.253536
4.023093 0.611502 0.236868
4.027169 0.577703 0.202698
4.072131 0.581131 0.201973
4.061472 0.617114 0.239499
4.028436 0.562979 0.216121
4.034369 0.543333 0.192046
4.080618 0.546270 0.191065
4.073398 0.566407 0.215396
4.027132 0.578206 0.203252
4.033066 0.558560 0.179177
4.079315 0.561497 0.178196
4.072094 0.581635 0.202527
4.034227 0.542468 0.190874
4.041573 0.521038 0.154663
4.078056 0.523707 0.156705
4.080477 0.545405 0.189893
4.033217 0.559384 0.180290
4.040563 0.537954 0.144079
4.077046 0.540623 0.146121
4.079466 0.562321 0.179309
4.069574 0.636986 0.286352
4.060974 0.603441 0.253943
4.096034 0.605765 0.262440
4.105117 0.633602 0.287831
4.071861 0.650240 0.271577
4.063260 0.616695 0.239168
4.098321 0.619019 0.247665
4.107404 0.646856 0.273055
4.061081 0.602675 0.253198
4.071741 0.566692 0.215672
4.112326 0.568169 0.223131
4.096141 0.604999 0.261695
4.063158 0.617393 0.239846
4.073817 0.581411 0.202320
4.114403 0.582887 0.209780
4.098218 0.619717 0.248343
4.072514 0.565901 0.214772
4.079734 0.545764 0.190441
4.112849 0.547181 0.190501
4.113099 0.567378 0.222232
4.073061 0.582146 0.203153
4.080282 0.562008 0.178822
4.113397 0.563426 0.178882
4.113646 0.583622 0.210613
4.080339 0.545506 0.190061
4.077919 0.523807 0.156873
4.114491 0.526186 0.158416
4.113454 0.546923 0.190121
4.079680 0.562225 0.179142
4.077259 0.540527 0.145954
4.113831 0.542905 0.147497
4.112794 0.563642 0.179202
4.112737 0.546625 0.189627
4.113774 0.525888 0.157922
4.140932 0.527592 0.158797
4.137732 0.546487 0.195873
4.113572 0.563944 0.179700
4.114609 0.543206 0.147994
4.141767 0.544911 0.148869
4.138567 0.563806 0.185945
4.100009 0.636516 0.287280
4.090926 0.608678 0.261889
4.115670 0.591343 0.277181
4.126708 0.618532 0.300161
4.112573 0.643924 0.273625
4.103490 0.616087 0.248235
4.128235 0.598751 0.263527
4.139272 0.625941 0.286506
4.090621 0.605688 0.258493
4.106806 0.568858 0.219929
4.131251 0.558435 0.244856
4.115366 0.588352 0.273785
4.103800 0.619016 0.251573
4.119985 0.582187 0.213010
4.144430 0.571763 0.237936
4.128545 0.601681 0.266865
4.107465 0.567614 0.217954
4.132210 0.547279 0.192469
4.156031 0.530872 0.217609
4.131910 0.557190 0.242880
4.119366 0.583374 0.214926
4.144112 0.563040 0.189441
4.167933 0.546633 0.214581
4.143812 0.572951 0.239853
4.126317 0.619536 0.300259
4.115280 0.592347 0.277279
4.140784 0.597126 0.305559
4.150467 0.611822 0.318990
4.139713 0.624917 0.286446
4.128676 0.597728 0.263466
4.154180 0.602507 0.291746
4.163863 0.617202 0.305177
4.117103 0.587942 0.275452
4.132987 0.558025 0.246523
4.150861 0.555141 0.262291
4.142607 0.592722 0.303732
4.126855 0.602077 0.265240
4.142740 0.572160 0.236311
4.160613 0.569276 0.252078
4.152359 0.606857 0.293520
4.134466 0.556696 0.245642
4.158587 0.530378 0.220370
4.172553 0.530258 0.224235
4.152339 0.553812 0.261409
4.141296 0.573430 0.237126
4.165417 0.547112 0.211854
4.179383 0.546992 0.215720
4.159169 0.570546 0.252893
4.162409 0.544018 -0.383668
4.159945 0.582485 -0.384223
4.183019 0.582930 -0.385915
4.185379 0.544458 -0.384783
4.163615 0.544531 -0.363731
4.161151 0.582997 -0.364286
4.184225 0.583442 -0.365978
4.186585 0.544970 -0.364846
4.159806 0.582563 -0.384215
4.157700 0.621054 -0.384865
4.180920 0.621481 -0.386630
4.182880 0.583008 -0.385908
4.161286 0.582996 -0.364295
4.159180 0.621487 -0.364944
4.182400 0.621915 -0.366710
4.184360 0.583441 -0.365987
4.157905 0.621224 -0.384880
4.156815 0.659740 -0.385671
4.179979 0.660170 -0.386391
4.181126 0.621652 -0.386646
4.158971 0.621394 -0.364930
4.157881 0.659909 -0.365720
4.181045 0.660340 -0.366440
4.182192 0.621821 -0.366695
4.157248 0.659741 -0.385684
4.156404 0.698314 -0.386633
4.179148 0.698625 -0.386375
4.180412 0.660172 -0.386404
4.157445 0.659985 -0.365707
4.156601 0.698558 -0.366656
4.179345 0.698869 -0.366397
4.180609 0.660415 -0.366427
4.156869 0.698336 -0.386627
4.155969 0.736854 -0.387771
4.178253 0.737190 -0.386383
4.179612 0.698646 -0.386369
4.156134 0.698614 -0.366663
4.155234 0.737132 -0.367806
4.177518 0.737468 -0.366418
4.178878 0.698925 -0.366404
4.156627 0.736941 -0.387726
4.155036 0.779328 -0.389196
4.177027 0.781573 -0.386033
4.178911 0.737278 -0.386338
4.154573 0.737126 -0.367852
4.152982 0.779513 -0.369323
4.174974 0.781758 -0.366159
4.176857 0.737463 -0.366464
4.185462 0.544346 -0.384785
4.183102 0.582818 -0.385917
4.206234 0.583234 -0.387354
4.208398 0.544794 -0.385891
4.186549 0.545082 -0.364848
4.184189 0.583555 -0.365980
4.207321 0.583970 -0.367417
4.209485 0.545530 -0.365955
4.182949 0.582954 -0.385911
4.180989 0.621428 -0.386634
4.204171 0.621817 -0.388445
4.206081 0.583370 -0.387349
4.184337 0.583495 -0.365987
4.182377 0.621969 -0.366710
4.205559 0.622357 -0.368521
4.207469 0.583911 -0.367424
4.181177 0.621955 -0.386647
4.180030 0.660474 -0.386391
4.203227 0.660821 -0.386912
4.204358 0.622344 -0.388458
4.182187 0.621518 -0.366697
4.181040 0.660037 -0.366442
4.204237 0.660385 -0.366962
4.205368 0.621907 -0.368508
4.180465 0.660394 -0.386405
4.179200 0.698847 -0.386375
4.201876 0.699260 -0.386164
4.203662 0.660741 -0.386925
4.180603 0.660194 -0.366427
4.179338 0.698648 -0.366397
4.202014 0.699060 -0.366185
4.203800 0.660541 -0.366947
4.179654 0.698971 -0.386366
4.178294 0.737514 -0.386380
4.200604 0.737806 -0.384837
4.202330 0.699383 -0.386155
4.178881 0.698601 -0.366405
4.177522 0.737145 -0.366419
4.199831 0.737436 -0.364876
4.201557 0.699014 -0.366193
4.178829 0.737599 -0.386344
4.176946 0.781894 -0.386039
4.198871 0.784219 -0.383416
4.201139 0.737891 -0.384800
4.176983 0.737144 -0.366454
4.175100 0.781439 -0.366149
4.197025 0.783764 -0.363527
4.199293 0.737435 -0.364911
4.155013 0.769503 -0.379212
4.143886 0.768343 -0.384788
4.179526 0.771848 -0.403744
4.177004 0.771748 -0.376049
4.152999 0.789381 -0.379325
4.141872 0.788221 -0.384900
4.177513 0.791726 -0.403857
4.174991 0.791626 -0.376161
4.218607 0.532486 0.265710
4.194154 0.531940 0.265948
4.192046 0.530370 0.236785
4.218400 0.530709 0.235244
4.218221 0.552432 0.264605
4.193768 0.551886 0.264843
4.191660 0.550316 0.235680
4.218014 0.550654 0.234139
4.185947 0.634812 0.342290
4.191132 0.589491 0.338922
4.215024 0.590452 0.339026
4.210870 0.635164 0.341421
4.185601 0.636052 0.322352
4.190786 0.590731 0.318983
4.214678 0.591693 0.319087
4.210524 0.636404 0.321482
4.190771 0.589388 0.338915
4.196044 0.544088 0.335513
4.218837 0.545637 0.336482
4.214663 0.590350 0.339019
4.191156 0.590744 0.318984
4.196429 0.545443 0.315583
4.219222 0.546992 0.316552
4.215048 0.591705 0.319089
4.175858 0.634258 0.332904
4.177726 0.602621 0.301194
4.182039 0.562317 0.295865
4.181043 0.588937 0.329535
4.195666 0.636577 0.331706
4.197535 0.604940 0.299996
4.201848 0.564636 0.294666
4.200852 0.591256 0.328337
4.177757 0.602423 0.301278
4.179134 0.569697 0.269483
4.182364 0.552080 0.271046
4.182070 0.562118 0.295949
4.197507 0.605088 0.299851
4.198884 0.572362 0.268055
4.202114 0.554744 0.269619
4.201820 0.564783 0.294521
4.181067 0.588730 0.329511
4.182063 0.562110 0.295840
4.185597 0.540576 0.296286
4.186340 0.543430 0.326109
4.200836 0.591386 0.328356
4.201833 0.564766 0.294685
4.205366 0.543232 0.295132
4.206109 0.546086 0.324955
4.182106 0.561796 0.295750
4.182400 0.551757 0.270848
4.184107 0.540289 0.265944
4.185639 0.540262 0.296196
4.201790 0.565060 0.294716
4.202085 0.555022 0.269813
4.203791 0.543554 0.264910
4.205323 0.543527 0.295162
4.187632 0.596645 0.307568
4.167884 0.594717 0.307137
4.169232 0.561324 0.271672
4.189009 0.563919 0.275773
4.187608 0.610893 0.293561
4.167860 0.608965 0.293130
4.169208 0.575572 0.257664
4.188985 0.578167 0.261766
4.167857 0.594496 0.306905
4.147505 0.592451 0.305415
4.155759 0.554870 0.263973
4.169204 0.561103 0.271440
4.167851 0.609179 0.293354
4.147500 0.607133 0.291864
4.155754 0.569552 0.250422
4.169199 0.575786 0.257889
3.930568 0.610573 0.269944
3.970475 0.617396 0.273277
3.964079 0.620941 0.284152
3.928138 0.616800 0.283518
3.928365 0.628726 0.261893
3.968272 0.635549 0.265226
3.961876 0.639094 0.276101
3.925935 0.634953 0.275468
3.970635 0.617231 0.272831
4.001068 0.623387 0.277831
4.000094 0.625432 0.283934
3.964240 0.620776 0.283705
3.968183 0.635725 0.265677
3.998616 0.641881 0.270677
3.997642 0.643926 0.276781
3.961787 0.639270 0.276552
4.001249 0.623325 0.277597
4.036081 0.630597 0.283493
4.000275 0.625370 0.283700
3.998491 0.641952 0.270916
4.033324 0.649224 0.276813
3.997517 0.643997 0.277019
4.042558 0.495160 0.073304
4.085323 0.509941 0.080845
4.079291 0.512875 0.115635
4.047758 0.501788 0.108193
4.036528 0.514021 0.070643
4.079293 0.528803 0.078184
4.073261 0.531737 0.112975
4.041728 0.520650 0.105533
4.085361 0.509960 0.080893
4.128178 0.524566 0.088452
4.110792 0.524231 0.123058
4.079329 0.512894 0.115683
4.079329 0.528810 0.078151
4.122146 0.543415 0.085711
4.104760 0.543080 0.120317
4.073297 0.531744 0.112942
4.035480 0.490801 0.038893
4.086753 0.507832 0.044403
4.085426 0.509897 0.080088
4.042662 0.495115 0.072547
4.029241 0.509743 0.037677
4.080514 0.526774 0.043187
4.079187 0.528839 0.078872
4.036422 0.514057 0.071331
4.086789 0.507848 0.044469
4.138013 0.525036 0.049976
4.128280 0.524519 0.087714
4.085463 0.509914 0.080154
4.080572 0.526789 0.043133
4.131795 0.543976 0.048640
4.122062 0.543460 0.086378
4.079245 0.528854 0.078818
4.024611 0.491731 -0.024592
4.076806 0.508461 -0.026548
4.083696 0.507699 0.007644
4.029570 0.490236 0.005707
4.018519 0.510676 -0.022810
4.070714 0.527406 -0.024766
4.077603 0.526644 0.009426
4.023477 0.509181 0.007489
4.076917 0.508484 -0.026397
4.129060 0.525384 -0.028330
4.137789 0.525619 0.009760
4.083807 0.507722 0.007796
4.070709 0.527417 -0.024917
4.122852 0.544317 -0.026850
4.131581 0.544552 0.011239
4.077599 0.526655 0.009275
4.018504 0.496276 -0.053862
4.064839 0.510790 -0.059216
4.076590 0.508545 -0.027576
4.024395 0.491815 -0.025619
4.012828 0.515057 -0.050087
4.059164 0.529571 -0.055441
4.070915 0.527326 -0.023800
4.018720 0.510596 -0.021844
4.064900 0.510733 -0.058793
4.111399 0.524673 -0.064243
4.128794 0.525388 -0.029085
4.076651 0.508488 -0.027152
4.059201 0.529659 -0.055872
4.105701 0.543599 -0.061323
4.123096 0.544314 -0.026164
4.070953 0.527414 -0.024231
4.013716 0.502116 -0.078173
4.047297 0.512628 -0.083963
4.064536 0.510888 -0.059982
4.018201 0.496374 -0.054628
4.008626 0.520708 -0.072919
4.042207 0.531221 -0.078710
4.059446 0.529481 -0.054729
4.013111 0.514967 -0.049374
4.047310 0.512601 -0.083854
4.080851 0.523258 -0.089605
4.111048 0.524801 -0.065324
4.064549 0.510861 -0.059873
4.042275 0.531272 -0.078830
4.075817 0.541929 -0.084580
4.106013 0.543472 -0.060299
4.059514 0.529532 -0.054849
4.009297 0.509011 -0.101117
4.048687 0.521626 -0.112974
4.046967 0.512655 -0.084333
4.013386 0.502142 -0.078542
4.004855 0.527562 -0.095174
4.044245 0.540177 -0.107031
4.042525 0.531206 -0.078390
4.008944 0.520693 -0.072599
4.029654 0.490225 0.006317
4.083781 0.507688 0.008254
4.086756 0.507818 0.043447
4.035482 0.490787 0.037938
4.023403 0.509191 0.006944
4.077529 0.526654 0.008882
4.080504 0.526784 0.044074
4.029231 0.509754 0.038565
4.083880 0.507717 0.008377
4.137862 0.525614 0.010341
4.138078 0.525035 0.049077
4.086855 0.507847 0.043570
4.077535 0.526659 0.008766
4.131517 0.544556 0.010730
4.131733 0.543977 0.049466
4.080510 0.526789 0.043959
3.927136 0.613294 -0.209351
3.927991 0.615596 -0.216381
3.970763 0.623973 -0.219760
3.970708 0.620505 -0.212561
3.924371 0.631692 -0.202067
3.925226 0.633995 -0.209097
3.967997 0.642371 -0.212476
3.967942 0.638903 -0.205276
3.970152 0.620811 -0.213392
3.970207 0.624279 -0.220591
4.013367 0.631135 -0.226374
4.012554 0.629357 -0.223274
3.968584 0.638613 -0.204456
3.968638 0.642081 -0.211656
4.011798 0.648937 -0.217439
4.010985 0.647159 -0.214338
4.013008 0.629528 -0.223505
4.013821 0.631307 -0.226606
4.057114 0.636940 -0.226000
4.010603 0.647000 -0.214115
4.011416 0.648778 -0.217216
4.054709 0.654411 -0.216610
4.129814 0.561751 -0.364636
4.119927 0.575568 -0.347064
4.122337 0.602245 -0.354649
4.153339 0.583145 -0.381175
4.144162 0.560976 -0.350753
4.134276 0.574794 -0.333181
4.136686 0.601471 -0.340766
4.167688 0.582370 -0.367293
4.157542 0.543804 -0.382053
4.131553 0.560877 -0.366067
4.155078 0.582270 -0.382607
4.168442 0.544743 -0.365334
4.142453 0.561816 -0.349349
4.165978 0.583210 -0.365889
4.089284 0.587446 -0.281160
4.079110 0.603375 -0.242422
4.083318 0.614269 -0.284283
4.108466 0.592078 -0.278026
4.098291 0.608007 -0.239289
4.102499 0.618901 -0.281150
3.960881 0.596586 -0.199472
3.969731 0.624201 -0.217244
3.993638 0.600848 -0.200787
3.960123 0.607562 -0.182794
3.968972 0.635178 -0.200566
3.992880 0.611824 -0.184109
4.044876 0.607596 -0.202225
4.053945 0.639720 -0.229071
4.060670 0.611699 -0.209406
4.048865 0.619475 -0.186663
4.057934 0.651599 -0.213509
4.064660 0.623578 -0.193843
4.109100 0.524168 -0.062859
4.078903 0.522625 -0.087140
4.112919 0.524471 -0.085946
4.108014 0.544118 -0.062777
4.077817 0.542575 -0.087058
4.111833 0.544421 -0.085864
4.004932 0.519219 0.155780
3.968308 0.517402 0.156938
3.996827 0.485602 0.103124
4.003759 0.536112 0.145176
3.967134 0.534295 0.146334
3.995653 0.502495 0.092519
3.936046 0.480087 0.101203
3.996762 0.485607 0.103138
3.968243 0.517407 0.156952
3.931577 0.515912 0.157919
3.934937 0.496955 0.090552
3.995653 0.502475 0.092487
3.967134 0.534275 0.146301
3.930468 0.532780 0.147268
4.042535 0.520771 0.154005
4.005882 0.518966 0.155146
3.997776 0.485349 0.102490
4.046208 0.502521 0.111571
4.039528 0.538170 0.144655
4.002874 0.536365 0.145796
3.994768 0.502748 0.093139
4.043200 0.519920 0.102221
4.109562 0.523921 0.123049
4.115948 0.524794 0.154250
4.079376 0.522415 0.152707
4.078099 0.512584 0.115674
4.105983 0.543398 0.120395
4.112370 0.544271 0.151596
4.075798 0.541892 0.150054
4.074520 0.532061 0.113020
4.077694 0.513005 0.117675
4.078971 0.522837 0.154709
4.042488 0.520168 0.152667
4.046160 0.501918 0.110233
4.074857 0.531626 0.111010
4.076135 0.541457 0.148043
4.039652 0.538789 0.146001
4.043324 0.520539 0.103567
4.170695 0.527852 0.152875
4.175860 0.528624 0.220064
4.161894 0.528744 0.216199
4.170936 0.547829 0.152627
4.176100 0.548601 0.219816
4.162134 0.548721 0.215951
4.130972 0.548741 0.193567
4.134171 0.529846 0.156491
4.154793 0.532334 0.218708
4.145369 0.561547 0.188283
4.148568 0.542652 0.151207
4.169190 0.545141 0.213424
4.171353 0.527868 0.152946
4.162552 0.528759 0.216270
4.141930 0.526271 0.154053
4.170254 0.547813 0.152512
4.161453 0.548704 0.215836
4.140831 0.546216 0.153620
4.174005 0.530345 0.225214
4.189841 0.532073 0.241452
4.167235 0.560133 0.269855
4.153791 0.553899 0.262388
4.177962 0.546907 0.214763
4.193799 0.548635 0.231001
4.171193 0.576695 0.259403
4.157748 0.570461 0.251936
3.961514 0.589393 0.248538
3.993771 0.593312 0.249839
4.000231 0.625689 0.281421
3.969798 0.619533 0.276421
3.960732 0.603250 0.234164
3.992989 0.607168 0.235466
3.999449 0.639545 0.267048
3.969016 0.633389 0.262048
3.993897 0.593129 0.249650
4.024152 0.597331 0.250913
4.035190 0.632777 0.287129
4.000357 0.625506 0.281232
3.992926 0.607362 0.235662
4.023182 0.611565 0.236925
4.034219 0.647011 0.273141
3.999387 0.639739 0.267244
4.024460 0.597321 0.250875
4.062840 0.602933 0.253506
4.071440 0.636478 0.285915
4.035498 0.632767 0.287091
4.022943 0.611586 0.236968
4.061322 0.617198 0.239599
4.069923 0.650743 0.272008
4.033981 0.647032 0.273183
4.111774 0.546958 0.190011
4.136769 0.546820 0.196257
4.112024 0.567155 0.221742
4.114525 0.563643 0.179369
4.139520 0.563505 0.185615
4.114775 0.583840 0.211100
4.147630 0.593017 0.305983
4.167981 0.595063 0.307473
4.173146 0.611915 0.323107
4.157312 0.607712 0.319413
4.147378 0.606618 0.291349
4.167729 0.608664 0.292839
4.172895 0.625516 0.308473
4.157060 0.621313 0.304779
4.168161 0.594883 0.307297
4.187909 0.596811 0.307728
4.186040 0.628448 0.339438
4.173326 0.611736 0.322931
4.167584 0.608856 0.293027
4.187332 0.610784 0.293458
4.185463 0.642420 0.325168
4.172749 0.625708 0.308661
4.157014 0.607721 0.319420
4.172848 0.611924 0.323114
4.185562 0.628636 0.339622
4.171059 0.628993 0.338974
4.157379 0.621339 0.304805
4.173214 0.625542 0.308499
4.185928 0.642254 0.325006
4.171424 0.642611 0.324358
4.219725 0.536364 0.327389
4.196932 0.534816 0.326420
4.196188 0.531962 0.296597
4.219593 0.533758 0.296924
4.218338 0.556216 0.325611
4.195545 0.554668 0.324642
4.194801 0.551814 0.294820
4.218205 0.553610 0.295146
4.219386 0.533706 0.296183
4.195982 0.531910 0.295857
4.194450 0.531938 0.265605
4.218903 0.532483 0.265367
4.218411 0.553659 0.295825
4.195006 0.551863 0.295499
4.193474 0.551891 0.265247
4.217927 0.552436 0.265009
4.176696 0.528655 0.220344
4.197747 0.529616 0.206890
4.192533 0.530383 0.236582
4.175301 0.548572 0.219585
4.196352 0.549533 0.206131
4.191138 0.550300 0.235823
4.182047 0.538546 0.237044
4.184155 0.540116 0.266207
4.182448 0.551583 0.271111
4.201633 0.542148 0.235434
4.203741 0.543718 0.264598
4.202035 0.555186 0.269501
4.182432 0.551665 0.271085
4.179201 0.569282 0.269522
4.182030 0.538627 0.237018
4.202048 0.555123 0.269530
4.198818 0.572741 0.267966
4.201646 0.542086 0.235463
4.191370 0.533082 0.243064
4.188542 0.563737 0.275568
4.168764 0.561142 0.271467
4.192291 0.547642 0.229413
4.189462 0.578296 0.261916
4.169685 0.575702 0.257815
4.080792 0.523317 -0.089871
4.047250 0.512661 -0.084120
4.048970 0.521632 -0.112761
4.075842 0.541872 -0.084356
4.042301 0.531216 -0.078605
4.044020 0.540187 -0.107246
4.161616 0.767443 0.334326
4.161363 0.767162 0.357847
4.139358 0.765453 0.330667
4.136049 0.765256 0.316566
4.159806 0.787340 0.334517
4.159553 0.787059 0.358038
4.137548 0.785350 0.330858
4.134239 0.785152 0.316757
4.135938 0.765246 0.316727
4.139247 0.765444 0.330828
4.110512 0.763192 0.321887
4.105285 0.762493 0.312034
4.134297 0.785158 0.316567
4.137606 0.785356 0.330668
4.108871 0.783104 0.321727
4.103644 0.782405 0.311873
4.105368 0.762500 0.311987
4.110595 0.763199 0.321841
4.079480 0.760108 0.322180
4.074186 0.759745 0.311781
4.103501 0.782393 0.311913
4.108727 0.783092 0.321767
4.077613 0.780001 0.322106
4.072319 0.779637 0.311708
4.074101 0.759737 0.311670
4.079395 0.760101 0.322069
4.047968 0.757345 0.322659
4.044631 0.757102 0.312367
4.072342 0.779639 0.311820
4.077636 0.780003 0.322218
4.046209 0.777247 0.322809
4.042872 0.777003 0.312516
4.044569 0.757096 0.312524
4.047906 0.757340 0.322816
4.016700 0.754810 0.323536
4.011829 0.754185 0.313317
4.042871 0.777003 0.312360
4.046209 0.777247 0.322653
4.015003 0.774717 0.323373
4.010131 0.774092 0.313154
4.011883 0.754190 0.313235
4.016754 0.754815 0.323454
3.985548 0.751714 0.324277
3.980601 0.751419 0.314344
4.010014 0.774082 0.313238
4.014886 0.774707 0.323457
3.983679 0.771607 0.324280
3.978733 0.771312 0.314346
3.980503 0.751411 0.314309
3.985450 0.751705 0.324242
3.954747 0.749109 0.329232
3.949277 0.748589 0.314714
3.978769 0.771315 0.314385
3.983715 0.771610 0.324318
3.953013 0.769013 0.329308
3.947543 0.768494 0.314790
3.949296 0.748591 0.314795
3.954766 0.749111 0.329312
3.924376 0.746380 0.336510
3.918024 0.745666 0.314448
3.947462 0.768487 0.314716
3.952932 0.769006 0.329233
3.922543 0.766276 0.336431
3.916190 0.765561 0.314369
3.992542 0.480847 0.086765
3.988220 0.475959 0.061726
4.042537 0.495147 0.073266
3.986443 0.499691 0.084140
3.982121 0.494803 0.059100
4.036438 0.513992 0.070640
3.999337 0.484615 0.099073
3.992575 0.480857 0.086765
4.042570 0.495158 0.073265
4.047769 0.501787 0.108155
3.993198 0.503451 0.096484
3.986436 0.499694 0.084176
4.036430 0.513994 0.070676
4.041630 0.520623 0.105566
4.166060 0.781318 -0.376903
4.168582 0.781418 -0.404599
4.169228 0.737099 -0.397144
4.167944 0.737023 -0.377208
4.185965 0.782014 -0.375310
4.188487 0.782115 -0.403006
4.189132 0.737796 -0.395551
4.187848 0.737719 -0.375615
4.167917 0.737107 -0.376803
4.169201 0.737183 -0.396739
4.169562 0.698534 -0.396764
4.169277 0.698563 -0.376788
4.187877 0.737552 -0.376018
4.189161 0.737628 -0.395953
4.189522 0.698979 -0.395979
4.189237 0.699008 -0.376003
4.169270 0.698535 -0.376314
4.169555 0.698506 -0.396289
4.169920 0.660195 -0.396316
4.170535 0.660082 -0.376344
4.189245 0.698959 -0.376478
4.189530 0.698930 -0.396453
4.189895 0.660619 -0.396480
4.190510 0.660506 -0.376508
4.170548 0.660059 -0.375919
4.169933 0.660172 -0.395891
4.170278 0.621626 -0.396094
4.171695 0.621541 -0.376174
4.190498 0.660451 -0.376933
4.189884 0.660564 -0.396905
4.190228 0.622019 -0.397107
4.191645 0.621933 -0.377188
4.171719 0.621210 -0.375964
4.170302 0.621296 -0.395884
4.172255 0.582053 -0.395169
4.173679 0.582737 -0.375242
4.191623 0.622186 -0.377398
4.190207 0.622272 -0.397317
4.192160 0.583029 -0.396602
4.193583 0.583712 -0.376675
4.173683 0.582525 -0.375356
4.172260 0.581842 -0.395283
4.175144 0.543412 -0.394166
4.176043 0.544053 -0.374224
4.193583 0.583847 -0.376559
4.192160 0.583164 -0.396486
4.195044 0.544734 -0.395369
4.195943 0.545375 -0.375427
4.175509 0.728385 0.332568
4.178747 0.728049 0.352306
4.170768 0.777659 0.359604
4.171423 0.777945 0.333941
4.195302 0.730889 0.331477
4.198539 0.730553 0.351215
4.190561 0.780163 0.358513
4.191216 0.780449 0.332850
4.178694 0.682187 0.333445
4.181057 0.682307 0.353262
4.178772 0.728678 0.353153
4.175534 0.729014 0.333416
4.198445 0.683337 0.330655
4.200808 0.683457 0.350472
4.198523 0.729828 0.350363
4.195285 0.730164 0.330625
4.175828 0.636264 0.333056
4.176374 0.636245 0.353072
4.180999 0.683621 0.352590
4.178636 0.683501 0.332774
4.195694 0.634692 0.331610
4.196239 0.634672 0.351625
4.200865 0.682049 0.351144
4.198502 0.681929 0.331327
4.181034 0.588919 0.329304
4.181862 0.588972 0.349225
4.176394 0.634221 0.352689
4.175849 0.634240 0.332673
4.200860 0.591303 0.328621
4.201687 0.591355 0.348541
4.196220 0.636604 0.352005
4.195675 0.636623 0.331990
4.186318 0.543562 0.326009
4.187294 0.543643 0.346008
4.181873 0.588915 0.349331
4.181045 0.588862 0.329411
4.206132 0.545968 0.325106
4.207108 0.546050 0.345105
4.201687 0.591321 0.348428
4.200859 0.591269 0.328508
3.944266 0.714627 0.312777
3.944651 0.757481 0.332795
3.939181 0.756961 0.318278
3.962694 0.717757 0.305721
3.963080 0.760611 0.325739
3.957609 0.760091 0.311221
3.912004 0.712239 0.312092
3.913942 0.754977 0.339246
3.907590 0.754263 0.317184
3.931009 0.714909 0.306533
3.932947 0.757647 0.333688
3.926594 0.756933 0.311625
3.908462 0.734988 -0.246469
3.906767 0.756396 -0.248662
3.909869 0.757159 -0.266945
3.928058 0.736887 -0.243066
3.926364 0.758295 -0.245259
3.929465 0.759058 -0.263542
3.947606 0.737838 -0.247060
3.944541 0.759217 -0.249589
3.945170 0.759676 -0.264424
3.967347 0.740777 -0.246133
3.964282 0.762156 -0.248662
3.964911 0.762615 -0.263496
4.181981 0.538915 0.236988
4.185216 0.517328 0.237411
4.187123 0.518891 0.266567
4.184090 0.540485 0.266151
4.201702 0.541749 0.235478
4.204937 0.520162 0.235901
4.206843 0.521725 0.265057
4.203810 0.543319 0.264641
3.906610 0.756684 -0.246438
3.908304 0.735276 -0.244245
3.909024 0.737138 -0.224389
3.907817 0.756213 -0.226615
3.926521 0.758000 -0.247451
3.928215 0.736592 -0.245258
3.928935 0.738454 -0.225402
3.927728 0.757529 -0.227628
3.910148 0.712033 -0.242338
3.910479 0.713916 -0.225417
3.909022 0.737073 -0.224539
3.908302 0.735211 -0.244394
3.930066 0.713436 -0.243049
3.930397 0.715318 -0.226129
3.928940 0.738476 -0.225250
3.928220 0.736613 -0.245106
3.911280 0.689543 -0.237211
3.911309 0.694288 -0.222771
3.910461 0.714165 -0.225565
3.910130 0.712283 -0.242486
3.931237 0.690402 -0.237622
3.931267 0.695146 -0.223182
3.930418 0.715023 -0.225976
3.930087 0.713141 -0.242896
3.912900 0.666900 -0.230930
3.912799 0.673104 -0.216867
3.911323 0.694049 -0.222748
3.911294 0.689305 -0.237189
3.932833 0.668192 -0.231376
3.932732 0.674396 -0.217313
3.931256 0.695342 -0.223194
3.931227 0.690597 -0.237635
3.916631 0.624040 -0.212423
3.916317 0.633047 -0.204421
3.914423 0.653838 -0.209574
3.914817 0.645005 -0.222577
3.936542 0.625575 -0.213058
3.936228 0.634582 -0.205055
3.934334 0.655374 -0.210208
3.934727 0.646540 -0.223212
3.914812 0.645029 -0.222659
3.914419 0.653862 -0.209656
3.912809 0.672964 -0.216840
3.912910 0.666760 -0.230903
3.934728 0.646558 -0.223145
3.934335 0.655391 -0.210142
3.932725 0.674493 -0.217326
3.932826 0.668290 -0.231389
3.920586 0.501408 -0.066082
3.920872 0.520067 -0.058956
3.920488 0.526950 -0.077837
3.920282 0.509772 -0.088041
3.940563 0.501314 -0.066454
3.940848 0.519973 -0.059328
3.940464 0.526856 -0.078209
3.940258 0.509678 -0.088413
3.921094 0.494394 -0.043598
3.921410 0.513727 -0.038554
3.920875 0.520085 -0.058855
3.920589 0.501427 -0.065981
3.941067 0.494249 -0.044131
3.941382 0.513582 -0.039087
3.940847 0.519940 -0.059388
3.940561 0.501281 -0.066513
3.921770 0.488616 -0.020785
3.921947 0.508474 -0.018636
3.921412 0.513719 -0.038498
3.921096 0.494386 -0.043542
3.941740 0.488475 -0.021388
3.941918 0.508333 -0.019240
3.941382 0.513578 -0.039101
3.941066 0.494245 -0.044145
3.922273 0.486037 0.002498
3.922363 0.505902 0.004671
3.921945 0.508445 -0.018713
3.921768 0.488587 -0.020862
3.942249 0.485946 0.002093
3.942339 0.505811 0.004267
3.941921 0.508354 -0.019118
3.941743 0.488496 -0.021266
3.922770 0.483430 0.025879
3.922795 0.503284 0.028073
3.922363 0.505861 0.004692
3.922273 0.485996 0.002518
3.942746 0.483415 0.025480
3.942771 0.503270 0.027675
3.942339 0.505847 0.004293
3.942249 0.485982 0.002120
3.923405 0.483638 0.049400
3.923136 0.503614 0.048976
3.922797 0.503205 0.028117
3.922771 0.483351 0.025923
3.943380 0.483780 0.048959
3.943111 0.503756 0.048535
3.942771 0.503347 0.027676
3.942746 0.483492 0.025482
3.924345 0.485479 0.072973
3.923939 0.505292 0.070447
3.923143 0.503546 0.049176
3.923412 0.483570 0.049600
3.944307 0.485758 0.072177
3.943901 0.505572 0.069651
3.943105 0.503826 0.048380
3.943374 0.483850 0.048804
3.925491 0.488297 0.096296
3.924875 0.508229 0.095059
3.923944 0.505221 0.070531
3.924350 0.485408 0.073058
3.945446 0.488723 0.095377
3.944830 0.508655 0.094141
3.943898 0.505647 0.069613
3.944304 0.485834 0.072139
3.907156 0.754545 0.314411
3.907119 0.754421 0.294559
3.911294 0.714674 0.289463
3.911570 0.712521 0.309319
3.927026 0.756638 0.314362
3.926989 0.756514 0.294509
3.931164 0.716767 0.289414
3.931440 0.714614 0.309270
3.911532 0.713007 0.309358
3.911256 0.715160 0.289502
3.913247 0.675877 0.279366
3.913763 0.668081 0.297755
3.931484 0.714044 0.309215
3.931208 0.716198 0.289358
3.933200 0.676915 0.279222
3.933716 0.669119 0.297611
3.913780 0.667810 0.297645
3.913264 0.675605 0.279256
3.916485 0.632943 0.261085
3.917052 0.625154 0.279475
3.933704 0.669306 0.297692
3.933188 0.677101 0.279303
3.936408 0.634440 0.261132
3.936976 0.626650 0.279522
3.915810 0.623056 -0.206728
3.916352 0.634365 -0.205755
3.916665 0.625358 -0.213758
3.935653 0.621930 -0.204683
3.936195 0.633239 -0.203710
3.936508 0.624232 -0.211713
3.916358 0.634167 -0.203559
3.915817 0.622858 -0.204532
3.916773 0.598054 -0.188443
3.936188 0.633418 -0.205891
3.935647 0.622109 -0.206864
3.936602 0.597306 -0.190775
3.924884 0.508109 0.094063
3.925500 0.488177 0.095299
3.921031 0.524002 0.152015
3.944820 0.508796 0.095200
3.945435 0.488863 0.096436
3.940967 0.524688 0.153152
3.919751 0.617344 0.265236
3.917320 0.623570 0.278810
3.916753 0.631360 0.260420
3.939143 0.621958 0.266592
3.936713 0.628185 0.280166
3.936145 0.635974 0.261776
3.916732 0.632194 0.262880
3.919028 0.591195 0.241929
3.919730 0.618178 0.267696
3.936168 0.635118 0.259289
3.938464 0.594118 0.238338
3.939166 0.621102 0.264105
3.920282 0.509720 -0.088026
3.920488 0.526898 -0.077821
3.919833 0.526480 -0.107560
3.940257 0.509742 -0.088466
3.940463 0.526920 -0.078261
3.939809 0.526502 -0.108001
3.920490 0.526702 -0.077834
3.918701 0.550326 -0.134538
3.919835 0.526284 -0.107573
3.940460 0.527144 -0.078280
3.938671 0.550768 -0.134984
3.939806 0.526726 -0.108019
3.944531 0.759383 -0.248430
3.947596 0.738003 -0.245901
3.948233 0.740398 -0.231033
3.945662 0.759104 -0.233692
3.964294 0.761985 -0.249796
3.967358 0.740605 -0.247267
3.967996 0.743000 -0.232399
3.965424 0.761706 -0.235058
3.947582 0.738041 -0.246048
3.950767 0.714910 -0.243363
3.951106 0.719424 -0.223923
3.948219 0.740436 -0.231180
3.967378 0.740525 -0.247112
3.970564 0.717394 -0.244427
3.970902 0.721907 -0.224986
3.968016 0.742919 -0.232244
3.950733 0.715163 -0.243483
3.953233 0.691525 -0.238080
3.953613 0.696018 -0.218597
3.951072 0.719677 -0.224043
3.970603 0.717095 -0.244297
3.973103 0.693457 -0.238893
3.973483 0.697949 -0.219410
3.970942 0.721608 -0.224856
3.953243 0.691443 -0.238043
3.955802 0.669299 -0.231484
3.955753 0.675908 -0.217592
3.953623 0.695936 -0.218559
3.973098 0.693494 -0.238921
3.975657 0.671350 -0.232362
3.975608 0.677958 -0.218471
3.973478 0.697987 -0.219438
3.955793 0.669370 -0.231525
3.957996 0.649440 -0.223805
3.957679 0.658055 -0.210704
3.955744 0.675978 -0.217634
3.975670 0.671239 -0.232310
3.977873 0.651310 -0.224590
3.977556 0.659925 -0.211489
3.975621 0.677848 -0.218418
3.957984 0.649591 -0.223791
3.959448 0.632425 -0.215721
3.959282 0.641174 -0.207619
3.957667 0.658207 -0.210690
3.977889 0.651122 -0.224592
3.979353 0.633957 -0.216522
3.979187 0.642706 -0.208420
3.977572 0.659738 -0.211490
3.959246 0.641846 -0.208132
3.959412 0.633097 -0.216234
3.959358 0.629629 -0.209034
3.979224 0.642011 -0.207901
3.979390 0.633262 -0.216003
3.979336 0.629794 -0.208803
3.960157 0.642144 -0.212177
3.960268 0.629927 -0.213079
3.951418 0.602311 -0.195307
3.978308 0.641693 -0.203839
3.978419 0.629476 -0.204741
3.969570 0.601860 -0.186969
3.938477 0.757314 0.314746
3.938422 0.757121 0.294406
3.943331 0.717129 0.289380
3.943562 0.714980 0.309245
3.958311 0.759725 0.314722
3.958256 0.759532 0.294382
3.963165 0.719540 0.289356
3.963396 0.717390 0.309221
3.948545 0.670181 0.297822
3.943558 0.715019 0.309105
3.943327 0.717168 0.289240
3.948103 0.678060 0.279468
3.968397 0.672429 0.298063
3.963410 0.717268 0.309345
3.963178 0.719417 0.289480
3.967954 0.680308 0.279708
3.953053 0.629041 0.279975
3.948537 0.670258 0.297771
3.948095 0.678137 0.279417
3.952484 0.636905 0.261616
3.972929 0.631052 0.280290
3.968413 0.672269 0.298086
3.967971 0.680148 0.279731
3.972360 0.638916 0.261930
3.954931 0.631735 0.259361
3.961896 0.620326 0.266846
3.955500 0.623872 0.277721
3.969921 0.644039 0.264166
3.976887 0.632631 0.271651
3.970491 0.636176 0.282526
3.953899 0.635803 0.266525
3.952579 0.594254 0.246126
3.960864 0.624394 0.274010
3.970952 0.639949 0.256976
3.969633 0.598401 0.236577
