3.799257 0.541089 -0.367859
3.816967 0.563400 -0.306357
3.800231 0.558965 -0.294962
3.800509 0.536615 -0.293254
3.816987 0.541147 -0.304433
3.782657 0.558915 -0.358617
3.765921 0.554480 -0.347222
3.766200 0.532131 -0.345514
3.782677 0.536662 -0.356694
3.867054 0.577162 -0.340463
3.850299 0.572723 -0.329085
3.849845 0.550665 -0.326632
3.866385 0.555215 -0.337697
3.833150 0.571807 -0.392906
3.816395 0.567368 -0.381528
3.815941 0.545310 -0.379075
3.832481 0.549860 -0.390140
3.850378 0.572540 -0.329118
3.833633 0.568100 -0.317738
3.833414 0.545948 -0.315533
3.849924 0.550482 -0.326665
3.816283 0.567542 -0.381473
3.799539 0.563102 -0.370093
3.799320 0.540950 -0.367888
3.815829 0.545484 -0.379020
3.859473 0.624014 -0.352474
3.844146 0.619917 -0.341540
3.844435 0.608831 -0.333714
3.860783 0.612945 -0.344567
3.836376 0.589179 -0.399180
3.821049 0.585082 -0.388247
3.821338 0.573996 -0.380420
3.837685 0.578110 -0.391274
3.844680 0.618915 -0.341089
3.829353 0.614835 -0.330157
3.828607 0.603710 -0.322424
3.844968 0.607829 -0.333263
3.820484 0.586076 -0.388676
3.805158 0.581995 -0.377745
3.804411 0.570871 -0.370012
3.820773 0.574990 -0.380850
3.829935 0.613695 -0.329706
3.814602 0.609611 -0.318771
3.812836 0.598455 -0.311136
3.829189 0.602571 -0.321972
3.804544 0.583126 -0.378175
3.789211 0.579042 -0.367240
3.787444 0.567886 -0.359605
3.803798 0.572002 -0.370442
3.815384 0.608163 -0.318327
3.800148 0.604080 -0.307293
3.797259 0.592893 -0.299845
3.813617 0.597008 -0.310692
3.788398 0.580481 -0.367662
3.773162 0.576398 -0.356628
3.770273 0.565211 -0.349180
3.786631 0.569326 -0.360027
3.804754 0.630113 -0.394666
3.796680 0.626976 -0.373338
3.819663 0.632279 -0.377523
3.823820 0.633430 -0.395482
3.816997 0.568711 -0.397555
3.808922 0.565574 -0.376227
3.831905 0.570877 -0.380412
3.836063 0.572028 -0.398371
3.823608 0.633418 -0.397309
3.819450 0.632268 -0.379350
3.842437 0.637488 -0.383533
3.842654 0.636841 -0.398118
3.836317 0.572048 -0.396549
3.832160 0.570897 -0.378589
3.855147 0.576118 -0.382773
3.855364 0.575470 -0.397357
3.840866 0.637121 -0.374911
3.841736 0.637323 -0.382214
3.818749 0.632103 -0.378030
3.825539 0.633025 -0.363977
3.854979 0.576082 -0.376762
3.855849 0.576283 -0.384065
3.832862 0.571063 -0.379882
3.839652 0.571985 -0.365829
3.825692 0.633036 -0.363387
3.818902 0.632114 -0.377441
3.795919 0.626811 -0.373257
3.810366 0.628956 -0.352456
3.839461 0.571964 -0.366403
3.832671 0.571042 -0.380456
3.809688 0.565739 -0.376272
3.824135 0.567884 -0.355471
3.787711 0.623762 -0.351728
3.779694 0.620754 -0.330292
3.794930 0.624838 -0.341326
3.801635 0.562743 -0.355083
3.793618 0.559735 -0.333647
3.808854 0.563819 -0.344681
3.795845 0.626785 -0.373081
3.787740 0.623770 -0.351748
3.794960 0.624845 -0.341346
3.810292 0.628930 -0.352281
3.809730 0.565756 -0.376424
3.801625 0.562741 -0.355091
3.808844 0.563817 -0.344688
3.824177 0.567901 -0.355623
3.863565 0.548235 -0.330651
3.864517 0.559892 -0.331604
3.846604 0.555300 -0.332836
3.869262 0.542691 -0.392823
3.870214 0.554348 -0.393775
3.852302 0.549756 -0.395007
3.845692 0.576466 -0.335728
3.863791 0.570730 -0.332774
3.864229 0.583439 -0.333519
3.854553 0.572531 -0.397651
3.872652 0.566794 -0.394697
3.873091 0.579504 -0.395441
3.850002 0.638095 -0.381870
3.870592 0.637208 -0.379257
3.871575 0.637483 -0.386899
3.847631 0.575515 -0.384426
3.868221 0.574628 -0.381813
3.869204 0.574903 -0.389455
3.832424 0.429711 -0.306870
3.837049 0.440547 -0.301089
3.823012 0.443122 -0.300300
3.815171 0.432393 -0.307874
3.837928 0.460251 -0.361326
3.842553 0.471088 -0.355545
3.828516 0.473662 -0.354756
3.820675 0.462933 -0.362329
3.817013 0.428666 -0.310195
3.824854 0.439395 -0.302621
3.810793 0.439982 -0.301786
3.803958 0.431033 -0.309751
3.818804 0.466664 -0.360008
3.826645 0.477393 -0.352434
3.812584 0.477980 -0.351600
3.805749 0.469031 -0.359565
3.135962 0.527987 -0.438726
3.138619 0.534245 -0.444009
3.127647 0.532135 -0.450799
3.126302 0.526202 -0.446743
3.169308 0.489247 -0.474998
3.171965 0.495505 -0.480282
3.160993 0.493395 -0.487072
3.159648 0.487463 -0.483015
3.125518 0.522928 -0.444427
3.126863 0.528860 -0.448484
3.116002 0.526658 -0.455476
3.115541 0.521044 -0.451989
3.160412 0.490733 -0.485346
3.161757 0.496666 -0.489403
3.150897 0.494464 -0.496395
3.150435 0.488849 -0.492908
3.115154 0.519802 -0.451391
3.115616 0.525416 -0.454879
3.105064 0.523067 -0.462233
3.104905 0.517834 -0.458594
3.150801 0.490087 -0.493520
3.151262 0.495702 -0.497007
3.140711 0.493353 -0.504361
3.140552 0.488120 -0.500722
3.104976 0.518284 -0.458858
3.105135 0.523517 -0.462496
3.094579 0.521169 -0.469845
3.094840 0.516339 -0.465994
3.140460 0.487666 -0.500473
3.140619 0.492899 -0.504112
3.130063 0.490551 -0.511461
3.130324 0.485721 -0.507609
3.151744 0.545933 -0.464410
3.162385 0.545741 -0.478837
3.149699 0.543988 -0.487976
3.140772 0.543823 -0.471201
3.158852 0.483823 -0.459900
3.169493 0.483632 -0.474328
3.156807 0.481878 -0.483466
3.147880 0.481713 -0.466691
3.139948 0.543770 -0.470285
3.148875 0.543935 -0.487060
3.137022 0.542279 -0.495415
3.129088 0.541569 -0.477278
3.148681 0.481762 -0.467622
3.157608 0.481927 -0.484398
3.145755 0.480270 -0.492753
3.137821 0.479560 -0.474615
3.127880 0.541393 -0.476743
3.135814 0.542104 -0.494881
3.124000 0.540086 -0.500437
3.117328 0.539044 -0.484097
3.139006 0.479731 -0.475164
3.146940 0.480442 -0.493302
3.135127 0.478425 -0.498858
3.128454 0.477382 -0.482518
3.116863 0.538966 -0.483246
3.123535 0.540009 -0.499586
3.110622 0.537795 -0.505664
3.106307 0.536618 -0.490595
3.128896 0.477455 -0.483382
3.135569 0.478498 -0.499722
3.122656 0.476284 -0.505800
3.118341 0.475107 -0.490731
3.163466 0.545880 -0.478300
3.174105 0.545695 -0.492728
3.160434 0.544267 -0.503448
3.150780 0.544127 -0.487438
3.168432 0.483493 -0.474896
3.179071 0.483307 -0.489324
3.165400 0.481879 -0.500044
3.155746 0.481739 -0.484034
3.150280 0.544112 -0.486775
3.159934 0.544252 -0.502785
3.146795 0.542912 -0.513078
3.138426 0.542456 -0.495130
3.156221 0.481751 -0.484717
3.165875 0.481891 -0.500727
3.152736 0.480551 -0.511020
3.144368 0.480095 -0.493072
3.137176 0.542321 -0.494766
3.145544 0.542777 -0.512713
3.132170 0.541162 -0.517478
3.125362 0.540304 -0.500322
3.145593 0.480226 -0.493452
3.153962 0.480682 -0.511399
3.140588 0.479067 -0.516164
3.133780 0.478208 -0.499008
3.124930 0.540247 -0.499314
3.131738 0.541105 -0.516470
3.116330 0.539206 -0.520458
3.112017 0.538034 -0.505392
3.134185 0.478261 -0.500026
3.140993 0.479119 -0.517182
3.125585 0.477220 -0.521170
3.121272 0.476048 -0.506104
3.174604 0.545751 -0.492298
3.185248 0.545525 -0.511726
3.171306 0.544418 -0.520253
3.160934 0.544323 -0.503018
3.178592 0.483251 -0.489788
3.189236 0.483025 -0.509216
3.175293 0.481918 -0.517743
3.164921 0.481823 -0.500508
3.160741 0.544322 -0.502668
3.171113 0.544417 -0.519903
3.151613 0.542859 -0.531613
3.147602 0.542982 -0.512961
3.165084 0.481821 -0.500878
3.175456 0.481916 -0.518113
3.155956 0.480358 -0.529823
3.151945 0.480481 -0.511171
3.148113 0.542999 -0.510774
3.152124 0.542876 -0.529425
3.136830 0.543432 -0.535471
3.134739 0.541384 -0.515539
3.151404 0.480462 -0.513375
3.155415 0.480339 -0.532027
3.140121 0.480896 -0.538072
3.138030 0.478847 -0.518140
3.129186 0.540616 -0.517176
3.131278 0.542665 -0.537108
3.121171 0.538467 -0.541203
3.113778 0.538716 -0.521163
3.143555 0.479611 -0.516513
3.145646 0.481660 -0.536445
3.135540 0.477462 -0.540540
3.128147 0.477712 -0.520500
3.253968 0.544395 -0.387572
3.266795 0.542869 -0.401810
3.252489 0.543229 -0.411737
3.240245 0.544654 -0.396669
3.250392 0.481904 -0.384337
3.263219 0.480377 -0.398575
3.248913 0.480737 -0.408501
3.236669 0.482163 -0.393433
3.240136 0.544667 -0.396530
3.252380 0.543242 -0.411598
3.238076 0.543604 -0.421522
3.226486 0.544920 -0.405739
3.236750 0.482150 -0.393591
3.248994 0.480725 -0.408659
3.234690 0.481087 -0.418583
3.223100 0.482403 -0.402800
3.226356 0.544932 -0.405616
3.237945 0.543616 -0.421400
3.224145 0.543928 -0.431704
3.213006 0.545136 -0.415250
3.223203 0.482391 -0.402942
3.234793 0.481075 -0.418726
3.220992 0.481387 -0.429030
3.209853 0.482595 -0.412576
3.212850 0.545149 -0.415122
3.223989 0.543941 -0.431576
3.210768 0.544191 -0.442614
3.197974 0.545298 -0.427277
3.209982 0.482583 -0.412725
3.221121 0.481375 -0.429180
3.207900 0.481626 -0.440217
3.195106 0.482732 -0.424880
3.267028 0.542857 -0.401762
3.273050 0.541465 -0.420604
3.260488 0.541888 -0.429733
3.252723 0.543217 -0.411688
3.263005 0.480386 -0.398657
3.269027 0.478994 -0.417499
3.256465 0.479417 -0.426628
3.248699 0.480746 -0.408583
3.252588 0.543233 -0.411516
3.260353 0.541904 -0.429561
3.247791 0.542331 -0.438693
3.238283 0.543596 -0.421441
3.248807 0.480730 -0.408774
3.256572 0.479401 -0.426819
3.244010 0.479828 -0.435951
3.234503 0.481093 -0.418699
3.238132 0.543610 -0.421294
3.247640 0.542346 -0.438546
3.235560 0.542717 -0.447998
3.224332 0.543922 -0.431598
3.234628 0.481078 -0.418865
3.244135 0.479814 -0.436117
3.232055 0.480185 -0.445570
3.220827 0.481390 -0.429169
3.224198 0.543935 -0.431449
3.235425 0.542730 -0.447849
3.223756 0.543068 -0.457831
3.210977 0.544186 -0.442486
3.220936 0.481378 -0.429339
3.232164 0.480173 -0.445739
3.220495 0.480511 -0.455721
3.207716 0.481629 -0.440377
3.272324 0.541541 -0.419185
3.278352 0.541169 -0.438017
3.267617 0.541633 -0.446316
3.259762 0.541964 -0.428314
3.269766 0.478916 -0.418954
3.275793 0.478544 -0.437785
3.265059 0.479008 -0.446085
3.257204 0.479339 -0.428083
3.260815 0.541784 -0.425474
3.268669 0.541453 -0.443476
3.257943 0.544299 -0.451661
3.248253 0.542211 -0.434606
3.256128 0.479522 -0.430941
3.263983 0.479190 -0.448942
3.253256 0.482037 -0.457128
3.243566 0.479948 -0.440073
3.243534 0.542328 -0.437058
3.253224 0.544417 -0.454114
3.242755 0.542499 -0.461856
3.231454 0.542699 -0.446511
3.248262 0.479832 -0.437638
3.257952 0.481921 -0.454693
3.247483 0.480003 -0.462435
3.236182 0.480203 -0.447090
3.234607 0.542778 -0.446526
3.245909 0.542578 -0.461871
3.235739 0.542951 -0.468847
3.222938 0.543116 -0.456508
3.233006 0.480124 -0.447092
3.244307 0.479924 -0.462437
3.234138 0.480297 -0.469413
3.221337 0.480462 -0.457074
3.282964 0.543762 -0.373307
3.298405 0.543503 -0.367248
3.301075 0.542403 -0.386391
3.283516 0.542590 -0.393888
3.280725 0.481217 -0.369912
3.296167 0.480958 -0.363853
3.298836 0.479858 -0.382996
3.281277 0.480045 -0.390494
3.266317 0.542881 -0.402011
3.283668 0.542576 -0.394029
3.288026 0.541352 -0.413006
3.272339 0.541489 -0.420853
3.263746 0.480361 -0.398390
3.281097 0.480057 -0.390408
3.285455 0.478832 -0.409385
3.269768 0.478969 -0.417232
3.283366 0.542593 -0.393919
3.300926 0.542407 -0.386422
3.303637 0.541331 -0.405558
3.287725 0.541369 -0.412897
3.281431 0.480039 -0.390502
3.298991 0.479853 -0.383004
3.301702 0.478776 -0.402141
3.285790 0.478815 -0.409479
3.272669 0.541513 -0.419920
3.288356 0.541376 -0.412073
3.292747 0.540174 -0.431056
3.278696 0.541141 -0.438751
3.269448 0.478942 -0.418203
3.285135 0.478805 -0.410356
3.289526 0.477603 -0.429339
3.275475 0.478570 -0.437034
3.287492 0.541374 -0.412911
3.303404 0.541336 -0.405572
3.306161 0.540296 -0.424700
3.291883 0.540172 -0.431894
3.286029 0.478807 -0.409504
3.301941 0.478769 -0.402165
3.304698 0.477728 -0.421293
3.290420 0.477605 -0.428487
3.058007 0.323368 -0.478724
3.057727 0.343879 -0.478455
3.036591 0.341131 -0.480040
3.036840 0.320967 -0.480387
3.062682 0.324376 -0.541219
3.062402 0.344888 -0.540949
3.041266 0.342139 -0.542534
3.041514 0.321975 -0.542881
3.057839 0.343954 -0.478445
3.057566 0.364465 -0.478211
3.036456 0.361371 -0.479717
3.036703 0.341206 -0.480030
3.062290 0.344853 -0.540958
3.062016 0.365364 -0.540723
3.040907 0.362270 -0.542230
3.041153 0.342105 -0.542543
3.057689 0.364480 -0.478202
3.057416 0.384992 -0.477965
3.036334 0.381551 -0.479389
3.036580 0.361386 -0.479709
3.061892 0.365390 -0.540731
3.061619 0.385902 -0.540494
3.040537 0.382461 -0.541918
3.040783 0.362296 -0.542238
3.057528 0.385032 -0.477957
3.057255 0.405543 -0.477724
3.036202 0.401756 -0.479081
3.036446 0.381591 -0.479381
3.061507 0.385903 -0.540502
3.061234 0.406413 -0.540268
3.040181 0.402626 -0.541626
3.040425 0.382461 -0.541926
3.057326 0.406014 -0.477716
3.056287 0.426459 -0.477858
3.035415 0.422319 -0.479068
3.036273 0.402227 -0.479073
3.061162 0.405982 -0.540276
3.060123 0.426427 -0.540418
3.039251 0.422288 -0.541628
3.040109 0.402196 -0.541633
3.056481 0.426617 -0.477847
3.055207 0.447091 -0.478099
3.034600 0.442606 -0.479131
3.035609 0.422478 -0.479057
3.059928 0.426309 -0.540429
3.058654 0.446783 -0.540680
3.038047 0.442297 -0.541713
3.039055 0.422169 -0.541639
3.055460 0.447118 -0.478086
3.054188 0.467593 -0.478339
3.033842 0.462760 -0.479182
3.034852 0.442633 -0.479118
3.058399 0.446796 -0.540694
3.057127 0.467271 -0.540947
3.036781 0.462437 -0.541789
3.037792 0.442310 -0.541726
3.054537 0.467744 -0.478326
3.053410 0.482307 -0.478662
3.033180 0.483087 -0.479233
3.034191 0.462910 -0.479168
3.056777 0.467158 -0.540960
3.055650 0.481721 -0.541297
3.035420 0.482501 -0.541868
3.036430 0.462324 -0.541803
3.036843 0.320835 -0.480389
3.036594 0.340999 -0.480042
3.015457 0.338244 -0.481619
3.015676 0.318436 -0.482048
3.041469 0.322102 -0.542883
3.041220 0.342266 -0.542535
3.020082 0.339511 -0.544113
3.020302 0.319703 -0.544541
3.036712 0.341075 -0.480032
3.036466 0.361241 -0.479719
3.015357 0.358129 -0.481216
3.015574 0.338320 -0.481609
3.041102 0.342230 -0.542545
3.040855 0.362395 -0.542232
3.019747 0.359284 -0.543729
3.019964 0.339475 -0.544122
3.036588 0.361254 -0.479710
3.036342 0.381418 -0.479390
3.015262 0.377953 -0.480812
3.015480 0.358142 -0.481208
3.040732 0.362422 -0.542239
3.040487 0.382587 -0.541919
3.019407 0.379121 -0.543341
3.019624 0.359311 -0.543737
3.036459 0.381468 -0.479382
3.036215 0.401633 -0.479082
3.015163 0.397811 -0.480424
3.015379 0.378003 -0.480803
3.040369 0.382577 -0.541927
3.040125 0.402742 -0.541627
3.019073 0.398920 -0.542969
3.019290 0.379111 -0.543349
3.036314 0.402012 -0.479071
3.035457 0.422104 -0.479066
3.014599 0.417956 -0.480260
3.015262 0.398190 -0.480413
3.040025 0.402403 -0.541637
3.039167 0.422495 -0.541632
3.018310 0.418346 -0.542826
3.018973 0.398581 -0.542979
3.035656 0.422229 -0.479054
3.034648 0.442357 -0.479128
3.014049 0.437864 -0.480152
3.014799 0.418081 -0.480248
3.038966 0.422410 -0.541644
3.037957 0.442537 -0.541718
3.017358 0.438044 -0.542741
3.018109 0.418261 -0.542837
3.034890 0.442369 -0.479116
3.033880 0.462496 -0.479180
3.013541 0.457660 -0.480031
3.014291 0.437876 -0.480140
3.037713 0.442565 -0.541730
3.036703 0.462692 -0.541793
3.016364 0.457856 -0.542645
3.017114 0.438072 -0.542753
3.034182 0.462486 -0.479167
3.033171 0.482663 -0.479232
3.013014 0.480447 -0.479843
3.013843 0.457651 -0.480019
3.036399 0.462743 -0.541805
3.035388 0.482919 -0.541870
3.015232 0.480703 -0.542481
3.016060 0.457907 -0.542657
3.015669 0.318301 -0.482051
3.015450 0.338110 -0.481623
2.994313 0.335347 -0.483204
2.994502 0.315903 -0.483708
3.020266 0.319832 -0.544541
3.020047 0.339641 -0.544112
2.998910 0.336878 -0.545694
2.999099 0.317434 -0.546198
3.015572 0.338177 -0.481612
3.015355 0.357986 -0.481220
2.994247 0.354859 -0.482714
2.994435 0.335415 -0.483194
3.019924 0.339612 -0.544122
3.019707 0.359421 -0.543729
2.998599 0.356294 -0.545224
2.998787 0.336850 -0.545704
3.015481 0.358013 -0.481210
3.015264 0.377824 -0.480814
2.994185 0.374332 -0.482236
2.994373 0.354887 -0.482705
3.019581 0.359433 -0.543737
3.019364 0.379243 -0.543341
2.998285 0.375752 -0.544763
2.998473 0.356306 -0.545232
3.015381 0.377865 -0.480806
3.015165 0.397674 -0.480426
2.994115 0.393820 -0.481769
2.994302 0.374374 -0.482228
3.019246 0.379241 -0.543349
3.019029 0.399050 -0.542969
2.997980 0.395195 -0.544312
2.998167 0.375749 -0.544771
3.015282 0.397966 -0.480414
3.014619 0.417731 -0.480261
2.993775 0.413573 -0.481454
2.994233 0.394112 -0.481757
3.018911 0.398797 -0.542981
3.018248 0.418563 -0.542827
2.997405 0.414404 -0.544021
2.997862 0.394943 -0.544324
3.014841 0.417816 -0.480247
3.014091 0.437600 -0.480151
2.993503 0.433101 -0.481162
2.993998 0.413658 -0.481441
3.018025 0.418517 -0.542840
3.017274 0.438300 -0.542744
2.996686 0.433801 -0.543754
2.997181 0.414358 -0.544034
3.014352 0.437614 -0.480139
3.013602 0.457398 -0.480030
2.993267 0.452558 -0.480865
2.993763 0.433115 -0.481149
3.017013 0.438325 -0.542756
3.016263 0.458109 -0.542647
2.995928 0.453269 -0.543482
2.996424 0.433826 -0.543766
3.013879 0.457373 -0.480020
3.013051 0.480169 -0.479844
2.992895 0.477953 -0.480461
2.993544 0.452532 -0.480855
3.015983 0.458178 -0.542657
3.015155 0.480974 -0.542481
2.995000 0.478758 -0.543097
2.995649 0.453338 -0.543492
3.059060 0.294703 -0.491517
3.059482 0.305712 -0.484439
3.038315 0.303311 -0.486101
3.040176 0.293960 -0.493441
3.060785 0.330993 -0.542590
3.061207 0.342002 -0.535512
3.040040 0.339601 -0.537175
3.041902 0.330250 -0.544515
3.040541 0.291340 -0.495511
3.038679 0.300691 -0.488171
3.017513 0.298292 -0.489830
3.021659 0.290605 -0.497442
3.041497 0.332866 -0.542448
3.039636 0.342217 -0.535108
3.018469 0.339818 -0.536767
3.022615 0.332130 -0.544379
3.022094 0.287887 -0.500155
3.017948 0.295575 -0.492543
2.996780 0.293176 -0.494200
3.003212 0.287154 -0.502085
3.022140 0.334845 -0.541669
3.017993 0.342533 -0.534057
2.996826 0.340134 -0.535714
3.003258 0.334112 -0.543598
3.106364 0.345471 -0.455167
3.105437 0.364889 -0.455616
3.094142 0.360006 -0.462441
3.095075 0.339804 -0.462119
3.138841 0.345952 -0.508771
3.137914 0.365370 -0.509221
3.126619 0.360487 -0.516046
3.127552 0.340285 -0.515724
3.105631 0.364966 -0.455499
3.104717 0.384386 -0.455971
3.093431 0.380249 -0.462665
3.094336 0.360082 -0.462324
3.137717 0.365333 -0.509339
3.136804 0.384754 -0.509811
3.125518 0.380616 -0.516505
3.126422 0.360450 -0.516164
3.104909 0.384426 -0.455857
3.103994 0.403845 -0.456328
3.092738 0.400423 -0.462897
3.093623 0.380289 -0.462551
3.136610 0.384753 -0.509926
3.135695 0.404171 -0.510396
3.124439 0.400750 -0.516965
3.125324 0.380615 -0.516619
3.104183 0.403883 -0.456218
3.103273 0.423303 -0.456696
3.092056 0.420560 -0.463125
3.092927 0.400461 -0.462787
3.135504 0.404173 -0.510507
3.134594 0.423594 -0.510985
3.123377 0.420850 -0.517415
3.124248 0.400752 -0.517076
3.103565 0.423159 -0.456530
3.102116 0.442560 -0.457213
3.090902 0.439863 -0.463466
3.092349 0.420415 -0.462960
3.134298 0.423778 -0.511152
3.132849 0.443179 -0.511835
3.121635 0.440482 -0.518088
3.123082 0.421034 -0.517581
3.102463 0.442567 -0.457021
3.100830 0.461930 -0.457784
3.089625 0.459099 -0.463837
3.091250 0.439870 -0.463273
3.132498 0.443211 -0.512029
3.130865 0.462574 -0.512792
3.119660 0.459744 -0.518845
3.121284 0.440514 -0.518282
3.101179 0.462003 -0.457596
3.099548 0.481366 -0.458362
3.088379 0.478419 -0.464216
3.089974 0.459172 -0.463648
3.130513 0.462540 -0.512982
3.128882 0.481903 -0.513749
3.117713 0.478956 -0.519602
3.119308 0.459709 -0.519035
3.099860 0.481410 -0.458199
3.098218 0.500772 -0.458949
3.087139 0.496737 -0.464620
3.088691 0.478463 -0.464052
3.128567 0.481896 -0.513913
3.126925 0.501259 -0.514663
3.115846 0.497224 -0.520334
3.117398 0.478950 -0.519767
3.096347 0.339773 -0.461389
3.095414 0.359975 -0.461711
3.083973 0.355653 -0.467955
3.084454 0.335043 -0.467904
3.126256 0.340306 -0.516467
3.125323 0.360508 -0.516789
3.113882 0.356186 -0.523033
3.114363 0.335576 -0.522982
3.095427 0.360050 -0.461703
3.094522 0.380216 -0.462044
3.083451 0.376336 -0.468074
3.083985 0.355728 -0.467948
3.125309 0.360473 -0.516797
3.124404 0.380640 -0.517138
3.113333 0.376759 -0.523168
3.113868 0.356151 -0.523041
3.094546 0.380253 -0.462031
3.093660 0.400387 -0.462377
3.082871 0.396974 -0.468232
3.083475 0.376372 -0.468061
3.124379 0.380644 -0.517152
3.123494 0.400779 -0.517497
3.112704 0.397366 -0.523352
3.113308 0.376764 -0.523181
3.093695 0.400411 -0.462358
3.092824 0.420509 -0.462697
3.082232 0.417599 -0.468424
3.082905 0.396998 -0.468213
3.123458 0.400796 -0.517517
3.122587 0.420894 -0.517856
3.111994 0.417983 -0.523583
3.112668 0.397383 -0.523371
3.092989 0.420281 -0.462611
3.091542 0.439729 -0.463118
3.080941 0.436942 -0.468754
3.082397 0.417370 -0.468338
3.122419 0.421162 -0.517942
3.120973 0.440610 -0.518448
3.110372 0.437823 -0.524085
3.111827 0.418251 -0.523669
3.091750 0.439704 -0.463009
3.090125 0.458933 -0.463572
3.079417 0.456116 -0.469163
3.081149 0.436917 -0.468645
3.120762 0.440675 -0.518558
3.119138 0.459904 -0.519122
3.108429 0.457087 -0.524713
3.110161 0.437888 -0.524195
3.090334 0.458994 -0.463463
3.088739 0.478241 -0.464030
3.077848 0.475333 -0.469604
3.079625 0.456177 -0.469054
3.118926 0.459882 -0.519232
3.117331 0.479128 -0.519799
3.106441 0.476220 -0.525373
3.108217 0.457064 -0.524823
3.088899 0.478324 -0.463948
3.087347 0.496598 -0.464515
3.076265 0.491562 -0.470153
3.078009 0.475416 -0.469521
3.117167 0.479082 -0.519883
3.115615 0.497356 -0.520451
3.104533 0.492320 -0.526089
3.106277 0.476174 -0.525457
3.086009 0.334996 -0.467116
3.085528 0.355606 -0.467167
3.073066 0.351762 -0.473048
3.073440 0.331302 -0.473143
3.112783 0.335614 -0.523783
3.112302 0.356224 -0.523834
3.099840 0.352380 -0.529716
3.100214 0.331920 -0.529810
3.085696 0.355696 -0.467087
3.085162 0.376304 -0.467213
3.072876 0.372311 -0.472911
3.073234 0.351852 -0.472968
3.112133 0.356175 -0.523914
3.111599 0.376783 -0.524040
3.099313 0.372790 -0.529738
3.099671 0.352331 -0.529795
3.085360 0.376342 -0.467121
3.084756 0.396944 -0.467292
3.072722 0.392810 -0.472766
3.073074 0.372349 -0.472819
3.111399 0.376786 -0.524132
3.110796 0.397388 -0.524303
3.098762 0.393254 -0.529776
3.099113 0.372793 -0.529830
3.085008 0.396962 -0.467179
3.084334 0.417563 -0.467390
3.072617 0.413288 -0.472578
3.072974 0.392828 -0.472652
3.110543 0.397411 -0.524417
3.109869 0.418012 -0.524628
3.098152 0.413737 -0.529816
3.098509 0.393277 -0.529890
3.084729 0.417369 -0.467219
3.083274 0.436941 -0.467635
3.071582 0.432802 -0.472634
3.073012 0.413094 -0.472408
3.109472 0.418246 -0.524799
3.108017 0.437818 -0.525215
3.096326 0.433679 -0.530213
3.097755 0.413970 -0.529988
3.083702 0.436933 -0.467455
3.081970 0.456132 -0.467973
3.070232 0.452286 -0.472760
3.072011 0.432794 -0.472453
3.107585 0.437865 -0.525396
3.105853 0.457064 -0.525914
3.094115 0.453218 -0.530701
3.095894 0.433726 -0.530394
3.082431 0.456217 -0.467786
3.080655 0.475373 -0.468336
3.068922 0.471866 -0.472889
3.070693 0.452371 -0.472573
3.105388 0.457017 -0.526102
3.103612 0.476174 -0.526652
3.091879 0.472667 -0.531205
3.093651 0.453172 -0.530889
3.081150 0.475516 -0.468144
3.079407 0.491662 -0.468775
3.067716 0.488559 -0.473048
3.069418 0.472009 -0.472697
3.103112 0.476066 -0.526845
3.101369 0.492213 -0.527476
3.089678 0.489109 -0.531749
3.091380 0.472559 -0.531398
3.077249 0.331232 -0.471641
3.076874 0.351692 -0.471546
3.063744 0.347857 -0.475761
3.064061 0.327376 -0.475959
3.096380 0.331982 -0.531322
3.096006 0.352442 -0.531228
3.082875 0.348607 -0.535443
3.083192 0.328126 -0.535641
3.077030 0.351779 -0.471496
3.076671 0.372237 -0.471439
3.063596 0.368426 -0.475553
3.063899 0.347943 -0.475711
3.095850 0.352397 -0.531278
3.095492 0.372856 -0.531220
3.082416 0.369044 -0.535335
3.082719 0.348562 -0.535493
3.076843 0.372268 -0.471385
3.076491 0.392729 -0.471331
3.063464 0.388938 -0.475346
3.063767 0.368456 -0.475499
3.095319 0.372866 -0.531274
3.094967 0.393328 -0.531220
3.081940 0.389536 -0.535235
3.082244 0.369055 -0.535388
3.076659 0.392731 -0.471280
3.076302 0.413190 -0.471206
3.063328 0.409422 -0.475134
3.063632 0.388939 -0.475294
3.094799 0.393367 -0.531271
3.094441 0.413826 -0.531198
3.081467 0.410058 -0.535125
3.081772 0.389576 -0.535286
3.076371 0.413222 -0.471185
3.074941 0.432930 -0.471411
3.062149 0.429521 -0.475283
3.063396 0.409454 -0.475113
3.094371 0.413835 -0.531219
3.092942 0.433543 -0.531445
3.080149 0.430134 -0.535317
3.081397 0.410067 -0.535146
3.074887 0.432940 -0.471427
3.073108 0.452432 -0.471734
3.060557 0.449509 -0.475577
3.062094 0.429530 -0.475300
3.092994 0.433573 -0.531429
3.091215 0.453065 -0.531736
3.078663 0.450143 -0.535579
3.080201 0.430164 -0.535301
3.073016 0.452450 -0.471762
3.071244 0.471945 -0.472078
3.058925 0.469508 -0.475879
3.060464 0.449527 -0.475605
3.091304 0.453087 -0.531708
3.089533 0.472582 -0.532024
3.077214 0.470145 -0.535826
3.078752 0.450164 -0.535551
3.071123 0.472021 -0.472114
3.069421 0.488570 -0.472465
3.057366 0.485638 -0.476253
3.058804 0.469584 -0.475916
3.089651 0.472542 -0.531988
3.087948 0.489091 -0.532339
3.075894 0.486160 -0.536127
3.077332 0.470105 -0.535790
3.064407 0.327271 -0.475852
3.064090 0.347753 -0.475654
3.050876 0.343911 -0.479747
3.051155 0.323400 -0.480017
3.082820 0.328223 -0.535756
3.082503 0.348704 -0.535558
3.069289 0.344862 -0.539651
3.069568 0.324351 -0.539921
3.064205 0.347833 -0.475618
3.063901 0.368316 -0.475460
3.050717 0.364502 -0.479476
3.050991 0.343992 -0.479711
3.082387 0.348664 -0.535594
3.082084 0.369147 -0.535436
3.068899 0.365333 -0.539452
3.069173 0.344823 -0.539687
3.064048 0.368340 -0.475416
3.063745 0.388822 -0.475262
3.050591 0.385039 -0.479194
3.050864 0.364526 -0.479432
3.081937 0.369164 -0.535480
3.081633 0.389645 -0.535327
3.068479 0.385862 -0.539259
3.068752 0.365350 -0.539496
3.063889 0.388841 -0.475219
3.063584 0.409323 -0.475059
3.050462 0.405568 -0.478919
3.050734 0.385058 -0.479152
3.081489 0.389667 -0.535369
3.081185 0.410149 -0.535208
3.068062 0.406394 -0.539068
3.068335 0.385884 -0.539301
3.063572 0.409491 -0.475060
3.062325 0.429558 -0.475231
3.049411 0.426181 -0.479062
3.050450 0.405737 -0.478920
3.081195 0.410022 -0.535207
3.079947 0.430089 -0.535377
3.067034 0.426712 -0.539209
3.068072 0.406267 -0.539067
3.062215 0.429617 -0.475262
3.060678 0.449596 -0.475540
3.048028 0.446714 -0.479345
3.049302 0.426240 -0.479094
3.080054 0.430071 -0.535346
3.078516 0.450050 -0.535623
3.065867 0.447167 -0.539429
3.067140 0.426694 -0.539177
3.060549 0.449606 -0.475579
3.059010 0.469587 -0.475853
3.046628 0.467198 -0.479637
3.047899 0.446724 -0.479384
3.078643 0.450080 -0.535585
3.077104 0.470061 -0.535860
3.064721 0.467673 -0.539644
3.065993 0.447198 -0.539391
3.058818 0.469726 -0.475911
3.057379 0.485781 -0.476248
3.045308 0.481901 -0.480032
3.046435 0.467338 -0.479695
3.077294 0.469957 -0.535803
3.075856 0.486011 -0.536140
3.063785 0.482131 -0.539923
3.064911 0.467568 -0.539587
3.136177 0.360154 -0.429828
3.135340 0.378607 -0.429954
3.126877 0.374487 -0.437637
3.127947 0.355937 -0.437180
3.177727 0.361558 -0.476733
3.176889 0.380011 -0.476859
3.168427 0.375891 -0.484542
3.169497 0.357341 -0.484085
3.135135 0.378642 -0.430136
3.134306 0.397097 -0.430272
3.125675 0.393139 -0.438237
3.126672 0.374522 -0.437819
3.177092 0.380013 -0.476677
3.176264 0.398468 -0.476813
3.167632 0.394511 -0.484778
3.168630 0.375893 -0.484361
3.134077 0.397110 -0.430480
3.133239 0.415564 -0.430607
3.124523 0.411841 -0.438824
3.125446 0.393152 -0.438445
3.176491 0.398492 -0.476606
3.175653 0.416946 -0.476733
3.166937 0.413223 -0.484950
3.167860 0.394534 -0.484571
3.132990 0.415572 -0.430839
3.132154 0.434025 -0.430968
3.123410 0.430604 -0.439379
3.124273 0.411849 -0.439055
3.175901 0.416975 -0.476502
3.175065 0.435429 -0.476631
3.166321 0.432008 -0.485042
3.167184 0.413252 -0.484719
3.131935 0.434969 -0.431166
3.131555 0.453409 -0.431784
3.122603 0.450313 -0.440254
3.123191 0.431549 -0.439577
3.175283 0.434522 -0.476434
3.174903 0.452961 -0.477052
3.165951 0.449865 -0.485522
3.166539 0.431101 -0.484845
3.131817 0.453789 -0.431543
3.131625 0.472244 -0.432364
3.122395 0.469511 -0.440764
3.122865 0.450693 -0.440013
3.174640 0.452618 -0.477294
3.174449 0.471073 -0.478116
3.165218 0.468341 -0.486515
3.165688 0.449522 -0.485765
3.132106 0.472264 -0.431924
3.131914 0.490717 -0.432743
3.122451 0.488424 -0.440997
3.122876 0.469531 -0.440323
3.173967 0.471090 -0.478557
3.173775 0.489544 -0.479376
3.164313 0.487251 -0.487631
3.164737 0.468358 -0.486957
3.132473 0.490678 -0.432252
3.132263 0.509134 -0.433051
3.122603 0.507350 -0.441068
3.123010 0.488386 -0.440506
3.173216 0.489619 -0.479869
3.173006 0.508075 -0.480668
3.163346 0.506291 -0.488685
3.163753 0.487327 -0.488123
3.127903 0.356075 -0.437216
3.126833 0.374624 -0.437673
3.118745 0.370689 -0.445002
3.119677 0.351860 -0.444574
3.169525 0.357196 -0.484065
3.168454 0.375745 -0.484522
3.160367 0.371810 -0.491851
3.161299 0.352981 -0.491423
3.126622 0.374690 -0.437860
3.125624 0.393308 -0.438278
3.117721 0.389685 -0.445580
3.118534 0.370755 -0.445190
3.168663 0.375716 -0.484335
3.167666 0.394334 -0.484753
3.159763 0.390711 -0.492055
3.160576 0.371781 -0.491664
3.125392 0.393343 -0.438489
3.124470 0.412031 -0.438868
3.116771 0.408747 -0.446114
3.117489 0.389720 -0.445792
3.167896 0.394337 -0.484542
3.166973 0.413025 -0.484921
3.159274 0.409741 -0.492167
3.159993 0.390714 -0.491845
3.124218 0.412057 -0.439102
3.123355 0.430813 -0.439426
3.115900 0.427900 -0.446609
3.116519 0.408773 -0.446348
3.167223 0.413037 -0.484687
3.166360 0.431793 -0.485011
3.158906 0.428880 -0.492194
3.159525 0.409753 -0.491933
3.123391 0.431269 -0.439386
3.122802 0.450033 -0.440063
3.115161 0.447504 -0.447085
3.115936 0.428356 -0.446570
3.166323 0.431375 -0.485051
3.165735 0.450139 -0.485728
3.158094 0.447611 -0.492750
3.158868 0.428462 -0.492234
3.123438 0.450224 -0.439483
3.122968 0.469043 -0.440234
3.114808 0.466805 -0.447245
3.115797 0.447696 -0.446505
3.165098 0.449986 -0.486310
3.164628 0.468804 -0.487061
3.156468 0.466566 -0.494072
3.157457 0.447457 -0.493332
3.123764 0.469049 -0.439549
3.123340 0.487941 -0.440223
3.114396 0.485917 -0.447411
3.115603 0.466811 -0.446561
3.163831 0.468836 -0.487747
3.163407 0.487729 -0.488421
3.154463 0.485704 -0.495608
3.155670 0.466598 -0.494758
3.124100 0.487890 -0.439610
3.123693 0.506854 -0.440172
3.113716 0.504970 -0.447734
3.115157 0.485866 -0.446798
3.162644 0.487818 -0.489035
3.162237 0.506782 -0.489596
3.152260 0.504898 -0.497158
3.153701 0.485793 -0.496222
3.120844 0.351977 -0.443586
3.119912 0.370806 -0.444014
3.111453 0.367663 -0.450854
3.112111 0.348351 -0.450690
3.160116 0.352856 -0.492426
3.159184 0.371685 -0.492854
3.150725 0.368541 -0.499695
3.151383 0.349229 -0.499530
3.119995 0.370881 -0.443945
3.119183 0.389811 -0.444336
3.110816 0.387043 -0.451021
3.111537 0.367737 -0.450786
3.159098 0.371648 -0.492923
3.158285 0.390578 -0.493314
3.149919 0.387810 -0.499998
3.150640 0.368505 -0.499764
3.119297 0.389858 -0.444245
3.118578 0.408886 -0.444567
3.110148 0.406394 -0.451240
3.110930 0.387090 -0.450929
3.158170 0.390569 -0.493406
3.157451 0.409596 -0.493728
3.149022 0.407105 -0.500401
3.149803 0.387801 -0.500090
3.118707 0.408915 -0.444465
3.118088 0.428042 -0.444726
3.109416 0.425722 -0.451497
3.110277 0.406423 -0.451138
3.157320 0.409605 -0.493831
3.156701 0.428733 -0.494091
3.148029 0.426413 -0.500863
3.148891 0.407114 -0.500503
3.118272 0.428206 -0.444581
3.117498 0.447354 -0.445096
3.108392 0.445123 -0.452053
3.109600 0.425886 -0.451352
3.156515 0.428607 -0.494237
3.155741 0.447755 -0.494753
3.146635 0.445524 -0.501709
3.147843 0.426287 -0.501009
3.117824 0.447417 -0.444848
3.116835 0.466527 -0.445589
3.107263 0.464382 -0.452657
3.108719 0.445186 -0.451805
3.155412 0.447731 -0.495003
3.154423 0.466840 -0.495743
3.144851 0.464695 -0.502811
3.146307 0.445499 -0.501959
3.117189 0.466546 -0.445327
3.115982 0.485651 -0.446177
3.106037 0.483597 -0.453337
3.107617 0.464401 -0.452395
3.154067 0.466860 -0.496006
3.152859 0.485965 -0.496856
3.142914 0.483911 -0.504016
3.144495 0.464715 -0.503075
3.116287 0.485597 -0.445958
3.114846 0.504701 -0.446894
3.104597 0.502734 -0.454096
3.106342 0.483543 -0.453118
3.152551 0.486058 -0.497077
3.151110 0.505163 -0.498013
3.140861 0.503196 -0.505215
3.142606 0.484004 -0.504237
3.112941 0.348415 -0.450045
3.112283 0.367727 -0.450209
3.102888 0.364762 -0.457339
3.103815 0.345343 -0.456890
3.150536 0.349159 -0.500189
3.149878 0.368471 -0.500354
3.140483 0.365506 -0.507484
3.141410 0.346087 -0.507034
3.112126 0.367774 -0.450327
3.111405 0.387079 -0.450561
3.101817 0.384229 -0.457929
3.102731 0.364809 -0.457457
3.150033 0.368462 -0.500237
3.149312 0.387768 -0.500472
3.139724 0.384918 -0.507839
3.140638 0.365498 -0.507367
3.111277 0.387108 -0.450658
3.110495 0.406412 -0.450969
3.100775 0.403677 -0.458497
3.101690 0.384258 -0.458026
3.149438 0.387778 -0.500375
3.148656 0.407081 -0.500685
3.138936 0.404346 -0.508213
3.139850 0.384928 -0.507743
3.110383 0.406424 -0.451056
3.109521 0.425722 -0.451415
3.099751 0.423109 -0.459062
3.100662 0.403688 -0.458584
3.148767 0.407109 -0.500599
3.147906 0.426407 -0.500959
3.138136 0.423794 -0.508606
3.139047 0.404373 -0.508127
3.109628 0.425662 -0.451334
3.108420 0.444899 -0.452034
3.098409 0.442450 -0.459663
3.099858 0.423048 -0.458980
3.147796 0.426506 -0.501042
3.146589 0.445744 -0.501743
3.136577 0.443294 -0.509371
3.138027 0.423893 -0.508688
3.108755 0.444891 -0.451781
3.107300 0.464087 -0.452633
3.097110 0.461805 -0.460173
3.098743 0.442442 -0.459410
3.146251 0.445790 -0.501997
3.144796 0.464986 -0.502849
3.134607 0.462704 -0.510389
3.136239 0.443341 -0.509626
3.107634 0.464146 -0.452386
3.106053 0.483342 -0.453327
3.095814 0.481226 -0.460693
3.097445 0.461864 -0.459926
3.144458 0.464966 -0.503098
3.142877 0.484162 -0.504040
3.132638 0.482047 -0.511405
3.134269 0.462684 -0.510638
3.106353 0.483327 -0.453113
3.104608 0.502518 -0.454091
3.094472 0.500574 -0.461228
3.096113 0.481211 -0.460478
3.142575 0.484216 -0.504256
3.140830 0.503407 -0.505235
3.130693 0.501463 -0.512371
3.132335 0.482100 -0.511621
3.175060 0.378707 -0.395715
3.175037 0.394698 -0.395408
3.162031 0.389205 -0.406820
3.162162 0.372617 -0.407046
3.216163 0.379676 -0.443023
3.216140 0.395667 -0.442716
3.203134 0.390174 -0.454128
3.203265 0.373586 -0.454354
3.175029 0.394709 -0.395415
3.174997 0.410700 -0.395101
3.161894 0.405810 -0.406605
3.162023 0.389216 -0.406827
3.216148 0.395689 -0.442709
3.216116 0.411681 -0.442395
3.203013 0.406790 -0.453899
3.203142 0.390196 -0.454121
3.174985 0.410704 -0.395112
3.174951 0.426696 -0.394796
3.161744 0.422412 -0.406387
3.161881 0.405814 -0.406616
3.216128 0.411710 -0.442384
3.216095 0.427702 -0.442067
3.202888 0.423418 -0.453658
3.203025 0.406819 -0.453888
3.174938 0.426704 -0.394807
3.174900 0.442696 -0.394484
3.161593 0.439023 -0.406169
3.161731 0.422419 -0.406398
3.216108 0.427727 -0.442055
3.216070 0.443719 -0.441733
3.202763 0.440046 -0.453417
3.202901 0.423443 -0.453647
3.174784 0.443311 -0.394580
3.174496 0.459281 -0.394883
3.161077 0.456676 -0.406689
3.161477 0.439638 -0.406265
3.216186 0.443137 -0.441637
3.215898 0.459107 -0.441939
3.202479 0.456502 -0.453745
3.202879 0.439464 -0.453321
3.174460 0.459609 -0.394917
3.174028 0.475583 -0.395577
3.160504 0.474310 -0.407485
3.161042 0.457004 -0.406724
3.215933 0.458813 -0.441905
3.215500 0.474787 -0.442565
3.201976 0.473514 -0.454472
3.202514 0.456208 -0.453712
3.174040 0.475586 -0.395567
3.173600 0.491563 -0.396220
3.159975 0.491628 -0.408229
3.160516 0.474313 -0.407474
3.215487 0.474818 -0.442577
3.215047 0.490794 -0.443231
3.201422 0.490859 -0.455240
3.201963 0.473544 -0.454484
3.173611 0.491538 -0.396211
3.173160 0.507511 -0.396848
3.159426 0.508929 -0.408958
3.159986 0.491603 -0.408220
3.215036 0.490852 -0.443242
3.214585 0.506825 -0.443879
3.200851 0.508243 -0.455989
3.201411 0.490917 -0.455251
3.162219 0.372565 -0.406998
3.162088 0.389153 -0.406772
3.148855 0.383854 -0.418288
3.149255 0.366413 -0.418364
3.203182 0.373626 -0.454425
3.203051 0.390214 -0.454199
3.189818 0.384916 -0.465715
3.190219 0.367474 -0.465791
3.162167 0.389161 -0.406704
3.162038 0.405756 -0.406482
3.148522 0.401308 -0.418134
3.148934 0.383863 -0.418220
3.202971 0.390240 -0.454267
3.202842 0.406835 -0.454045
3.189327 0.402387 -0.465697
3.189738 0.384942 -0.465783
3.162115 0.405770 -0.406416
3.161978 0.422368 -0.406187
3.148190 0.418774 -0.417988
3.148599 0.401323 -0.418067
3.202764 0.406855 -0.454111
3.202628 0.423453 -0.453882
3.188840 0.419858 -0.465683
3.189249 0.402407 -0.465763
3.162043 0.422381 -0.406131
3.161905 0.438984 -0.405901
3.147841 0.436240 -0.417851
3.148255 0.418787 -0.417932
3.202562 0.423474 -0.453937
3.202424 0.440077 -0.453708
3.188360 0.437333 -0.465658
3.188774 0.419879 -0.465739
3.161815 0.439719 -0.405972
3.161415 0.456757 -0.406397
3.147333 0.454830 -0.418446
3.147751 0.436975 -0.417922
3.202513 0.439377 -0.453637
3.202114 0.456415 -0.454062
3.188031 0.454487 -0.466111
3.188449 0.436633 -0.465587
3.161299 0.457089 -0.406501
3.160762 0.474395 -0.407261
3.146791 0.473234 -0.419344
3.147217 0.455161 -0.418550
3.202229 0.456119 -0.453959
3.201691 0.473425 -0.454719
3.187720 0.472264 -0.466802
3.188147 0.454191 -0.466008
3.160649 0.474397 -0.407359
3.160108 0.491712 -0.408114
3.146249 0.491312 -0.420234
3.146678 0.473236 -0.419442
3.201803 0.473459 -0.454623
3.201262 0.490773 -0.455378
3.187403 0.490373 -0.467498
3.187832 0.472297 -0.466705
3.159985 0.491686 -0.408221
3.159425 0.509012 -0.408960
3.145688 0.509361 -0.421120
3.146126 0.491285 -0.420340
3.201384 0.490835 -0.455273
3.200824 0.508161 -0.456012
3.187087 0.508510 -0.468172
3.187525 0.490435 -0.467393
3.149334 0.366268 -0.418301
3.148933 0.383709 -0.418224
3.135735 0.378644 -0.429608
3.136572 0.360191 -0.429482
3.190114 0.367608 -0.465878
3.189714 0.385050 -0.465802
3.176515 0.379984 -0.477185
3.177353 0.361531 -0.477059
3.149060 0.383731 -0.418115
3.148649 0.401176 -0.418029
3.135033 0.397120 -0.429635
3.135862 0.378665 -0.429499
3.189585 0.385065 -0.465911
3.189174 0.402510 -0.465824
3.175558 0.398454 -0.477430
3.176387 0.379999 -0.477294
3.148765 0.401193 -0.417931
3.148355 0.418644 -0.417851
3.134312 0.415590 -0.429664
3.135149 0.397137 -0.429537
3.189056 0.402529 -0.465923
3.188647 0.419980 -0.465843
3.174603 0.416927 -0.477656
3.175441 0.398473 -0.477529
3.148473 0.418666 -0.417752
3.148059 0.436119 -0.417671
3.133594 0.434066 -0.429694
3.134430 0.415612 -0.429565
3.188527 0.419995 -0.465943
3.188113 0.437448 -0.465862
3.173648 0.435395 -0.477885
3.174484 0.416941 -0.477756
3.147971 0.437115 -0.417737
3.147553 0.454970 -0.418261
3.133125 0.453501 -0.430378
3.133506 0.435062 -0.429761
3.188201 0.436489 -0.465796
3.187783 0.454343 -0.466319
3.173355 0.452874 -0.478437
3.173735 0.434435 -0.477819
3.147371 0.455387 -0.418424
3.146945 0.473460 -0.419218
3.132752 0.472373 -0.431362
3.132943 0.453918 -0.430541
3.187964 0.453962 -0.466158
3.187538 0.472035 -0.466952
3.173345 0.470948 -0.479097
3.173537 0.452493 -0.478276
3.146734 0.473462 -0.419398
3.146305 0.491537 -0.420191
3.132349 0.490828 -0.432362
3.132541 0.472375 -0.431543
3.187748 0.472070 -0.466773
3.187319 0.490146 -0.467565
3.173363 0.489436 -0.479737
3.173556 0.470983 -0.478918
3.146098 0.491508 -0.420370
3.145661 0.509584 -0.421149
3.131933 0.509254 -0.433341
3.132143 0.490798 -0.432542
3.187525 0.490212 -0.467387
3.187087 0.508287 -0.468167
3.173359 0.507958 -0.480358
3.173569 0.489502 -0.479559
3.197845 0.350198 -0.405038
3.190889 0.355350 -0.399575
3.177991 0.349260 -0.410906
3.183700 0.343526 -0.415526
3.207297 0.397858 -0.444631
3.200341 0.403011 -0.439168
3.187443 0.396921 -0.450499
3.193152 0.391186 -0.455119
3.181335 0.345153 -0.414373
3.175626 0.350888 -0.409754
3.162662 0.344736 -0.421120
3.167963 0.338308 -0.425662
3.195490 0.389546 -0.456294
3.189781 0.395280 -0.451674
3.176818 0.389128 -0.463041
3.182119 0.382701 -0.467583
3.166895 0.338680 -0.425660
3.161594 0.345107 -0.421118
3.148833 0.339030 -0.432299
3.154435 0.331642 -0.437901
3.183161 0.382317 -0.467608
3.177860 0.388744 -0.463066
3.165098 0.382667 -0.474247
3.170700 0.375280 -0.479849
3.212112 0.354804 -0.396214
3.206176 0.361257 -0.388322
3.192174 0.354103 -0.400895
3.199130 0.348950 -0.406358
3.219020 0.404972 -0.433145
3.213084 0.411425 -0.425254
3.199082 0.404271 -0.437826
3.206038 0.399118 -0.443289
3.006087 0.280004 -0.561358
3.003099 0.278963 -0.532037
2.995511 0.279871 -0.537220
2.995698 0.279309 -0.549678
3.007116 0.342668 -0.560563
3.004128 0.341627 -0.531242
2.996540 0.342535 -0.536424
2.996728 0.341972 -0.548883
3.006593 0.280042 -0.562640
2.996204 0.279346 -0.550960
2.985440 0.279380 -0.550217
2.986296 0.279899 -0.561302
3.006596 0.342630 -0.559301
2.996208 0.341935 -0.547621
2.985443 0.341968 -0.546878
2.986299 0.342487 -0.557963
2.986093 0.279868 -0.560532
2.985238 0.279349 -0.549446
2.974453 0.279600 -0.548795
2.965786 0.279746 -0.559184
2.986470 0.342518 -0.558732
2.985614 0.341999 -0.547647
2.974829 0.342251 -0.546995
2.966162 0.342396 -0.557384
2.966793 0.279866 -0.561057
2.975461 0.279721 -0.550668
2.964835 0.278831 -0.549995
2.946499 0.279750 -0.559712
2.965123 0.342275 -0.555510
2.973790 0.342130 -0.545121
2.963164 0.341240 -0.544448
2.944828 0.342159 -0.554165
3.062211 0.282854 -0.557064
3.062598 0.281327 -0.545015
3.043948 0.280476 -0.547188
3.044343 0.281997 -0.559649
3.058302 0.344931 -0.549344
3.058689 0.343404 -0.537296
3.040038 0.342553 -0.539468
3.040434 0.344074 -0.551929
3.062092 0.281075 -0.542144
3.061873 0.280622 -0.530072
3.042991 0.279857 -0.531713
3.043442 0.280224 -0.544317
3.059194 0.343653 -0.540142
3.058975 0.343200 -0.528070
3.040094 0.342435 -0.529711
3.040544 0.342802 -0.542314
3.061432 0.280691 -0.526535
3.060931 0.281622 -0.514539
3.042048 0.280879 -0.516464
3.042551 0.279926 -0.528176
3.059415 0.343132 -0.531583
3.058915 0.344063 -0.519587
3.040031 0.343320 -0.521511
3.040534 0.342367 -0.533224
3.043705 0.281862 -0.558726
3.043310 0.280341 -0.546265
3.024500 0.279483 -0.542196
3.025838 0.281010 -0.561313
3.041035 0.344207 -0.552854
3.040639 0.342686 -0.540393
3.021829 0.341827 -0.536324
3.023167 0.343354 -0.555441
3.042060 0.279861 -0.528945
3.041557 0.280814 -0.517233
3.022676 0.280078 -0.519163
3.023700 0.279370 -0.537480
3.040987 0.342430 -0.532461
3.040484 0.343383 -0.520749
3.021603 0.342647 -0.522680
3.022627 0.341939 -0.540997
3.025278 0.280893 -0.559963
3.023940 0.279366 -0.540847
3.004422 0.279007 -0.533230
3.007410 0.280048 -0.562551
3.023689 0.343470 -0.556787
3.022351 0.341943 -0.537671
3.002833 0.341583 -0.530054
3.005821 0.342624 -0.559376
3.024221 0.279359 -0.537979
3.023197 0.280067 -0.519662
3.004315 0.279334 -0.521591
3.004703 0.279000 -0.530363
3.022068 0.341949 -0.540501
3.021043 0.342657 -0.522183
3.002162 0.341924 -0.524113
3.002549 0.341590 -0.532884
3.154810 0.330865 -0.438593
3.149208 0.338252 -0.432992
3.140978 0.334035 -0.440345
3.146570 0.326316 -0.447288
3.170304 0.376047 -0.479176
3.164703 0.383434 -0.473574
3.156473 0.379217 -0.480927
3.162064 0.371499 -0.487870
3.147746 0.325348 -0.447986
3.142155 0.333067 -0.441042
3.133929 0.328852 -0.448401
3.139502 0.320797 -0.456675
3.160871 0.372458 -0.487188
3.155279 0.380177 -0.480245
3.147054 0.375962 -0.487604
3.152626 0.367907 -0.495878
3.140383 0.320777 -0.456426
3.134811 0.328832 -0.448152
3.126078 0.325205 -0.455256
3.131488 0.316027 -0.464300
3.151728 0.367919 -0.496142
3.146155 0.375974 -0.487868
3.137423 0.372347 -0.494972
3.142833 0.363169 -0.504016
3.131174 0.317615 -0.462640
3.125763 0.326794 -0.453596
3.116638 0.323722 -0.460441
3.121427 0.312608 -0.469285
3.143129 0.361572 -0.505690
3.137719 0.370750 -0.496647
3.128593 0.367679 -0.503492
3.133382 0.356564 -0.512335
3.202325 0.337248 -0.514252
3.194340 0.334174 -0.498696
3.185580 0.327895 -0.502987
3.192004 0.331882 -0.520796
3.170631 0.391275 -0.516504
3.162646 0.388200 -0.500948
3.153886 0.381921 -0.505239
3.160310 0.385909 -0.523049
3.191469 0.331570 -0.522923
3.185045 0.327583 -0.505113
3.176068 0.322493 -0.510839
3.181882 0.326701 -0.529604
3.160827 0.386210 -0.520934
3.154402 0.382222 -0.503124
3.145425 0.377133 -0.508850
3.151240 0.381340 -0.527614
3.177885 0.325029 -0.532272
3.172071 0.320821 -0.513508
3.161440 0.316916 -0.518939
3.165667 0.321184 -0.536226
3.155216 0.383003 -0.524956
3.149402 0.378796 -0.506192
3.138771 0.374890 -0.511623
3.142998 0.379158 -0.528910
3.168711 0.322558 -0.536151
3.164485 0.318290 -0.518864
3.152659 0.312727 -0.524859
3.157133 0.317207 -0.540073
3.139930 0.377775 -0.528994
3.135703 0.373507 -0.511707
3.123877 0.367944 -0.517702
3.128351 0.372423 -0.532915
3.193968 0.334016 -0.497724
3.185533 0.329910 -0.476037
3.177016 0.325435 -0.483608
3.185208 0.327737 -0.502015
3.163002 0.388351 -0.501883
3.154566 0.384245 -0.480195
3.146050 0.379770 -0.487767
3.154242 0.382072 -0.506174
3.182987 0.326651 -0.501269
3.174795 0.324349 -0.482862
3.166231 0.319881 -0.490272
3.174011 0.321561 -0.506995
3.156445 0.383148 -0.506932
3.148253 0.380846 -0.488525
3.139689 0.376378 -0.495935
3.147468 0.378058 -0.512658
3.172431 0.320767 -0.508422
3.164652 0.319087 -0.491699
3.155304 0.314362 -0.498211
3.161801 0.316862 -0.513853
3.149029 0.378843 -0.511244
3.141250 0.377163 -0.494520
3.131902 0.372438 -0.501033
3.138399 0.374938 -0.516674
3.163351 0.317511 -0.514518
3.156854 0.315011 -0.498876
3.145872 0.309589 -0.505276
3.151525 0.311948 -0.520513
3.136827 0.374279 -0.516021
3.130330 0.371779 -0.500379
3.119348 0.366357 -0.506779
3.125001 0.368716 -0.522016
3.184659 0.329355 -0.477779
3.177181 0.325735 -0.458579
3.168941 0.321187 -0.467273
3.176143 0.324880 -0.485350
3.155424 0.384793 -0.478415
3.147946 0.381173 -0.459215
3.139706 0.376624 -0.467909
3.146908 0.380318 -0.485986
3.176296 0.324960 -0.485627
3.169095 0.321266 -0.467550
3.160850 0.316716 -0.476240
3.167732 0.320492 -0.493036
3.146737 0.380229 -0.485726
3.139535 0.376536 -0.467649
3.131291 0.371985 -0.476338
3.138173 0.375762 -0.493135
3.167655 0.320454 -0.493523
3.160772 0.316677 -0.476726
3.151877 0.311927 -0.484600
3.158306 0.315729 -0.500035
3.138234 0.375790 -0.492663
3.131351 0.372014 -0.475867
3.122456 0.367263 -0.483741
3.128885 0.371065 -0.499176
3.158154 0.315662 -0.500592
3.151725 0.311861 -0.485157
3.141978 0.306853 -0.491802
3.147172 0.310241 -0.506992
3.129018 0.371121 -0.498633
3.122589 0.367320 -0.483197
3.112842 0.362313 -0.489842
3.118037 0.365700 -0.505033
3.123630 0.315062 -0.466589
3.118841 0.326177 -0.457746
3.107552 0.320510 -0.464699
3.110529 0.309712 -0.472303
3.131158 0.354101 -0.515043
3.126369 0.365215 -0.506200
3.115079 0.359548 -0.513152
3.118057 0.348750 -0.520756
3.108493 0.310633 -0.471982
3.105515 0.321430 -0.464378
3.093622 0.316700 -0.470893
3.095856 0.305484 -0.478730
3.120069 0.347819 -0.521090
3.117091 0.358617 -0.513486
3.105198 0.353887 -0.520001
3.107432 0.342671 -0.527838
3.095237 0.305597 -0.478799
3.093003 0.316812 -0.470962
3.080434 0.313118 -0.476989
3.082661 0.300717 -0.485804
3.108026 0.342549 -0.527782
3.105792 0.353765 -0.519945
3.093223 0.350071 -0.525973
3.095450 0.337670 -0.534787
3.086521 0.301203 -0.484762
3.084294 0.313604 -0.475948
3.071106 0.309747 -0.480266
3.071975 0.298031 -0.488132
3.091563 0.337177 -0.535839
3.089337 0.349578 -0.527024
3.076149 0.345722 -0.531343
3.077018 0.334005 -0.539209
3.071764 0.298823 -0.487613
3.070895 0.310540 -0.479747
3.057643 0.306668 -0.483911
3.057221 0.295659 -0.490990
3.077201 0.333206 -0.539735
3.076332 0.344922 -0.531869
3.063080 0.341051 -0.536034
3.062658 0.330042 -0.543112
3.157390 0.317349 -0.540118
3.152916 0.312869 -0.524904
3.137980 0.305808 -0.531184
3.141667 0.309325 -0.543592
3.128067 0.372269 -0.532881
3.123593 0.367789 -0.517667
3.108657 0.360728 -0.523947
3.112343 0.364245 -0.536355
3.140904 0.308966 -0.543852
3.137218 0.305449 -0.531444
3.122630 0.298757 -0.536201
3.124928 0.301535 -0.547485
3.113075 0.364589 -0.536104
3.109389 0.361072 -0.523696
3.094801 0.354381 -0.528452
3.097099 0.357158 -0.539736
3.123248 0.300888 -0.548364
3.120950 0.298111 -0.537080
3.106111 0.292222 -0.540652
3.106853 0.294529 -0.551981
3.098747 0.357791 -0.538865
3.096450 0.355014 -0.527581
3.081610 0.349125 -0.531154
3.082353 0.351432 -0.542483
3.103168 0.293288 -0.552444
3.102426 0.290981 -0.541115
3.085829 0.286739 -0.543690
3.086021 0.288750 -0.555426
3.086005 0.352662 -0.542027
3.085262 0.350356 -0.530698
3.068666 0.346114 -0.533272
3.068858 0.348125 -0.545008
3.085789 0.288571 -0.554731
3.085596 0.286560 -0.542995
3.069027 0.282505 -0.545664
3.068640 0.284033 -0.557712
3.069057 0.348296 -0.545709
3.068864 0.346285 -0.533973
3.052295 0.342230 -0.536642
3.051908 0.343758 -0.548690
3.150967 0.311694 -0.520501
