3.590040 0.219130 -0.766502
3.520694 0.277418 -0.769715
3.568502 0.306076 -0.770113
3.611549 0.269767 -0.768114
3.590457 0.218032 -0.795428
3.521111 0.276320 -0.798641
3.568919 0.304978 -0.799040
3.611966 0.268669 -0.797040
3.498895 0.365328 -0.773367
3.555048 0.360755 -0.772383
3.499312 0.364230 -0.802293
3.555465 0.359657 -0.801309
3.532970 0.449282 -0.776062
3.576327 0.412910 -0.774056
3.533387 0.448184 -0.804988
3.576745 0.411812 -0.802982
3.609904 0.497213 -0.776772
3.624212 0.442623 -0.774493
3.610321 0.496115 -0.805698
3.624629 0.441525 -0.803419
3.700310 0.490812 -0.775224
3.680407 0.438542 -0.773527
3.700728 0.489714 -0.804151
3.680824 0.437444 -0.802454
3.769657 0.432525 -0.772011
3.723455 0.402229 -0.771528
3.770075 0.431427 -0.800937
3.723872 0.401131 -0.800454
3.791456 0.344615 -0.768360
3.736907 0.347549 -0.769258
3.791874 0.343517 -0.797286
3.737325 0.346451 -0.798184
3.757381 0.260660 -0.765664
3.715629 0.295395 -0.767585
3.757798 0.259562 -0.794591
3.716046 0.294297 -0.796511
3.680447 0.212730 -0.764955
3.667747 0.265686 -0.767148
3.680864 0.211632 -0.793881
3.668164 0.264587 -0.796074
3.635669 0.323283 -0.769798
3.666995 0.327127 -0.769492
3.665098 0.300779 -0.768519
3.638537 0.297011 -0.768759
3.636086 0.322185 -0.798724
3.667412 0.326030 -0.798418
3.665515 0.299681 -0.797445
3.638955 0.295913 -0.797685
3.699132 0.329036 -0.769100
3.695154 0.312006 -0.768511
3.699549 0.327938 -0.798027
3.695571 0.310907 -0.797437
3.679334 0.356163 -0.770416
3.679751 0.355065 -0.799342
3.692030 0.389268 -0.771489
3.692447 0.388170 -0.800415
3.660355 0.381351 -0.771646
3.679250 0.402721 -0.772184
3.660772 0.380253 -0.800572
3.679667 0.401623 -0.801110
3.616683 0.348467 -0.771028
3.617101 0.347369 -0.799954
3.629030 0.377500 -0.771951
3.629447 0.376402 -0.800878
3.648008 0.352315 -0.770722
3.644692 0.379426 -0.771799
3.648426 0.351217 -0.799648
3.645109 0.378328 -0.800725
3.651332 0.325205 -0.769645
3.651749 0.324107 -0.798571
3.625116 0.440245 -0.837141
3.661258 0.378973 -0.834294
3.629934 0.375122 -0.834600
3.577231 0.410532 -0.836704
3.681310 0.436164 -0.836176
3.680154 0.400343 -0.834833
3.724359 0.399851 -0.834176
3.692933 0.386890 -0.834138
3.680238 0.353785 -0.833064
3.737811 0.345171 -0.831907
3.700035 0.326658 -0.831749
3.667898 0.324749 -0.832140
3.696058 0.309627 -0.831160
3.666002 0.298401 -0.831167
3.716533 0.293017 -0.830234
3.668651 0.263307 -0.829797
3.612453 0.267389 -0.830763
3.639441 0.294633 -0.831407
3.569405 0.303698 -0.832762
3.636573 0.320905 -0.832446
3.555951 0.358377 -0.835031
3.617587 0.346089 -0.833676
3.645596 0.377047 -0.834447
3.648912 0.349937 -0.833370
3.652236 0.322827 -0.832293
3.630870 0.372656 -0.899546
3.646533 0.374582 -0.899394
3.649850 0.347471 -0.898317
3.618524 0.343624 -0.898622
3.653173 0.320362 -0.897239
3.637510 0.318439 -0.897392
3.681175 0.351320 -0.898011
3.668836 0.322284 -0.897086
3.662196 0.376508 -0.899241
