1.210794 0.702027 -0.636687
1.217243 0.690281 -0.631496
1.217813 0.690370 -0.644823
1.211292 0.702170 -0.650417
1.137477 0.660153 -0.639940
1.143926 0.648406 -0.634749
1.144496 0.648495 -0.648076
1.137975 0.660295 -0.653670
1.211241 0.702261 -0.650448
1.217762 0.690462 -0.644854
1.218314 0.690542 -0.658183
1.211746 0.702414 -0.664178
1.138027 0.660204 -0.653666
1.144548 0.648404 -0.648073
1.145100 0.648484 -0.661401
1.138532 0.660356 -0.667397
1.182511 0.722499 -0.637631
1.183009 0.722641 -0.651361
1.175267 0.724236 -0.653918
1.175285 0.724106 -0.645391
1.165747 0.639695 -0.639007
1.166245 0.639837 -0.652737
1.158503 0.641432 -0.655294
1.158521 0.641302 -0.646767
1.182874 0.722668 -0.651321
1.183379 0.722820 -0.665052
1.175117 0.724410 -0.662404
1.175132 0.724263 -0.653879
1.166380 0.639811 -0.652799
1.166885 0.639963 -0.666529
1.158623 0.641553 -0.663881
1.158638 0.641406 -0.655356
1.175378 0.724092 -0.645800
1.175360 0.724222 -0.654327
1.167607 0.725761 -0.656884
1.168155 0.725694 -0.653563
1.158413 0.641319 -0.646369
1.158395 0.641449 -0.654895
1.150641 0.642988 -0.657452
1.151189 0.642921 -0.654131
1.174979 0.724291 -0.653779
1.174964 0.724438 -0.662304
1.166704 0.726027 -0.659657
1.167226 0.725830 -0.656336
1.158775 0.641381 -0.655455
1.158760 0.641528 -0.663980
1.150500 0.643117 -0.661333
1.151022 0.642919 -0.658012
1.139493 0.727364 -0.659258
1.144264 0.727497 -0.662130
1.139915 0.727658 -0.666917
1.131027 0.727481 -0.662172
1.139609 0.642931 -0.662489
1.144380 0.643064 -0.665360
1.140031 0.643225 -0.670148
1.131144 0.643047 -0.665403
1.145436 0.727492 -0.662400
1.150212 0.727343 -0.664981
1.149966 0.727654 -0.671180
1.141086 0.727653 -0.667188
1.143222 0.643069 -0.665097
1.147999 0.642920 -0.667677
1.147753 0.643231 -0.673876
1.138873 0.643230 -0.669884
1.153330 0.727167 -0.666629
1.158091 0.727040 -0.663729
1.162081 0.726278 -0.668134
1.153085 0.727477 -0.672828
1.144894 0.643096 -0.666028
1.149655 0.642969 -0.663128
1.153645 0.642207 -0.667533
1.144648 0.643406 -0.672227
1.160420 0.726665 -0.665954
1.165139 0.726234 -0.663029
1.173399 0.724645 -0.665676
1.164411 0.725903 -0.670359
1.147339 0.643342 -0.660895
1.152058 0.642911 -0.657970
1.160318 0.641322 -0.660618
1.151330 0.642580 -0.665301
1.131086 0.727479 -0.662131
1.139973 0.727657 -0.666876
1.135759 0.727856 -0.671740
1.122629 0.727587 -0.665042
1.131073 0.643049 -0.665452
1.139960 0.643226 -0.670197
1.135746 0.643426 -0.675060
1.122616 0.643157 -0.668363
1.140534 0.727666 -0.667261
1.149414 0.727667 -0.671252
1.149443 0.727854 -0.677321
1.136320 0.727866 -0.672124
1.139421 0.643217 -0.669823
1.148301 0.643218 -0.673814
1.148330 0.643405 -0.679883
1.135207 0.643417 -0.674686
1.154717 0.727279 -0.672016
1.163714 0.726080 -0.667323
1.167862 0.725438 -0.671682
1.154746 0.727466 -0.678085
1.143020 0.643604 -0.673049
1.152017 0.642404 -0.668356
1.156166 0.641762 -0.672715
1.143049 0.643791 -0.679118
1.164860 0.725897 -0.668732
1.173848 0.724639 -0.664049
1.182110 0.723050 -0.666697
1.169008 0.725255 -0.673092
1.150893 0.642584 -0.666935
1.159881 0.641325 -0.662252
1.168143 0.639736 -0.664900
1.155042 0.641941 -0.671295
1.089544 0.676089 -0.597023
1.088652 0.660018 -0.596077
1.095393 0.661211 -0.590520
1.096848 0.677911 -0.590601
1.144976 0.670128 -0.660515
1.144083 0.654057 -0.659569
1.150825 0.655250 -0.654012
1.152279 0.671949 -0.654093
1.089954 0.659956 -0.594980
1.089048 0.643883 -0.594030
1.095242 0.644452 -0.589341
1.096695 0.661149 -0.589423
1.142779 0.654086 -0.660665
1.141873 0.638012 -0.659715
1.148067 0.638582 -0.655026
1.149520 0.655279 -0.655108
1.090759 0.643779 -0.592716
1.089864 0.627706 -0.591766
1.095495 0.627652 -0.587946
1.096953 0.644349 -0.588027
1.140160 0.638083 -0.661028
1.139265 0.622009 -0.660078
1.144896 0.621956 -0.656258
1.146354 0.638652 -0.656339
1.092149 0.627596 -0.590216
1.091246 0.611523 -0.589262
1.096325 0.610844 -0.586302
1.097780 0.627542 -0.586396
1.136977 0.622087 -0.661627
1.136074 0.606014 -0.660673
1.141153 0.605335 -0.657713
1.142609 0.622033 -0.657807
1.204414 0.670413 -0.596766
1.204588 0.654692 -0.596556
1.211327 0.653357 -0.604422
1.212031 0.669414 -0.604897
1.141519 0.670247 -0.653189
1.141692 0.654526 -0.652980
1.148432 0.653191 -0.660845
1.149136 0.669248 -0.661321
1.205879 0.654627 -0.598066
1.206053 0.638906 -0.597863
1.211919 0.637230 -0.605450
1.212619 0.653292 -0.605931
1.140400 0.654560 -0.651470
1.140574 0.638839 -0.651267
1.146440 0.637163 -0.658853
1.147140 0.653224 -0.659335
1.207455 0.638815 -0.599680
1.207622 0.623090 -0.599473
1.212618 0.621081 -0.606794
1.213321 0.637139 -0.607267
1.139172 0.638899 -0.649449
1.139340 0.623175 -0.649242
1.144335 0.621166 -0.656563
1.145038 0.637223 -0.657036
1.209131 0.622994 -0.601688
1.209302 0.607273 -0.601495
1.213424 0.604925 -0.608537
1.214127 0.620984 -0.609009
1.137830 0.623240 -0.647026
1.138000 0.607519 -0.646833
1.142122 0.605171 -0.653874
1.142826 0.621230 -0.654347
1.123428 0.670657 -0.580329
1.126322 0.654515 -0.581693
1.140434 0.654947 -0.581463
1.139649 0.669491 -0.579805
1.125725 0.679205 -0.664360
1.128619 0.663063 -0.665723
1.142731 0.663495 -0.665493
1.141946 0.678039 -0.663835
1.127592 0.654657 -0.581663
1.130487 0.638516 -0.583024
1.142478 0.640551 -0.583086
1.141704 0.655089 -0.581433
1.127353 0.662890 -0.665756
1.130248 0.646749 -0.667117
1.142239 0.648785 -0.667179
1.141465 0.663322 -0.665526
1.132218 0.638718 -0.583045
1.135113 0.622575 -0.584394
1.144973 0.626226 -0.584765
1.144210 0.640753 -0.583108
1.128520 0.646516 -0.667098
1.131415 0.630374 -0.668447
1.141275 0.634025 -0.668818
1.140512 0.648552 -0.667161
1.142897 0.669156 -0.579876
1.143683 0.654612 -0.581534
1.157651 0.653266 -0.582355
1.159003 0.667595 -0.580869
1.138728 0.678371 -0.663764
1.139514 0.663827 -0.665422
1.153482 0.662482 -0.666243
1.154834 0.676810 -0.664757
1.143543 0.654613 -0.581527
1.144317 0.640076 -0.583181
1.156149 0.638935 -0.583828
1.157511 0.653267 -0.582348
1.139653 0.663798 -0.665432
1.140427 0.649261 -0.667085
1.152259 0.648120 -0.667733
1.153622 0.662452 -0.666253
1.144104 0.640055 -0.583174
1.144867 0.625527 -0.584831
1.154564 0.624578 -0.585302
1.155936 0.638915 -0.583821
1.140639 0.649252 -0.667096
1.141403 0.634725 -0.668753
1.151100 0.633776 -0.669224
1.152472 0.648112 -0.667743
1.161563 0.668002 -0.581032
1.160211 0.653673 -0.582518
1.174075 0.650988 -0.584128
1.177583 0.666134 -0.583190
1.152304 0.676399 -0.664598
1.150952 0.662071 -0.666083
1.164816 0.659385 -0.667694
1.168324 0.674531 -0.666756
1.159004 0.653850 -0.582384
1.157642 0.639519 -0.583864
1.169361 0.636018 -0.584935
1.172868 0.651165 -0.583994
1.152155 0.661864 -0.666219
1.150792 0.647533 -0.667699
1.162511 0.644033 -0.668770
1.166019 0.659179 -0.667830
1.156019 0.639742 -0.583742
1.154647 0.625406 -0.585223
1.164229 0.621099 -0.585765
1.167738 0.636242 -0.584813
1.152410 0.647279 -0.667823
1.151039 0.632943 -0.669304
1.160621 0.628636 -0.669847
1.164129 0.643779 -0.668894
1.128985 0.712136 -0.600295
1.124672 0.704635 -0.592294
1.140893 0.703469 -0.591770
1.142251 0.712347 -0.599969
1.128796 0.652750 -0.660402
1.124483 0.645250 -0.652401
1.140704 0.644084 -0.651877
1.142062 0.652962 -0.660076
1.145381 0.709561 -0.597610
1.144023 0.700684 -0.589412
1.160128 0.699123 -0.590405
1.158615 0.709311 -0.598019
1.138962 0.655745 -0.662434
1.137603 0.646868 -0.654235
1.153709 0.645307 -0.655228
1.152195 0.655495 -0.662843
1.161385 0.706535 -0.596272
1.162898 0.696346 -0.588658
1.178918 0.694478 -0.590816
1.174587 0.705838 -0.597405
1.149455 0.658269 -0.664592
1.150968 0.648081 -0.656977
1.166988 0.646212 -0.659136
1.162657 0.657573 -0.665724
1.089099 0.710794 -0.662780
1.079574 0.696311 -0.654419
1.081661 0.697437 -0.639652
1.090550 0.709804 -0.648099
1.156119 0.659935 -0.670599
1.146594 0.645452 -0.662238
1.148681 0.646578 -0.647471
1.157570 0.658945 -0.655918
1.091891 0.711503 -0.648268
1.083001 0.699137 -0.639821
1.085088 0.700250 -0.625059
1.093341 0.710542 -0.633583
1.156234 0.657245 -0.655719
1.147345 0.644879 -0.647272
1.149432 0.645992 -0.632510
1.157684 0.656284 -0.641033
1.124959 0.725571 -0.634534
1.131765 0.726166 -0.641995
1.131144 0.726772 -0.651494
1.123508 0.726532 -0.649220
1.126083 0.641266 -0.640095
1.132889 0.641861 -0.647556
1.132268 0.642467 -0.657055
1.124632 0.642228 -0.654781
1.123610 0.726527 -0.649125
1.131245 0.726767 -0.651399
1.130615 0.727410 -0.660895
1.122158 0.727518 -0.663806
1.124528 0.642234 -0.654900
1.132164 0.642474 -0.657174
1.131533 0.643117 -0.666670
1.123077 0.643225 -0.669581
1.131711 0.726166 -0.642000
1.138522 0.726747 -0.649465
1.138716 0.727046 -0.653771
1.131089 0.726772 -0.651499
1.132958 0.641863 -0.647561
1.139769 0.642444 -0.655027
1.139963 0.642743 -0.659333
1.132336 0.642469 -0.657060
1.131190 0.726775 -0.651535
1.138817 0.727049 -0.653807
1.139025 0.727302 -0.658117
1.130559 0.727418 -0.661031
1.132236 0.642466 -0.657038
1.139863 0.642740 -0.659310
1.140071 0.642993 -0.663620
1.131605 0.643109 -0.666534
1.130596 0.724368 -0.625398
1.138417 0.725170 -0.634778
1.134038 0.725933 -0.639804
1.127232 0.725338 -0.632343
1.127178 0.640527 -0.635323
1.134999 0.641330 -0.644703
1.130620 0.642092 -0.649729
1.123814 0.641497 -0.642268
1.138342 0.725190 -0.634917
1.146160 0.725981 -0.644295
1.140776 0.726534 -0.647409
1.133964 0.725952 -0.639944
1.135087 0.641312 -0.644580
1.142905 0.642103 -0.653959
1.137521 0.642656 -0.657072
1.130709 0.642075 -0.649607
1.170689 0.723680 -0.627187
1.164414 0.725033 -0.635609
1.156376 0.725196 -0.634939
1.157487 0.724376 -0.626054
1.166548 0.639743 -0.635958
1.160273 0.641096 -0.644380
1.152235 0.641259 -0.643710
1.153346 0.640439 -0.634825
1.156240 0.724488 -0.626773
1.155130 0.725308 -0.635657
1.147426 0.725406 -0.635306
1.143007 0.724739 -0.626364
1.154571 0.640328 -0.634106
1.153461 0.641148 -0.642990
1.145757 0.641246 -0.642640
1.141338 0.640579 -0.633697
1.141498 0.724799 -0.627093
1.145917 0.725467 -0.636035
1.136052 0.725390 -0.636799
1.128231 0.724588 -0.627419
1.142825 0.640518 -0.632969
1.147244 0.641186 -0.641911
1.137379 0.641109 -0.642675
1.129558 0.640307 -0.633295
1.162567 0.724949 -0.634475
1.156290 0.726303 -0.642896
1.152381 0.726076 -0.642591
1.154529 0.725113 -0.633804
1.162112 0.641182 -0.645532
1.155835 0.642536 -0.653953
1.151926 0.642308 -0.653648
1.154074 0.641345 -0.644862
1.153930 0.725307 -0.635572
1.151782 0.726271 -0.644358
1.147873 0.726013 -0.644059
1.146227 0.725406 -0.635221
1.154662 0.641150 -0.643094
1.152513 0.642114 -0.651880
1.148604 0.641856 -0.651581
1.146958 0.641249 -0.642743
1.146215 0.725464 -0.635941
1.147861 0.726071 -0.644779
1.144167 0.726178 -0.646083
1.136349 0.725387 -0.636705
1.146958 0.641191 -0.642024
1.148604 0.641798 -0.650862
1.144910 0.641905 -0.652166
1.137092 0.641114 -0.642788
1.196046 0.705508 -0.609964
1.200377 0.694147 -0.603375
1.207994 0.693147 -0.611507
1.201546 0.704893 -0.616698
1.141219 0.657902 -0.653174
1.145550 0.646541 -0.646586
1.153168 0.645541 -0.654717
1.146719 0.657287 -0.659908
1.180792 0.722765 -0.636250
1.173566 0.724372 -0.644010
1.169017 0.724732 -0.637938
1.175292 0.723379 -0.629516
1.167461 0.639429 -0.640370
1.160235 0.641036 -0.648131
1.155686 0.641396 -0.642058
1.161961 0.640043 -0.633637
1.172941 0.724439 -0.643502
1.165718 0.726040 -0.651265
1.162115 0.726152 -0.645851
1.168392 0.724799 -0.637430
1.160846 0.640972 -0.648655
1.153622 0.642574 -0.656418
1.150020 0.642686 -0.651005
1.156297 0.641332 -0.642583
1.102512 0.714849 -0.620942
1.094260 0.704557 -0.612419
1.101564 0.706378 -0.605996
1.105876 0.713879 -0.613997
1.148520 0.651977 -0.653652
1.140267 0.641685 -0.645129
1.147571 0.643507 -0.638706
1.151884 0.651007 -0.646707
1.075462 0.675674 -0.623157
1.073375 0.674561 -0.637919
1.072866 0.658752 -0.634727
1.074570 0.659603 -0.622210
1.159049 0.670540 -0.634402
1.156961 0.669427 -0.649164
1.156453 0.653619 -0.645971
1.158156 0.654469 -0.633455
1.074536 0.659581 -0.622458
1.072833 0.658730 -0.634974
1.072350 0.642929 -0.631537
1.073630 0.643507 -0.621508
1.158189 0.654459 -0.633203
1.156485 0.653609 -0.645720
1.156003 0.637808 -0.642283
1.157283 0.638386 -0.632253
1.073577 0.643419 -0.621898
1.072296 0.642841 -0.631927
1.071924 0.627042 -0.627617
1.072681 0.627346 -0.620948
1.157335 0.638442 -0.631859
1.156055 0.637864 -0.641888
1.155682 0.622065 -0.637578
1.156440 0.622369 -0.630909
1.072651 0.627475 -0.621282
1.071893 0.627171 -0.627951
1.071748 0.611402 -0.620328
1.156470 0.622213 -0.630569
1.155712 0.621910 -0.637238
1.155566 0.606140 -0.629615
1.073360 0.674360 -0.637945
1.071272 0.673234 -0.652712
1.071140 0.657704 -0.647459
1.072851 0.658551 -0.634753
1.156973 0.669626 -0.649165
1.154886 0.668500 -0.663932
1.154754 0.652970 -0.658678
1.156464 0.653818 -0.645972
1.072815 0.658505 -0.635011
1.071104 0.657658 -0.647716
1.070946 0.642119 -0.642471
1.072332 0.642704 -0.631574
1.156500 0.653833 -0.645706
1.154789 0.652985 -0.658412
1.154632 0.637447 -0.653167
1.156018 0.638031 -0.642269
1.072286 0.642585 -0.631893
1.070900 0.642000 -0.642791
1.070750 0.626466 -0.637535
1.071913 0.626786 -0.627583
1.156063 0.638119 -0.641941
1.154677 0.637535 -0.652838
1.154527 0.622001 -0.647583
1.155690 0.622321 -0.637630
1.071828 0.626674 -0.628293
1.070666 0.626354 -0.638245
1.070538 0.610818 -0.633000
1.071683 0.610905 -0.620670
1.155775 0.622401 -0.636909
1.154612 0.622081 -0.646862
1.154484 0.606544 -0.641617
1.155629 0.606631 -0.629287
1.222758 0.667644 -0.631197
1.222054 0.651588 -0.630722
1.222594 0.651757 -0.641544
1.223328 0.667733 -0.644525
1.138417 0.671016 -0.635041
1.137713 0.654959 -0.634565
1.138254 0.655128 -0.645387
1.138987 0.671105 -0.648368
1.222036 0.651652 -0.630322
1.221336 0.635591 -0.629841
1.221857 0.635831 -0.638024
1.222577 0.651821 -0.641144
1.137729 0.654863 -0.634962
1.137030 0.638802 -0.634480
1.137551 0.639041 -0.642663
1.138270 0.655032 -0.645784
1.221296 0.635593 -0.629193
1.220593 0.619535 -0.628721
1.221021 0.619776 -0.633756
1.221817 0.635833 -0.637377
1.137069 0.638767 -0.635123
1.136366 0.622710 -0.634651
1.136794 0.622950 -0.639686
1.137590 0.639007 -0.643307
1.220546 0.619370 -0.628193
1.219843 0.603310 -0.627720
1.220974 0.619610 -0.633228
1.136412 0.622848 -0.635175
1.135708 0.606789 -0.634702
1.136839 0.623089 -0.640210
1.223339 0.667925 -0.644606
1.222605 0.651949 -0.641625
1.223129 0.652137 -0.652559
1.223890 0.668005 -0.657934
1.138978 0.670913 -0.648311
1.138244 0.654936 -0.645331
1.138768 0.655125 -0.656265
1.139529 0.670993 -0.661640
1.222591 0.652161 -0.641200
1.221872 0.636171 -0.638079
1.222420 0.636474 -0.646762
1.223115 0.652350 -0.652134
1.138256 0.654692 -0.645747
1.137537 0.638701 -0.642627
1.138085 0.639004 -0.651309
1.138780 0.654881 -0.656682
1.221827 0.636222 -0.637340
1.221031 0.620165 -0.633719
1.221621 0.620653 -0.640651
1.222376 0.636524 -0.646022
1.137580 0.638619 -0.643358
1.136785 0.622562 -0.639737
1.137374 0.623051 -0.646669
1.138129 0.638922 -0.652040
1.220892 0.620473 -0.632097
1.219761 0.604173 -0.626588
1.220744 0.605088 -0.633662
1.221481 0.620962 -0.639028
1.136923 0.622221 -0.641350
1.135792 0.605921 -0.635842
1.136775 0.606836 -0.642915
1.137512 0.622710 -0.648282
1.160634 0.654981 -0.584411
1.156952 0.655556 -0.585558
1.153445 0.640409 -0.586498
1.160808 0.639260 -0.584208
1.185634 0.654209 -0.665119
1.181953 0.654784 -0.666266
1.178445 0.639638 -0.667207
1.185808 0.638488 -0.664916
1.160946 0.623517 -0.584009
1.160779 0.639241 -0.584216
1.153416 0.640390 -0.586507
1.149908 0.625247 -0.587459
1.186001 0.622752 -0.664701
1.185833 0.638477 -0.664908
1.178471 0.639626 -0.667199
1.174962 0.624483 -0.668151
1.160452 0.670728 -0.584623
1.156945 0.655582 -0.585560
1.160626 0.655007 -0.584413
1.185471 0.669930 -0.665325
1.181963 0.654783 -0.666263
1.185644 0.654208 -0.665116
1.140891 0.657811 -0.583663
1.137998 0.673953 -0.582300
1.136543 0.657253 -0.582219
1.114033 0.659761 -0.663753
1.111139 0.675903 -0.662389
1.109685 0.659204 -0.662308
1.144511 0.621288 -0.589715
1.149175 0.604783 -0.590645
1.155720 0.603837 -0.586072
1.155550 0.619558 -0.586264
1.180360 0.628410 -0.665896
1.185023 0.611905 -0.666827
1.191568 0.610959 -0.662253
1.191398 0.626680 -0.662446
1.143779 0.641661 -0.585022
1.140884 0.657802 -0.583661
1.136536 0.657244 -0.582216
1.135082 0.640547 -0.582135
1.116936 0.643602 -0.665116
1.114041 0.659743 -0.663756
1.109693 0.659186 -0.662311
1.108240 0.642488 -0.662230
1.143751 0.641655 -0.585012
1.135055 0.640541 -0.582126
1.133597 0.623845 -0.582044
1.146646 0.625512 -0.586362
1.116966 0.643575 -0.665127
1.108269 0.642461 -0.662240
1.106811 0.625765 -0.662159
1.119861 0.627432 -0.666476
1.152285 0.620363 -0.589197
1.139236 0.618695 -0.584880
1.137780 0.601997 -0.584786
1.143244 0.603840 -0.589361
1.114217 0.632549 -0.663641
1.101168 0.630881 -0.659324
1.099713 0.614183 -0.659230
1.105176 0.616026 -0.663805
