0.329729 0.179080 -0.961840
0.294286 0.170852 -0.961845
0.292689 0.189864 -0.950602
0.335575 0.151929 -0.871528
0.340444 0.133479 -0.882765
0.305001 0.125251 -0.882770
0.303404 0.144264 -0.871527
0.296712 0.190457 -0.950594
0.298309 0.171444 -0.961838
0.261977 0.169494 -0.961860
0.263698 0.188490 -0.950610
0.299311 0.143661 -0.871534
0.300908 0.124649 -0.882777
0.264576 0.122698 -0.882800
0.266296 0.141695 -0.871550
0.267764 0.188370 -0.950604
0.266044 0.169374 -0.961854
0.229923 0.173757 -0.961893
0.234910 0.192166 -0.950639
0.262160 0.141817 -0.871557
0.260440 0.122821 -0.882807
0.224319 0.127204 -0.882845
0.229306 0.145613 -0.871591
0.238882 0.191325 -0.950642
0.233895 0.172916 -0.961896
0.199082 0.183496 -0.961939
0.207184 0.200766 -0.950693
0.225267 0.146467 -0.871588
0.220280 0.128058 -0.882842
0.185467 0.138638 -0.882885
0.193569 0.155908 -0.871640
0.387236 0.311812 -0.849982
0.393967 0.309561 -0.874639
0.380123 0.282253 -0.874556
0.373869 0.285639 -0.849903
0.466012 0.271808 -0.824664
0.472743 0.269556 -0.849321
0.458899 0.242248 -0.849238
0.452645 0.245634 -0.824586
0.393923 0.309443 -0.874686
0.400665 0.307187 -0.899339
0.386341 0.278744 -0.899252
0.380079 0.282136 -0.874603
0.472801 0.269667 -0.849324
0.479542 0.267410 -0.873977
0.465219 0.238968 -0.873890
0.458956 0.242360 -0.849241
0.400615 0.307085 -0.899343
0.407345 0.304834 -0.923999
0.392543 0.275259 -0.923909
0.386291 0.278643 -0.899256
0.479605 0.267506 -0.874023
0.486336 0.265255 -0.898679
0.471533 0.235680 -0.898590
0.465282 0.239064 -0.873936
0.377934 0.292151 -0.849924
0.384188 0.288766 -0.874576
0.365810 0.264278 -0.874507
0.360225 0.268696 -0.849857
0.448549 0.239071 -0.824565
0.454803 0.235685 -0.849218
0.436425 0.211198 -0.849148
0.430840 0.215616 -0.824499
0.384124 0.288659 -0.874623
0.390387 0.285267 -0.899273
0.371341 0.259745 -0.899200
0.365747 0.264171 -0.874554
0.454878 0.235784 -0.849221
0.461140 0.232392 -0.873870
0.442094 0.206871 -0.873797
0.436500 0.211297 -0.849151
0.390319 0.285175 -0.899275
0.396570 0.281791 -0.923928
0.376856 0.255236 -0.923852
0.371273 0.259653 -0.899202
0.461220 0.232477 -0.873917
0.467472 0.229093 -0.898571
0.447758 0.202538 -0.898494
0.442174 0.206955 -0.873844
0.365357 0.274403 -0.849871
0.370942 0.269985 -0.874521
0.348592 0.249061 -0.874466
0.343844 0.254380 -0.849818
0.425667 0.209864 -0.824484
0.431253 0.205446 -0.849134
0.408902 0.184523 -0.849079
0.404155 0.189841 -0.824431
0.370863 0.269892 -0.874569
0.376457 0.265466 -0.899215
0.353267 0.243640 -0.899158
0.348512 0.248968 -0.874514
0.431342 0.205530 -0.849135
0.436936 0.201104 -0.873782
0.413746 0.179278 -0.873724
0.408992 0.184606 -0.849080
0.376375 0.265387 -0.899220
0.381959 0.260970 -0.923869
0.357933 0.238243 -0.923810
0.353185 0.243561 -0.899162
0.437029 0.201173 -0.873827
0.442613 0.196756 -0.898476
0.418586 0.174029 -0.898417
0.413839 0.179347 -0.873770
0.349890 0.259108 -0.849829
0.354637 0.253790 -0.874477
0.328993 0.237065 -0.874438
0.325227 0.243125 -0.849792
0.398062 0.185075 -0.824421
0.402809 0.179757 -0.849068
0.377165 0.163032 -0.849030
0.373399 0.169092 -0.824384
0.354543 0.253712 -0.874524
0.359297 0.248385 -0.899168
0.332670 0.230918 -0.899128
0.328898 0.236987 -0.874485
0.402912 0.179823 -0.849071
0.407667 0.174495 -0.873715
0.381039 0.157029 -0.873675
0.377268 0.163098 -0.849032
0.359204 0.248321 -0.899176
0.363952 0.243002 -0.923823
0.336343 0.224793 -0.923781
0.332576 0.230854 -0.899136
0.407768 0.174548 -0.873756
0.412516 0.169229 -0.898404
0.384907 0.151020 -0.898362
0.381141 0.157081 -0.873716
0.332001 0.246732 -0.849799
0.335767 0.240672 -0.874445
0.307608 0.228654 -0.874424
0.304937 0.235274 -0.849778
0.366572 0.165456 -0.824377
0.370337 0.159397 -0.849023
0.342178 0.147378 -0.849002
0.339508 0.153998 -0.824357
0.335661 0.240612 -0.874490
0.339432 0.234543 -0.899133
0.310176 0.221966 -0.899111
0.307501 0.228594 -0.874469
0.370450 0.159443 -0.849027
0.374222 0.153374 -0.873670
0.344965 0.140797 -0.873648
0.342291 0.147425 -0.849007
0.339329 0.234495 -0.899145
0.343096 0.228434 -0.923790
0.312745 0.215296 -0.923767
0.310073 0.221918 -0.899123
0.374331 0.153409 -0.873707
0.378098 0.147349 -0.898353
0.347747 0.134210 -0.898329
0.345075 0.140832 -0.873686
0.312232 0.237650 -0.849777
0.314903 0.231030 -0.874423
0.285085 0.224085 -0.874420
0.283589 0.231061 -0.849774
0.332156 0.151604 -0.824358
0.334826 0.144984 -0.849004
0.305009 0.138038 -0.849001
0.303513 0.145014 -0.824356
0.314789 0.230989 -0.874472
0.317463 0.224360 -0.899114
0.286467 0.217051 -0.899111
0.284971 0.224043 -0.874469
0.334945 0.145011 -0.849004
0.337619 0.138382 -0.873646
0.306623 0.131073 -0.873643
0.305127 0.138066 -0.849001
0.317356 0.224333 -0.899123
0.320028 0.217710 -0.923766
0.287856 0.210045 -0.923765
0.286360 0.217023 -0.899120
0.337730 0.138397 -0.873686
0.340402 0.131775 -0.898330
0.308231 0.124109 -0.898328
0.306735 0.131088 -0.873683
0.291189 0.232135 -0.849769
0.292685 0.225159 -0.874415
0.262113 0.223493 -0.874430
0.261838 0.230622 -0.849784
0.295854 0.143932 -0.824361
0.297350 0.136956 -0.849006
0.266778 0.135290 -0.849022
0.266504 0.142420 -0.824375
0.292565 0.225137 -0.874465
0.294061 0.218145 -0.899107
0.262268 0.216332 -0.899123
0.261993 0.223472 -0.874481
0.297471 0.136963 -0.849005
0.298968 0.129971 -0.873646
0.267174 0.128157 -0.873662
0.266899 0.135297 -0.849020
0.293950 0.218137 -0.899114
0.295446 0.211158 -0.923759
0.262431 0.209192 -0.923775
0.262157 0.216323 -0.899130
0.299080 0.129965 -0.873689
0.300577 0.122986 -0.898333
0.267562 0.121020 -0.898350
0.267287 0.128151 -0.873705
0.269515 0.230359 -0.849777
0.269789 0.223229 -0.874424
0.239394 0.226903 -0.874456
0.240347 0.233968 -0.849809
0.258767 0.142685 -0.824382
0.259042 0.135556 -0.849028
0.228647 0.139229 -0.849061
0.229600 0.146295 -0.824414
0.269664 0.223230 -0.874475
0.269939 0.216090 -0.899117
0.238312 0.219822 -0.899150
0.239269 0.226903 -0.874507
0.259167 0.135541 -0.849026
0.259441 0.128401 -0.873669
0.227815 0.132133 -0.873702
0.228772 0.139215 -0.849059
0.269824 0.216101 -0.899124
0.270098 0.208969 -0.923769
0.237244 0.212765 -0.923804
0.238197 0.219833 -0.899158
0.259556 0.128375 -0.873711
0.259830 0.121244 -0.898356
0.226976 0.125039 -0.898390
0.227929 0.132108 -0.873744
0.247858 0.232375 -0.849803
0.246905 0.225309 -0.874450
0.217608 0.234203 -0.874498
0.219761 0.240999 -0.849850
0.222031 0.147901 -0.824420
0.221078 0.140835 -0.849068
0.191782 0.149729 -0.849116
0.193935 0.156526 -0.824468
0.246780 0.225332 -0.874500
0.245823 0.218251 -0.899143
0.215327 0.227420 -0.899193
0.217483 0.234226 -0.874549
0.221200 0.140798 -0.849067
0.220243 0.133717 -0.873710
0.189747 0.142887 -0.873760
0.191904 0.149692 -0.849116
0.245711 0.218282 -0.899150
0.244758 0.211214 -0.923796
0.213061 0.220655 -0.923848
0.215215 0.227452 -0.899200
0.220351 0.133672 -0.873752
0.219398 0.126604 -0.898398
0.187701 0.136044 -0.898449
0.189855 0.142842 -0.873802
0.425840 0.295517 -0.950860
0.443076 0.287370 -0.962128
0.426602 0.254927 -0.962032
0.411037 0.265942 -0.950770
0.467864 0.274559 -0.871854
0.485100 0.266412 -0.883122
0.468625 0.233970 -0.883026
0.453061 0.244985 -0.871765
0.210797 0.200034 -0.711221
0.181222 0.214836 -0.711293
0.170230 0.199307 -0.699961
0.202677 0.182837 -0.699874
0.189678 0.157746 -0.790042
0.160102 0.172547 -0.790114
0.149110 0.157019 -0.778782
0.181557 0.140549 -0.778695
0.184693 0.212687 -0.711283
0.158137 0.232401 -0.711367
0.144613 0.219018 -0.700036
0.173700 0.197158 -0.699951
0.156573 0.174733 -0.790124
0.130018 0.194448 -0.790208
0.116493 0.181064 -0.778877
0.145581 0.159204 -0.778792
0.161169 0.229705 -0.711360
0.138439 0.253728 -0.711458
0.122789 0.242898 -0.700137
0.147644 0.216321 -0.700030
0.126935 0.197190 -0.790214
0.104205 0.221214 -0.790312
0.088554 0.210383 -0.778991
0.113410 0.183807 -0.778884
0.140957 0.250534 -0.711445
0.122743 0.278141 -0.711552
0.105443 0.270190 -0.700243
0.125306 0.239703 -0.700125
0.101645 0.224463 -0.790325
0.083431 0.252070 -0.790431
0.066132 0.244119 -0.779122
0.085994 0.213632 -0.779004
0.124678 0.274552 -0.711542
0.111538 0.304901 -0.711654
0.093116 0.300078 -0.700348
0.107378 0.266601 -0.700233
0.081464 0.255720 -0.790441
0.068324 0.286069 -0.790552
0.049902 0.281246 -0.779247
0.064164 0.247769 -0.779132
0.112813 0.301041 -0.711642
0.105145 0.333214 -0.711754
0.086158 0.331661 -0.700464
0.094391 0.296219 -0.700337
0.067027 0.289994 -0.790564
0.059359 0.322166 -0.790676
0.040372 0.320614 -0.779386
0.048605 0.285171 -0.779258
0.105726 0.329179 -0.711738
0.103764 0.362193 -0.711849
0.084790 0.363962 -0.700568
0.086739 0.327627 -0.700449
0.058768 0.326269 -0.790691
0.056806 0.359283 -0.790802
0.037831 0.361052 -0.779521
0.039781 0.324717 -0.779402
0.103638 0.358131 -0.711835
0.107437 0.390985 -0.711941
0.089050 0.396020 -0.700674
0.084663 0.359900 -0.700554
0.056935 0.363415 -0.790816
0.060734 0.396269 -0.790922
0.042347 0.401304 -0.779655
0.037960 0.365184 -0.779535
0.106610 0.386999 -0.711931
0.116054 0.418694 -0.712032
0.098816 0.426843 -0.700767
0.088223 0.392033 -0.700664
0.061575 0.400324 -0.790933
0.071018 0.432019 -0.791034
0.053781 0.440168 -0.779769
0.043188 0.405358 -0.779666
0.226852 0.238252 -0.812325
0.200678 0.251621 -0.812387
0.197360 0.245469 -0.787700
0.224666 0.231624 -0.787634
0.186771 0.159375 -0.837207
0.160598 0.172744 -0.837269
0.157280 0.166593 -0.812582
0.184586 0.152747 -0.812516
0.224552 0.231667 -0.787590
0.197246 0.245513 -0.787656
0.193923 0.239356 -0.762970
0.222362 0.225027 -0.762904
0.184695 0.152690 -0.812511
0.157389 0.166536 -0.812577
0.154066 0.160379 -0.787891
0.182505 0.146050 -0.787825
0.222257 0.225074 -0.762884
0.193817 0.239403 -0.762951
0.190494 0.233245 -0.738267
0.220069 0.218443 -0.738194
0.182606 0.145990 -0.787795
0.154166 0.160319 -0.787861
0.150843 0.154161 -0.763177
0.180418 0.139359 -0.763105
0.207187 0.247559 -0.812369
0.183731 0.265266 -0.812445
0.179381 0.259785 -0.787759
0.203869 0.241407 -0.787682
0.154039 0.176838 -0.837288
0.130583 0.194546 -0.837364
0.126233 0.189064 -0.812678
0.150720 0.170687 -0.812600
0.203762 0.241472 -0.787638
0.179274 0.259849 -0.787715
0.174916 0.254358 -0.763034
0.200439 0.235314 -0.762952
0.150819 0.170610 -0.812595
0.126332 0.188988 -0.812673
0.121974 0.183497 -0.787992
0.147497 0.164453 -0.787909
0.200344 0.235377 -0.762929
0.174821 0.254421 -0.763012
0.170466 0.248934 -0.738328
0.197021 0.229219 -0.738245
0.147584 0.164379 -0.787882
0.122061 0.183422 -0.787965
0.117706 0.177935 -0.763282
0.144261 0.158221 -0.763198
0.189438 0.260133 -0.812423
0.169415 0.281647 -0.812508
0.164163 0.277000 -0.787828
0.185088 0.254652 -0.787738
0.124831 0.199719 -0.837385
0.104808 0.221232 -0.837471
0.099556 0.216585 -0.812790
0.120481 0.194237 -0.812700
0.184992 0.254734 -0.787691
0.164067 0.277082 -0.787781
0.158806 0.272430 -0.763102
0.180634 0.249243 -0.763009
0.120567 0.194145 -0.812698
0.099642 0.216493 -0.812788
0.094380 0.211840 -0.788110
0.116209 0.188653 -0.788017
0.180552 0.249323 -0.762992
0.158724 0.272510 -0.763085
0.153467 0.267860 -0.738407
0.176197 0.243836 -0.738309
0.116282 0.188563 -0.787985
0.094453 0.211750 -0.788078
0.089197 0.207100 -0.763399
0.111926 0.183076 -0.763301
0.174144 0.275600 -0.812482
0.158161 0.300263 -0.812576
0.152166 0.296598 -0.787899
0.168892 0.270953 -0.787802
0.100042 0.227326 -0.837497
0.084060 0.251989 -0.837591
0.078065 0.248324 -0.812914
0.094790 0.222680 -0.812816
0.168812 0.271051 -0.787754
0.152086 0.296695 -0.787851
0.146081 0.293022 -0.763178
0.163550 0.266398 -0.763076
0.094859 0.222574 -0.812815
0.078134 0.248218 -0.812912
0.072128 0.244545 -0.788240
0.089598 0.217921 -0.788137
0.163483 0.266493 -0.763060
0.146013 0.293117 -0.763163
0.140013 0.289450 -0.738488
0.158226 0.261843 -0.738382
0.089654 0.217818 -0.788103
0.072184 0.244442 -0.788206
0.066184 0.240775 -0.763531
0.084397 0.213168 -0.763424
0.161767 0.293489 -0.812550
0.150308 0.320553 -0.812649
0.143754 0.317982 -0.787976
0.155772 0.289824 -0.787873
0.080426 0.258816 -0.837617
0.068967 0.285880 -0.837716
0.062412 0.283308 -0.813043
0.074431 0.255151 -0.812940
0.155710 0.289933 -0.787821
0.143691 0.318091 -0.787925
0.137122 0.315515 -0.763256
0.149704 0.286260 -0.763149
0.074481 0.255035 -0.812942
0.062462 0.283193 -0.813045
0.055893 0.280617 -0.788377
0.068475 0.251362 -0.788270
0.149656 0.286364 -0.763138
0.137074 0.315619 -0.763245
0.130516 0.313045 -0.738574
0.143656 0.282696 -0.738463
0.068510 0.251253 -0.788231
0.055928 0.280508 -0.788338
0.049370 0.277934 -0.763667
0.062510 0.247585 -0.763556
0.152684 0.313258 -0.812622
0.146097 0.341899 -0.812723
0.139180 0.340504 -0.788054
0.146129 0.310686 -0.787950
0.066573 0.293232 -0.837743
0.059987 0.321874 -0.837844
0.053070 0.320478 -0.813175
0.060018 0.290661 -0.813070
0.146087 0.310800 -0.787899
0.139139 0.340618 -0.788004
0.132211 0.339220 -0.763339
0.139518 0.308225 -0.763230
0.060046 0.290542 -0.813071
0.053098 0.320360 -0.813176
0.046170 0.318962 -0.788511
0.053477 0.287967 -0.788403
0.139490 0.308332 -0.763222
0.132184 0.339326 -0.763331
0.125265 0.337930 -0.738663
0.132932 0.305758 -0.738552
0.053491 0.287856 -0.788361
0.046184 0.318851 -0.788470
0.039265 0.317455 -0.763802
0.046933 0.285283 -0.763690
0.147171 0.334299 -0.812700
0.145656 0.363650 -0.812799
0.138591 0.363474 -0.788134
0.140254 0.332904 -0.788031
0.058905 0.329533 -0.837868
0.057390 0.358884 -0.837967
0.050325 0.358708 -0.813302
0.051988 0.328138 -0.813199
0.140234 0.333020 -0.787984
0.138571 0.363591 -0.788088
0.131495 0.363416 -0.763425
0.133307 0.331622 -0.763319
0.051993 0.328020 -0.813196
0.050331 0.358590 -0.813299
0.043254 0.358415 -0.788637
0.045066 0.326621 -0.788531
0.133297 0.331731 -0.763307
0.131485 0.363526 -0.763413
0.124416 0.363349 -0.738750
0.126378 0.330335 -0.738639
0.045062 0.326510 -0.788494
0.043250 0.358304 -0.788600
0.036181 0.358127 -0.763937
0.038143 0.325114 -0.763826
0.145394 0.355974 -0.812778
0.149004 0.385141 -0.812873
0.142002 0.386194 -0.788211
0.138329 0.355798 -0.788113
0.057655 0.366620 -0.837989
0.061265 0.395787 -0.838084
0.054262 0.396840 -0.813422
0.050590 0.366444 -0.813324
0.138330 0.355920 -0.788066
0.142003 0.386316 -0.788165
0.134990 0.387370 -0.763507
0.131254 0.355746 -0.763404
0.050574 0.366323 -0.813320
0.054247 0.396718 -0.813419
0.047234 0.397772 -0.788761
0.043498 0.366148 -0.788658
0.131262 0.355858 -0.763389
0.134999 0.387483 -0.763492
0.127992 0.388536 -0.738832
0.124193 0.355682 -0.738726
0.043475 0.366036 -0.788624
0.047212 0.397661 -0.788727
0.040204 0.398714 -0.764067
0.036405 0.365860 -0.763961
0.147411 0.377631 -0.812847
0.156033 0.405728 -0.812935
0.149303 0.407979 -0.788278
0.140409 0.378684 -0.788186
0.062870 0.403355 -0.838110
0.071492 0.431452 -0.838198
0.064763 0.433703 -0.813541
0.055868 0.404408 -0.813448
0.140433 0.378808 -0.788141
0.149328 0.408104 -0.788234
0.142589 0.410359 -0.763579
0.133420 0.379862 -0.763483
0.055830 0.404287 -0.813444
0.064724 0.433582 -0.813536
0.057986 0.435838 -0.788882
0.048817 0.405341 -0.788786
0.133449 0.379973 -0.763468
0.142617 0.410470 -0.763564
0.135885 0.412722 -0.738909
0.126442 0.381027 -0.738808
0.048775 0.405233 -0.788752
0.057943 0.435730 -0.788848
0.051211 0.437982 -0.764193
0.041767 0.406287 -0.764092
0.227724 0.239702 -0.837262
0.201550 0.253068 -0.837324
0.201542 0.253111 -0.824968
0.227715 0.239741 -0.824906
0.185919 0.157852 -0.837019
0.159745 0.171219 -0.837081
0.159737 0.171261 -0.824725
0.185910 0.157892 -0.824663
0.208312 0.248834 -0.837308
0.184857 0.266543 -0.837383
0.184848 0.266584 -0.825027
0.208304 0.248877 -0.824952
0.152934 0.175484 -0.837098
0.129479 0.193193 -0.837174
0.129470 0.193234 -0.824818
0.152926 0.175526 -0.824742
0.190784 0.261196 -0.837360
0.170761 0.282709 -0.837446
0.170752 0.282751 -0.825090
0.190775 0.261237 -0.825004
0.123508 0.198579 -0.837197
0.103484 0.220091 -0.837283
0.103476 0.220133 -0.824927
0.123499 0.198620 -0.824841
0.175669 0.276415 -0.837424
0.159685 0.301078 -0.837517
0.159677 0.301120 -0.825161
0.175660 0.276457 -0.825068
0.098541 0.226431 -0.837305
0.082557 0.251094 -0.837398
0.082549 0.251136 -0.825043
0.098532 0.226473 -0.824949
0.163425 0.294028 -0.837491
0.151966 0.321092 -0.837590
0.151958 0.321135 -0.825235
0.163417 0.294070 -0.825136
0.078790 0.258195 -0.837424
0.067331 0.285259 -0.837523
0.067323 0.285302 -0.825167
0.078782 0.258237 -0.825068
0.154425 0.313502 -0.837560
0.147840 0.342144 -0.837661
0.147831 0.342186 -0.825306
0.154417 0.313544 -0.825205
0.064855 0.292906 -0.837553
0.058269 0.321549 -0.837654
0.058260 0.321590 -0.825298
0.064846 0.292948 -0.825197
0.148943 0.334243 -0.837631
0.147429 0.363594 -0.837731
0.147420 0.363635 -0.825375
0.148934 0.334284 -0.825275
0.057157 0.329508 -0.837685
0.055643 0.358858 -0.837784
0.055634 0.358900 -0.825428
0.057148 0.329549 -0.825329
0.147144 0.355612 -0.837705
0.150752 0.384779 -0.837800
0.150744 0.384821 -0.825445
0.147134 0.355654 -0.825350
0.055931 0.366898 -0.837810
0.059540 0.396066 -0.837905
0.059531 0.396107 -0.825549
0.055922 0.366940 -0.825454
0.149084 0.376968 -0.837776
0.157707 0.405065 -0.837864
0.157698 0.405106 -0.825508
0.149075 0.377010 -0.825420
0.061221 0.403934 -0.837929
0.069844 0.432030 -0.838017
0.069835 0.432072 -0.825662
0.061212 0.403975 -0.825574
0.184864 0.211899 -0.950748
0.173892 0.196299 -0.962001
0.144803 0.218159 -0.962101
0.158308 0.231612 -0.950831
0.156614 0.174436 -0.871719
0.145641 0.158836 -0.882972
0.116553 0.180696 -0.883073
0.130057 0.194149 -0.871803
0.161349 0.228911 -0.950814
0.147844 0.215458 -0.962083
0.122991 0.242035 -0.962191
0.138620 0.252936 -0.950908
0.126965 0.196896 -0.871821
0.113460 0.183442 -0.883091
0.088607 0.210019 -0.883198
0.104237 0.220921 -0.871916
0.141140 0.249737 -0.950896
0.125510 0.238836 -0.962179
0.105651 0.269325 -0.962292
0.122931 0.277346 -0.951002
0.101674 0.224174 -0.871928
0.086044 0.213273 -0.883210
0.066185 0.243761 -0.883324
0.083464 0.251783 -0.872034
0.124855 0.273754 -0.950991
0.107576 0.265733 -0.962281
0.093314 0.299208 -0.962403
0.111718 0.304106 -0.951102
0.081507 0.255435 -0.872045
0.064227 0.247414 -0.883336
0.049965 0.280889 -0.883458
0.068369 0.285786 -0.872157
0.112988 0.300237 -0.951090
0.094584 0.295340 -0.962392
0.086352 0.330782 -0.962515
0.105322 0.332409 -0.951206
0.067078 0.289721 -0.872168
0.048673 0.284823 -0.883470
0.040442 0.320266 -0.883593
0.059412 0.321893 -0.872283
0.105900 0.328379 -0.951194
0.086931 0.326753 -0.962504
0.084978 0.363086 -0.962627
0.103937 0.361394 -0.951308
0.058824 0.325991 -0.872295
0.039854 0.324364 -0.883604
0.037901 0.360697 -0.883728
0.056860 0.359006 -0.872408
0.103813 0.357327 -0.951293
0.084854 0.359018 -0.962613
0.089240 0.395138 -0.962734
0.107608 0.390181 -0.951401
0.056986 0.363142 -0.872423
0.038027 0.364834 -0.883743
0.042413 0.400954 -0.883864
0.060781 0.395997 -0.872531
0.106786 0.386196 -0.951383
0.088418 0.391153 -0.962716
0.099008 0.425963 -0.962829
0.116227 0.417892 -0.951482
0.061617 0.400050 -0.872549
0.043249 0.405007 -0.883881
0.053839 0.439817 -0.883994
0.071058 0.431747 -0.872647
0.226874 0.238128 -0.849841
0.224721 0.231331 -0.874489
0.197414 0.245177 -0.874553
0.200700 0.251495 -0.849903
0.186766 0.159419 -0.824477
0.184613 0.152623 -0.849126
0.157306 0.166468 -0.849190
0.160592 0.172786 -0.824539
0.224605 0.231376 -0.874535
0.222448 0.224571 -0.899179
0.194006 0.238894 -0.899245
0.197298 0.245221 -0.874599
0.184724 0.152565 -0.849130
0.182567 0.145760 -0.873774
0.154125 0.160084 -0.873841
0.157417 0.166410 -0.849194
0.222343 0.224620 -0.899193
0.220188 0.217822 -0.923840
0.190612 0.232622 -0.923907
0.193900 0.238943 -0.899259
0.182668 0.145698 -0.873810
0.180513 0.138900 -0.898457
0.150937 0.153700 -0.898524
0.154225 0.160022 -0.873876
0.207211 0.247431 -0.849887
0.203925 0.241113 -0.874537
0.179437 0.259489 -0.874615
0.183756 0.265140 -0.849962
0.154031 0.176881 -0.824556
0.150745 0.170563 -0.849206
0.126256 0.188939 -0.849284
0.130576 0.194590 -0.824632
0.203816 0.241178 -0.874585
0.200524 0.234851 -0.899232
0.175000 0.253894 -0.899311
0.179327 0.259554 -0.874663
0.150846 0.170486 -0.849208
0.147554 0.164160 -0.873855
0.122030 0.183202 -0.873934
0.126358 0.188862 -0.849285
0.200430 0.234917 -0.899243
0.197142 0.228596 -0.923890
0.170586 0.248308 -0.923974
0.174906 0.253960 -0.899322
0.147640 0.164082 -0.873893
0.144352 0.157760 -0.898540
0.117796 0.177473 -0.898624
0.122116 0.183124 -0.873972
0.189463 0.260007 -0.849943
0.185143 0.254356 -0.874595
0.164218 0.276705 -0.874684
0.169439 0.281519 -0.850029
0.124824 0.199763 -0.824651
0.120505 0.194112 -0.849303
0.099580 0.216462 -0.849392
0.104801 0.221275 -0.824737
0.185048 0.254437 -0.874646
0.180720 0.248777 -0.899294
0.158891 0.271964 -0.899387
0.164123 0.276786 -0.874735
0.120591 0.194021 -0.849302
0.116263 0.188361 -0.873950
0.094435 0.211548 -0.874042
0.099666 0.216370 -0.849391
0.180641 0.248859 -0.899298
0.176321 0.243208 -0.923950
0.153592 0.267233 -0.924045
0.158812 0.272047 -0.899390
0.116333 0.188268 -0.873996
0.112012 0.182616 -0.898648
0.089284 0.206642 -0.898743
0.094504 0.211455 -0.874088
0.174168 0.275473 -0.850006
0.168947 0.270660 -0.874662
0.152221 0.296304 -0.874759
0.158184 0.300136 -0.850100
0.100036 0.227368 -0.824759
0.094815 0.222555 -0.849415
0.078089 0.248199 -0.849512
0.084052 0.252031 -0.824853
0.168869 0.270754 -0.874712
0.163637 0.265932 -0.899364
0.146169 0.292559 -0.899465
0.152143 0.296398 -0.874809
0.094882 0.222452 -0.849414
0.089650 0.217630 -0.874066
0.072183 0.244257 -0.874167
0.078156 0.248096 -0.849511
0.163574 0.266026 -0.899366
0.158355 0.261212 -0.924021
0.140145 0.288820 -0.924127
0.146107 0.292653 -0.899467
0.089701 0.217527 -0.874113
0.084482 0.212714 -0.898767
0.066272 0.240322 -0.898873
0.072234 0.244155 -0.874214
0.161793 0.293360 -0.850072
0.155830 0.289527 -0.874732
0.143813 0.317687 -0.874835
0.150334 0.320424 -0.850171
0.080416 0.258860 -0.824880
0.074452 0.255028 -0.849540
0.062436 0.283187 -0.849643
0.068957 0.285924 -0.824979
0.155769 0.289632 -0.874782
0.149796 0.285794 -0.899437
0.137220 0.315050 -0.899545
0.143753 0.317792 -0.874885
0.074500 0.254916 -0.849539
0.068527 0.251078 -0.874194
0.055950 0.280334 -0.874302
0.062484 0.283076 -0.849642
0.149750 0.285898 -0.899443
0.143788 0.282065 -0.924102
0.130650 0.312416 -0.924214
0.137173 0.315154 -0.899551
0.068561 0.250967 -0.874238
0.062599 0.247134 -0.898897
0.049461 0.277486 -0.899009
0.055984 0.280224 -0.874346
0.152711 0.313127 -0.850141
0.146190 0.310390 -0.874805
0.139245 0.340208 -0.874911
0.146125 0.341770 -0.850242
0.066562 0.293278 -0.825009
0.060042 0.290541 -0.849674
0.053097 0.320359 -0.849780
0.059977 0.321921 -0.825111
0.146149 0.310503 -0.874856
0.139615 0.307761 -0.899516
0.132310 0.338758 -0.899627
0.139204 0.340321 -0.874962
0.060069 0.290424 -0.849672
0.053536 0.287682 -0.874332
0.046231 0.318679 -0.874442
0.053125 0.320242 -0.849778
0.139587 0.307870 -0.899526
0.133064 0.305132 -0.924188
0.125398 0.337304 -0.924303
0.132282 0.338866 -0.899636
0.053550 0.287570 -0.874372
0.047027 0.284832 -0.899035
0.039361 0.317004 -0.899150
0.046246 0.318566 -0.874482
0.147198 0.334174 -0.850212
0.140318 0.332612 -0.874881
0.138654 0.363183 -0.874985
0.145684 0.363524 -0.850311
0.058895 0.329576 -0.825141
0.052015 0.328014 -0.849810
0.050351 0.358585 -0.849914
0.057381 0.358926 -0.825240
0.140298 0.332730 -0.874931
0.133404 0.331166 -0.899595
0.131592 0.362960 -0.899705
0.138634 0.363301 -0.875035
0.052022 0.327895 -0.849809
0.045128 0.326332 -0.874474
0.043316 0.358125 -0.874584
0.050358 0.358466 -0.849914
0.133394 0.331276 -0.899609
0.126510 0.329714 -0.924276
0.124546 0.362729 -0.924390
0.131582 0.363070 -0.899719
0.045125 0.326220 -0.874510
0.038240 0.324657 -0.899177
0.036276 0.357672 -0.899291
0.043312 0.358013 -0.874619
0.145422 0.355850 -0.850283
0.138391 0.355509 -0.874957
0.142063 0.385904 -0.875056
0.149030 0.385018 -0.850379
0.057646 0.366660 -0.825269
0.050616 0.366319 -0.849942
0.054288 0.396715 -0.850042
0.061255 0.395828 -0.825364
0.138392 0.355634 -0.875008
0.131350 0.355293 -0.899678
0.135083 0.386918 -0.899780
0.142064 0.386029 -0.875107
0.050601 0.366196 -0.849941
0.043560 0.365855 -0.874611
0.047292 0.397480 -0.874714
0.054273 0.396591 -0.850040
0.131360 0.355407 -0.899692
0.124324 0.355065 -0.924363
0.128119 0.387920 -0.924470
0.135092 0.387032 -0.899794
0.043536 0.365741 -0.874646
0.036500 0.365400 -0.899318
0.040296 0.398254 -0.899425
0.047268 0.397367 -0.874749
0.147436 0.377507 -0.850359
0.140469 0.378394 -0.875036
0.149362 0.407690 -0.875128
0.156060 0.405603 -0.850447
0.062861 0.403397 -0.825384
0.055894 0.404284 -0.850062
0.064786 0.433580 -0.850153
0.071484 0.431493 -0.825472
0.140493 0.378520 -0.875086
0.133512 0.379410 -0.899760
0.142678 0.409908 -0.899854
0.149386 0.407817 -0.875177
0.055856 0.404160 -0.850061
0.048875 0.405050 -0.874735
0.058041 0.435547 -0.874830
0.064749 0.433456 -0.850153
0.133543 0.379520 -0.899770
0.126570 0.380408 -0.924446
0.136011 0.412105 -0.924544
0.142709 0.410018 -0.899864
0.048831 0.404942 -0.874774
0.041858 0.405830 -0.899450
0.051300 0.437527 -0.899549
0.057997 0.435440 -0.874869
0.210967 0.199241 -0.950695
0.202864 0.181971 -0.961941
0.170418 0.198440 -0.962015
0.181391 0.214041 -0.950762
0.189722 0.157459 -0.871638
0.181620 0.140188 -0.882884
0.149173 0.156658 -0.882958
0.160146 0.172258 -0.871705
0.114554 0.414911 -0.712026
0.129357 0.444487 -0.712115
0.113791 0.455502 -0.700856
0.097316 0.423060 -0.700762
0.072544 0.435866 -0.791040
0.087347 0.465441 -0.791129
0.071781 0.476456 -0.779870
0.055306 0.444015 -0.779775
0.127221 0.441028 -0.712107
0.146933 0.467584 -0.712185
0.133510 0.481134 -0.700933
0.111655 0.452043 -0.700848
0.089520 0.468958 -0.791136
0.109232 0.495514 -0.791215
0.095809 0.509065 -0.779962
0.073954 0.479974 -0.779878
0.144218 0.464536 -0.712180
0.168244 0.487264 -0.712239
0.157373 0.502937 -0.700988
0.130795 0.478087 -0.700927
0.111993 0.498613 -0.791220
0.136019 0.521341 -0.791279
0.125148 0.537014 -0.780028
0.098570 0.512164 -0.779968
0.165050 0.484736 -0.712239
0.192658 0.502945 -0.712281
0.184669 0.520265 -0.701029
0.154180 0.500409 -0.700987
0.139267 0.523912 -0.791280
0.166875 0.542121 -0.791323
0.158886 0.559441 -0.780070
0.128397 0.539585 -0.780029
0.189070 0.501017 -0.712278
0.219421 0.514153 -0.712300
0.214554 0.532598 -0.701052
0.181081 0.518337 -0.701026
0.170524 0.544082 -0.791326
0.200875 0.557219 -0.791347
0.196009 0.575663 -0.780099
0.162535 0.561402 -0.780073
0.215547 0.512879 -0.712297
0.247718 0.520545 -0.712300
0.246122 0.539553 -0.701050
0.210681 0.531324 -0.701049
0.204815 0.558515 -0.791350
0.236986 0.566180 -0.791352
0.235390 0.585188 -0.780102
0.199949 0.576959 -0.780102
0.243690 0.519965 -0.712299
0.276705 0.521930 -0.712282
0.278426 0.540928 -0.701034
0.242095 0.538973 -0.701049
0.241082 0.566770 -0.791353
0.274097 0.568735 -0.791336
0.275817 0.587733 -0.780088
0.239487 0.585778 -0.780103
0.272635 0.522055 -0.712285
0.305489 0.518262 -0.712252
0.310475 0.536671 -0.700996
0.274356 0.541053 -0.701036
0.278236 0.568607 -0.791333
0.311090 0.564814 -0.791300
0.316076 0.583223 -0.780045
0.279957 0.587605 -0.780085
0.301500 0.519089 -0.712260
0.333196 0.509648 -0.712208
0.341295 0.526910 -0.700945
0.306485 0.537497 -0.701004
0.315148 0.563974 -0.791292
0.346845 0.554533 -0.791240
0.354943 0.571796 -0.779978
0.320134 0.582382 -0.780037
0.153162 0.398613 -0.812910
0.166530 0.424786 -0.812989
0.160278 0.428171 -0.788335
0.146432 0.400864 -0.788253
0.074386 0.438623 -0.838223
0.087755 0.464796 -0.838302
0.081502 0.468181 -0.813649
0.067657 0.440874 -0.813566
0.146477 0.400983 -0.788207
0.160323 0.428290 -0.788290
0.154061 0.431681 -0.763640
0.139738 0.403239 -0.763553
0.067598 0.440761 -0.813563
0.081444 0.468068 -0.813645
0.075182 0.471459 -0.788996
0.060859 0.443016 -0.788908
0.139787 0.403342 -0.763545
0.154110 0.431784 -0.763632
0.147859 0.435169 -0.738978
0.133055 0.405594 -0.738890
0.060797 0.442919 -0.788867
0.075120 0.471362 -0.788955
0.068869 0.474746 -0.764301
0.054065 0.445171 -0.764212
0.162467 0.418277 -0.812968
0.180176 0.441732 -0.813035
0.174591 0.446150 -0.788385
0.156215 0.421662 -0.788315
0.091850 0.471356 -0.838323
0.109558 0.494811 -0.838390
0.103974 0.499229 -0.813740
0.085597 0.474741 -0.813670
0.156278 0.421769 -0.788267
0.174655 0.446257 -0.788338
0.169061 0.450683 -0.763691
0.150016 0.425160 -0.763618
0.085522 0.474641 -0.813668
0.103899 0.499130 -0.813738
0.098305 0.503555 -0.789092
0.079260 0.478033 -0.789019
0.150083 0.425253 -0.763614
0.169129 0.450776 -0.763686
0.163545 0.455194 -0.739038
0.143832 0.428638 -0.738960
0.079180 0.477947 -0.788974
0.098225 0.503470 -0.789047
0.092641 0.507888 -0.764398
0.072929 0.481332 -0.764320
0.175042 0.436024 -0.813019
0.196555 0.456048 -0.813072
0.191808 0.461366 -0.788424
0.169458 0.440443 -0.788370
0.114732 0.500563 -0.838405
0.136244 0.520587 -0.838459
0.131498 0.525905 -0.813811
0.109147 0.504981 -0.813756
0.169539 0.440538 -0.788319
0.191889 0.461462 -0.788374
0.187133 0.466792 -0.763731
0.163945 0.444964 -0.763672
0.109056 0.504895 -0.813757
0.131406 0.525819 -0.813812
0.126650 0.531149 -0.789169
0.103462 0.509321 -0.789110
0.164028 0.445042 -0.763670
0.187216 0.466870 -0.763729
0.182469 0.472188 -0.739081
0.158444 0.449460 -0.739022
0.103369 0.509252 -0.789063
0.126557 0.531080 -0.789122
0.121811 0.536397 -0.764473
0.097785 0.513670 -0.764414
0.190509 0.451320 -0.813060
0.215173 0.467302 -0.813096
0.211406 0.473364 -0.788451
0.185763 0.456638 -0.788411
0.142337 0.525352 -0.838472
0.167001 0.541334 -0.838508
0.163234 0.547396 -0.813863
0.137591 0.530670 -0.813824
0.185859 0.456718 -0.788360
0.211502 0.473444 -0.788400
0.207729 0.479517 -0.763758
0.181103 0.462048 -0.763718
0.137486 0.530601 -0.813825
0.163130 0.547327 -0.813865
0.159356 0.553400 -0.789223
0.132730 0.535931 -0.789183
0.181197 0.462109 -0.763720
0.207823 0.479578 -0.763760
0.204058 0.485636 -0.739115
0.176450 0.467427 -0.739072
0.132627 0.535881 -0.789131
0.159253 0.553350 -0.789171
0.155488 0.559408 -0.764525
0.127880 0.541199 -0.764483
0.208401 0.463696 -0.813088
0.235464 0.475157 -0.813109
0.232793 0.481778 -0.788464
0.204634 0.469758 -0.788443
0.173826 0.544968 -0.838516
0.200889 0.556429 -0.838537
0.198218 0.563049 -0.813891
0.170059 0.551030 -0.813871
0.204739 0.469819 -0.788394
0.232898 0.481838 -0.788415
0.230222 0.488470 -0.763774
0.200966 0.475891 -0.763752
0.169948 0.550983 -0.813870
0.198106 0.563002 -0.813891
0.195431 0.569634 -0.789250
0.166174 0.557055 -0.789228
0.201068 0.475934 -0.763756
0.230324 0.488512 -0.763778
0.227654 0.495128 -0.739132
0.197303 0.481992 -0.739110
0.166066 0.557025 -0.789175
0.195322 0.569604 -0.789197
0.192652 0.576219 -0.764551
0.162301 0.563083 -0.764530
0.228169 0.472781 -0.813109
0.256811 0.479370 -0.813112
0.255316 0.486350 -0.788468
0.225498 0.479401 -0.788464
0.208241 0.558824 -0.838536
0.236883 0.565413 -0.838539
0.235387 0.572393 -0.813895
0.205569 0.565444 -0.813891
0.225608 0.479440 -0.788419
0.255426 0.486389 -0.788423
0.253929 0.493377 -0.763780
0.222933 0.486072 -0.763779
0.205455 0.565419 -0.813887
0.235272 0.572368 -0.813890
0.233776 0.579356 -0.789247
0.202779 0.572051 -0.789246
0.223039 0.486098 -0.763777
0.254035 0.493402 -0.763778
0.252540 0.500379 -0.739134
0.220368 0.492713 -0.739131
0.202669 0.572039 -0.789198
0.233666 0.579344 -0.789199
0.232170 0.586321 -0.764555
0.199999 0.578655 -0.764552
0.249208 0.478295 -0.813120
0.278559 0.479809 -0.813106
0.278284 0.486936 -0.788459
0.247712 0.485275 -0.788476
0.244545 0.566497 -0.838531
0.273896 0.568011 -0.838517
0.273622 0.575138 -0.813871
0.243050 0.573477 -0.813887
0.247830 0.485294 -0.788430
0.278402 0.486956 -0.788414
0.278127 0.494096 -0.763772
0.246334 0.492282 -0.763787
0.242930 0.573471 -0.813883
0.273502 0.575133 -0.813867
0.273227 0.582273 -0.789224
0.241433 0.580459 -0.789240
0.246446 0.492290 -0.763781
0.278240 0.494104 -0.763766
0.277965 0.501232 -0.739119
0.244950 0.499267 -0.739136
0.241319 0.580465 -0.789197
0.273113 0.582279 -0.789181
0.272838 0.589407 -0.764534
0.239823 0.587442 -0.764552
0.270882 0.480073 -0.813112
0.300050 0.476459 -0.813080
0.301003 0.483529 -0.788434
0.270608 0.487200 -0.788466
0.281633 0.567745 -0.838511
0.310800 0.564131 -0.838479
0.311754 0.571201 -0.813832
0.281358 0.574872 -0.813864
0.270735 0.487198 -0.788419
0.301131 0.483527 -0.788388
0.302087 0.490605 -0.763744
0.270460 0.494338 -0.763777
0.281231 0.574889 -0.813861
0.311627 0.571217 -0.813829
0.312582 0.578295 -0.789185
0.280956 0.582029 -0.789219
0.270576 0.494326 -0.763770
0.302202 0.490593 -0.763736
0.303155 0.497661 -0.739091
0.270301 0.501454 -0.739123
0.280841 0.582054 -0.789177
0.312468 0.578321 -0.789143
0.313421 0.585389 -0.764498
0.280566 0.589182 -0.764530
0.292541 0.478053 -0.813085
0.320637 0.469431 -0.813037
0.322790 0.476227 -0.788389
0.293494 0.485123 -0.788438
0.318368 0.562525 -0.838474
0.346464 0.553902 -0.838426
0.348618 0.560699 -0.813778
0.319321 0.569594 -0.813828
0.293622 0.485098 -0.788391
0.322919 0.476203 -0.788341
0.325076 0.483012 -0.763698
0.294578 0.492176 -0.763747
0.319196 0.569633 -0.813826
0.348493 0.560737 -0.813776
0.350650 0.567547 -0.789133
0.320152 0.576711 -0.789182
0.294690 0.492143 -0.763746
0.325188 0.482979 -0.763697
0.327340 0.489771 -0.739048
0.295643 0.499211 -0.739100
0.320043 0.576758 -0.789134
0.350541 0.567594 -0.789085
0.352693 0.574386 -0.764436
0.320996 0.583827 -0.764488
0.154712 0.397673 -0.837842
0.168079 0.423846 -0.837921
0.168071 0.423888 -0.825565
0.154702 0.397714 -0.825486
0.072861 0.439476 -0.838040
0.086229 0.465650 -0.838119
0.086221 0.465691 -0.825763
0.072852 0.439518 -0.825684
0.163844 0.417083 -0.837903
0.181553 0.440538 -0.837969
0.181545 0.440580 -0.825614
0.163836 0.417125 -0.825547
0.090495 0.472463 -0.838137
0.108204 0.495918 -0.838204
0.108195 0.495959 -0.825848
0.090487 0.472504 -0.825781
0.176207 0.434612 -0.837953
0.197720 0.454636 -0.838005
0.197712 0.454677 -0.825650
0.176199 0.434654 -0.825597
0.113589 0.501887 -0.838221
0.135101 0.521911 -0.838274
0.135093 0.521952 -0.825918
0.113580 0.501929 -0.825865
0.191425 0.449727 -0.837996
0.216088 0.465711 -0.838033
0.216081 0.465751 -0.825677
0.191417 0.449769 -0.825640
0.141442 0.526855 -0.838284
0.166105 0.542839 -0.838321
0.166098 0.542879 -0.825964
0.141434 0.526897 -0.825928
0.209041 0.461972 -0.838022
0.236105 0.473430 -0.838042
0.236096 0.473473 -0.825687
0.209033 0.462012 -0.825666
0.173205 0.546605 -0.838331
0.200269 0.558063 -0.838351
0.200260 0.558106 -0.825996
0.173197 0.546646 -0.825975
0.228519 0.470972 -0.838037
0.257160 0.477563 -0.838040
0.257152 0.477604 -0.825684
0.228510 0.471015 -0.825681
0.207910 0.560539 -0.838357
0.236552 0.567130 -0.838361
0.236544 0.567172 -0.826005
0.207902 0.560582 -0.826002
0.249252 0.476458 -0.838041
0.278603 0.477970 -0.838026
0.278594 0.478014 -0.825670
0.249243 0.476499 -0.825685
0.244519 0.568243 -0.838360
0.273870 0.569756 -0.838345
0.273861 0.569799 -0.825990
0.244511 0.568285 -0.826004
0.270617 0.478257 -0.838033
0.299784 0.474645 -0.838001
0.299776 0.474687 -0.825645
0.270608 0.478300 -0.825677
0.281915 0.569467 -0.838338
0.311082 0.565856 -0.838307
0.311074 0.565897 -0.825951
0.281906 0.569511 -0.825983
0.291978 0.476313 -0.838014
0.320075 0.467689 -0.837965
0.320066 0.467732 -0.825610
0.291970 0.476355 -0.825658
0.318945 0.564175 -0.838294
0.347042 0.555551 -0.838246
0.347033 0.555594 -0.825890
0.318937 0.564217 -0.825938
0.127387 0.440216 -0.951540
0.111838 0.451154 -0.962897
0.133695 0.480243 -0.962983
0.147099 0.466772 -0.951613
0.089564 0.468698 -0.872766
0.074015 0.479636 -0.884124
0.095872 0.508725 -0.884210
0.109276 0.495254 -0.872840
0.144388 0.463722 -0.951599
0.130985 0.477193 -0.962969
0.157563 0.502042 -0.963040
0.168415 0.486449 -0.951660
0.112033 0.498356 -0.872855
0.098629 0.511827 -0.884225
0.125208 0.536676 -0.884295
0.136059 0.521083 -0.872916
0.165217 0.483922 -0.951650
0.154365 0.499515 -0.963030
0.184855 0.519372 -0.963078
0.192826 0.502130 -0.951693
0.139312 0.523652 -0.872926
0.128460 0.539245 -0.884306
0.158949 0.559101 -0.884354
0.166920 0.541860 -0.872969
0.189233 0.500202 -0.951689
0.181262 0.517443 -0.963074
0.214736 0.531703 -0.963100
0.219585 0.513338 -0.951715
0.170574 0.543821 -0.872973
0.162603 0.561063 -0.884358
0.196076 0.575322 -0.884384
0.200925 0.556957 -0.872999
0.215709 0.512066 -0.951716
0.210860 0.530431 -0.963101
0.246301 0.538660 -0.963106
0.247881 0.519730 -0.951723
0.204867 0.558251 -0.872998
0.200018 0.576616 -0.884383
0.235459 0.584845 -0.884388
0.237039 0.565915 -0.873005
0.243852 0.519151 -0.951726
0.242272 0.538082 -0.963109
0.278602 0.540035 -0.963089
0.276866 0.521116 -0.951711
0.241137 0.566503 -0.873002
0.239557 0.585434 -0.884385
0.275888 0.587387 -0.884365
0.274151 0.568468 -0.872987
0.272792 0.521241 -0.951714
0.274529 0.540160 -0.963092
0.310647 0.535776 -0.963055
0.305647 0.517446 -0.951678
0.278294 0.568342 -0.872984
0.280031 0.587260 -0.884363
0.316149 0.582877 -0.884326
0.311149 0.564547 -0.872949
0.301661 0.518272 -0.951682
0.306661 0.536602 -0.963059
0.341471 0.526017 -0.962998
0.333358 0.508833 -0.951626
0.315203 0.563707 -0.872945
0.320203 0.582037 -0.884322
0.355013 0.571452 -0.884261
0.346900 0.554268 -0.872890
0.153188 0.398488 -0.850431
0.146490 0.400575 -0.875111
0.160335 0.427882 -0.875193
0.166555 0.424662 -0.850510
0.074379 0.438664 -0.825488
0.067681 0.440751 -0.850169
0.081526 0.468058 -0.850251
0.087746 0.464837 -0.825567
0.146535 0.400693 -0.875160
0.139827 0.402785 -0.899837
0.154149 0.431228 -0.899921
0.160380 0.428000 -0.875242
0.067623 0.440637 -0.850170
0.060916 0.442728 -0.874847
0.075237 0.471171 -0.874931
0.081469 0.467944 -0.850251
0.139878 0.402888 -0.899841
0.133181 0.404974 -0.924521
0.147982 0.434550 -0.924609
0.154200 0.431331 -0.899925
0.060852 0.442630 -0.874893
0.054154 0.444717 -0.899572
0.068956 0.474293 -0.899661
0.075173 0.471073 -0.874977
0.162492 0.418152 -0.850493
0.156272 0.421372 -0.875176
0.174648 0.445861 -0.875246
0.180201 0.441607 -0.850560
0.091841 0.471398 -0.825584
0.085621 0.474618 -0.850267
0.103997 0.499107 -0.850337
0.109550 0.494852 -0.825651
0.156336 0.421481 -0.875227
0.150105 0.424708 -0.899906
0.169149 0.450232 -0.899978
0.174711 0.445969 -0.875296
0.085546 0.474517 -0.850267
0.079315 0.477744 -0.874946
0.098359 0.503268 -0.875018
0.103921 0.499006 -0.850336
0.150173 0.424799 -0.899905
0.143956 0.428019 -0.924589
0.163667 0.454575 -0.924663
0.169218 0.450323 -0.899977
0.079234 0.477660 -0.874996
0.073016 0.480879 -0.899680
0.092728 0.507435 -0.899754
0.098279 0.503184 -0.875068
0.175067 0.435900 -0.850546
0.169514 0.440154 -0.875232
0.191864 0.461079 -0.875287
0.196580 0.455924 -0.850599
0.114724 0.500604 -0.825665
0.109170 0.504858 -0.850350
0.131520 0.525783 -0.850406
0.136236 0.520628 -0.825717
0.169595 0.440250 -0.875282
0.164033 0.444512 -0.899965
0.187221 0.466340 -0.900022
0.191945 0.461174 -0.875338
0.109079 0.504772 -0.850349
0.103517 0.509034 -0.875032
0.126704 0.530863 -0.875088
0.131429 0.525697 -0.850405
0.164116 0.444587 -0.899959
0.158565 0.448839 -0.924645
0.182592 0.471566 -0.924706
0.187304 0.466416 -0.900016
0.103423 0.508968 -0.875087
0.097873 0.513219 -0.899773
0.121899 0.535946 -0.899834
0.126611 0.530797 -0.875144
0.190534 0.451194 -0.850586
0.185818 0.456349 -0.875274
0.211463 0.473074 -0.875314
0.215197 0.467178 -0.850623
0.142330 0.525394 -0.825730
0.137614 0.530549 -0.850418
0.163259 0.547274 -0.850458
0.166993 0.541378 -0.825767
0.185912 0.456428 -0.875327
0.181187 0.461594 -0.900011
0.207815 0.479061 -0.900052
0.211557 0.473153 -0.875366
0.137512 0.530482 -0.850416
0.132787 0.535648 -0.875100
0.159415 0.553115 -0.875141
0.163156 0.547206 -0.850455
0.181283 0.461654 -0.900000
0.176571 0.466803 -0.924690
0.204180 0.485011 -0.924734
0.207911 0.479121 -0.900042
0.132683 0.535599 -0.875159
0.127971 0.540749 -0.899849
0.155580 0.558957 -0.899893
0.159311 0.553067 -0.875201
0.208422 0.463570 -0.850614
0.204688 0.469467 -0.875304
0.232848 0.481484 -0.875327
0.235486 0.475028 -0.850634
0.173820 0.545013 -0.825777
0.170086 0.550909 -0.850467
0.198245 0.562927 -0.850490
0.200884 0.556471 -0.825797
0.204793 0.469527 -0.875354
0.201051 0.475435 -0.900041
0.230309 0.488011 -0.900065
0.232952 0.481544 -0.875377
0.169975 0.550862 -0.850467
0.166234 0.556771 -0.875153
0.195492 0.569346 -0.875178
0.198135 0.562880 -0.850489
0.201155 0.475478 -0.900034
0.197424 0.481368 -0.924726
0.227775 0.494504 -0.924752
0.230413 0.488053 -0.900059
0.166124 0.556741 -0.875209
0.162393 0.562631 -0.899901
0.192744 0.575767 -0.899926
0.195382 0.569316 -0.875233
0.228193 0.472652 -0.850624
0.225555 0.479108 -0.875317
0.255373 0.486054 -0.875321
0.256835 0.479243 -0.850627
0.208234 0.558866 -0.825807
0.205595 0.565322 -0.850500
0.235413 0.572267 -0.850504
0.236876 0.565457 -0.825810
0.225664 0.479148 -0.875368
0.223021 0.485615 -0.900056
0.254018 0.492920 -0.900062
0.255482 0.486094 -0.875372
0.205482 0.565295 -0.850498
0.202839 0.571762 -0.875187
0.233836 0.579067 -0.875192
0.235300 0.572240 -0.850503
0.223128 0.485639 -0.900053
0.220491 0.492090 -0.924746
0.252663 0.499754 -0.924753
0.254125 0.492944 -0.900059
0.202728 0.571750 -0.875239
0.200090 0.578201 -0.899932
0.232263 0.585865 -0.899939
0.233725 0.579056 -0.875245
0.249233 0.478168 -0.850622
0.247771 0.484978 -0.875316
0.278342 0.486642 -0.875301
0.278585 0.479680 -0.850607
0.244537 0.566540 -0.825816
0.243074 0.573351 -0.850510
0.273646 0.575015 -0.850495
0.273888 0.568053 -0.825801
0.247889 0.484999 -0.875367
0.246425 0.491825 -0.900057
0.278219 0.493637 -0.900043
0.278460 0.486663 -0.875353
0.242955 0.573344 -0.850508
0.241491 0.580170 -0.875198
0.273285 0.581981 -0.875184
0.273527 0.575008 -0.850494
0.246536 0.491833 -0.900060
0.245074 0.498642 -0.924754
0.278089 0.500607 -0.924739
0.278330 0.493644 -0.900046
0.241378 0.580177 -0.875244
0.239915 0.586986 -0.899938
0.272930 0.588951 -0.899923
0.273172 0.581988 -0.875230
0.270908 0.479944 -0.850613
0.270666 0.486906 -0.875307
0.301062 0.483233 -0.875274
0.300075 0.476333 -0.850582
0.281624 0.567787 -0.825795
0.281382 0.574749 -0.850489
0.311778 0.571076 -0.850456
0.310791 0.564175 -0.825763
0.270794 0.486905 -0.875358
0.270552 0.493879 -0.900049
0.302179 0.490148 -0.900014
0.301190 0.483232 -0.875325
0.281255 0.574764 -0.850488
0.281013 0.581737 -0.875178
0.312640 0.578006 -0.875143
0.311651 0.571090 -0.850454
0.270668 0.493866 -0.900053
0.270426 0.500830 -0.924746
0.303280 0.497035 -0.924710
0.302294 0.490135 -0.900018
0.280899 0.581763 -0.875223
0.280657 0.588727 -0.899916
0.313512 0.584932 -0.899881
0.312526 0.578032 -0.875188
0.292568 0.477926 -0.850599
0.293555 0.484827 -0.875291
0.322851 0.475935 -0.875240
0.320665 0.469302 -0.850550
0.318357 0.562569 -0.825746
0.319344 0.569469 -0.850439
0.348640 0.560577 -0.850388
0.346454 0.553945 -0.825698
0.293683 0.484803 -0.875342
0.294672 0.491718 -0.900031
0.325171 0.482554 -0.899977
0.322980 0.475911 -0.875291
0.319219 0.569507 -0.850437
0.320208 0.576422 -0.875126
0.350706 0.567258 -0.875072
0.348515 0.560615 -0.850386
0.294783 0.491684 -0.900027
0.295769 0.498584 -0.924720
0.327466 0.489145 -0.924664
0.325282 0.482519 -0.899974
0.320100 0.576470 -0.875179
0.321086 0.583370 -0.899871
0.352784 0.573931 -0.899816
0.350599 0.567305 -0.875125
0.114724 0.414109 -0.951466
0.097505 0.422180 -0.962813
0.113977 0.454623 -0.962912
0.129526 0.443685 -0.951554
0.072587 0.435595 -0.872663
0.055368 0.443665 -0.884010
0.071840 0.476108 -0.884109
0.087389 0.465170 -0.872751
0.329413 0.511156 -0.712216
0.358988 0.496356 -0.712149
0.369956 0.511948 -0.700879
0.337512 0.528418 -0.700954
0.350692 0.553000 -0.791231
0.380267 0.538200 -0.791165
0.391235 0.553791 -0.779894
0.358791 0.570262 -0.779969
0.355520 0.498505 -0.712158
0.382074 0.478791 -0.712072
0.395577 0.492241 -0.700795
0.366488 0.514097 -0.700887
0.383794 0.536014 -0.791156
0.410348 0.516300 -0.791071
0.423851 0.529749 -0.779794
0.394762 0.551606 -0.779885
0.379042 0.481508 -0.712079
0.401768 0.457481 -0.711983
0.417398 0.468383 -0.700701
0.392545 0.494958 -0.700802
0.413432 0.513537 -0.791064
0.436158 0.489510 -0.790968
0.451788 0.500412 -0.779686
0.426935 0.526986 -0.779787
0.399247 0.460689 -0.711993
0.417455 0.433081 -0.711886
0.434732 0.441102 -0.700593
0.414877 0.471591 -0.700711
0.438722 0.486248 -0.790958
0.456930 0.458639 -0.790852
0.474208 0.466660 -0.779559
0.454352 0.497149 -0.779676
0.415528 0.436668 -0.711900
0.428666 0.406317 -0.711788
0.447067 0.411216 -0.700483
0.432806 0.444689 -0.700607
0.458889 0.454991 -0.790838
0.472027 0.424640 -0.790726
0.490428 0.429539 -0.779421
0.476167 0.463011 -0.779545
0.427407 0.410176 -0.711794
0.435077 0.378006 -0.711680
0.454050 0.379636 -0.700377
0.445809 0.415075 -0.700489
0.473307 0.420714 -0.790719
0.480976 0.388544 -0.790605
0.499949 0.390174 -0.779303
0.491709 0.425613 -0.779415
0.434498 0.382045 -0.711690
0.436468 0.349030 -0.711580
0.455426 0.347343 -0.700258
0.453471 0.383675 -0.700388
0.481565 0.384437 -0.790595
0.483536 0.351422 -0.790485
0.502493 0.349734 -0.779163
0.500538 0.386067 -0.779292
0.436588 0.353091 -0.711596
0.432796 0.320237 -0.711490
0.451167 0.315280 -0.700161
0.455546 0.351403 -0.700274
0.483414 0.347293 -0.790469
0.479622 0.314439 -0.790362
0.497992 0.309482 -0.779034
0.502371 0.345605 -0.779147
0.433628 0.324225 -0.711501
0.424188 0.292528 -0.711403
0.441412 0.284456 -0.700063
0.451999 0.319268 -0.700173
0.478776 0.310384 -0.790350
0.469335 0.278687 -0.790253
0.486559 0.270615 -0.778913
0.497146 0.305427 -0.779022
0.313523 0.472302 -0.813047
0.339697 0.458933 -0.812984
0.342983 0.465254 -0.788335
0.315676 0.479099 -0.788399
0.353634 0.551008 -0.838415
0.379808 0.537639 -0.838352
0.383094 0.543960 -0.813703
0.355787 0.557805 -0.813767
0.315794 0.479055 -0.788349
0.343100 0.465210 -0.788285
0.346394 0.471540 -0.763639
0.317952 0.485865 -0.763706
0.355675 0.557862 -0.813768
0.382981 0.544016 -0.813704
0.386275 0.550347 -0.789058
0.357832 0.564671 -0.789126
0.318055 0.485811 -0.763710
0.346497 0.471487 -0.763643
0.349782 0.477803 -0.738994
0.320207 0.492603 -0.739061
0.357735 0.564738 -0.789072
0.386177 0.550413 -0.789005
0.389461 0.556730 -0.764356
0.359886 0.571530 -0.764423
0.333187 0.462996 -0.813002
0.356643 0.445288 -0.812927
0.360961 0.450939 -0.788274
0.336473 0.469316 -0.788353
0.386368 0.533545 -0.838334
0.409824 0.515837 -0.838259
0.414142 0.521488 -0.813607
0.389654 0.539865 -0.813685
0.336579 0.469255 -0.788302
0.361067 0.450877 -0.788223
0.365394 0.456538 -0.763576
0.339873 0.475585 -0.763656
0.389556 0.539939 -0.813687
0.414044 0.521561 -0.813608
0.418371 0.527222 -0.788960
0.392849 0.546269 -0.789041
0.339963 0.475517 -0.763658
0.365485 0.456470 -0.763578
0.369801 0.462119 -0.738924
0.343247 0.481833 -0.739009
0.392766 0.546349 -0.788989
0.418288 0.527303 -0.788909
0.422604 0.532951 -0.764255
0.396051 0.552666 -0.764340
0.350935 0.450421 -0.812950
0.370959 0.428908 -0.812864
0.376178 0.433721 -0.788208
0.355254 0.456071 -0.788297
0.415575 0.510665 -0.838237
0.435599 0.489152 -0.838151
0.440818 0.493965 -0.813495
0.419894 0.516315 -0.813584
0.355347 0.455993 -0.788247
0.376271 0.433643 -0.788158
0.381499 0.438464 -0.763505
0.359674 0.461654 -0.763599
0.419810 0.516404 -0.813585
0.440735 0.494054 -0.813496
0.445963 0.498875 -0.788843
0.424138 0.522065 -0.788937
0.359751 0.461572 -0.763598
0.381576 0.438382 -0.763504
0.386794 0.443194 -0.738849
0.364068 0.467221 -0.738944
0.424070 0.522158 -0.788888
0.445895 0.498967 -0.788794
0.451112 0.503780 -0.764139
0.428386 0.527806 -0.764234
0.366230 0.434954 -0.812887
0.382213 0.410291 -0.812794
0.388174 0.414123 -0.788134
0.371449 0.439767 -0.788232
0.440365 0.483059 -0.838127
0.456348 0.458395 -0.838033
0.462309 0.462228 -0.813373
0.445584 0.487872 -0.813471
0.371527 0.439672 -0.788184
0.388252 0.414028 -0.788086
0.394222 0.417866 -0.763430
0.376755 0.444493 -0.763531
0.445517 0.487975 -0.813469
0.462243 0.462331 -0.813371
0.468212 0.466169 -0.788714
0.450745 0.492796 -0.788816
0.376817 0.444400 -0.763527
0.394284 0.417772 -0.763426
0.400243 0.421604 -0.738765
