1.868062 0.866269 0.861774
1.867377 0.864935 0.867077
1.867340 0.871802 0.869911
1.868012 0.875053 0.865522
1.887883 0.865386 0.864135
1.887197 0.864053 0.869438
1.887160 0.870920 0.872272
1.887833 0.874171 0.867882
1.868749 0.867595 0.856471
1.868063 0.866279 0.861774
1.868013 0.875063 0.865521
1.868685 0.878331 0.861132
1.888569 0.866698 0.858823
1.887884 0.865381 0.864126
1.887834 0.874166 0.867873
1.888506 0.877434 0.863484
1.868008 0.875379 0.865743
1.867336 0.872128 0.870132
1.867225 0.877372 0.875374
1.867862 0.882077 0.872568
1.887837 0.873858 0.867671
1.887164 0.870607 0.872060
1.887053 0.875851 0.877302
1.887690 0.880556 0.874496
1.868681 0.878658 0.861356
1.868009 0.875389 0.865745
1.867862 0.882087 0.872571
1.868501 0.886776 0.869765
1.888510 0.877124 0.863271
1.887838 0.873856 0.867661
1.887691 0.880554 0.874487
1.888330 0.885243 0.871681
1.867854 0.882295 0.872897
1.867217 0.877589 0.875703
1.867048 0.880443 0.882555
1.867635 0.885854 0.881762
1.887698 0.880349 0.874182
1.887060 0.875643 0.876987
1.886891 0.878497 0.883839
1.887479 0.883908 0.883046
1.868493 0.886991 0.870097
1.867855 0.882303 0.872903
1.867636 0.885862 0.881768
1.868223 0.891290 0.880975
1.888337 0.885039 0.871366
1.887699 0.880351 0.874172
1.887480 0.883910 0.883037
1.888067 0.889338 0.882244
1.867625 0.885929 0.882149
1.867038 0.880518 0.882941
1.866837 0.880515 0.890360
1.867366 0.885840 0.891703
1.887488 0.883836 0.882676
1.886901 0.878425 0.883468
1.886700 0.878423 0.890887
1.887229 0.883747 0.892230
1.868213 0.891361 0.881365
1.867626 0.885933 0.882158
1.867366 0.885845 0.891712
1.867895 0.891152 0.893055
1.888076 0.889270 0.881874
1.887489 0.883842 0.882667
1.887230 0.883753 0.892221
1.887759 0.889061 0.893565
1.867355 0.885761 0.892088
1.866826 0.880437 0.890745
1.866623 0.877611 0.897601
1.867095 0.882006 0.900877
1.887239 0.883823 0.891861
1.886711 0.878498 0.890518
1.886508 0.875672 0.897373
1.886980 0.880067 0.900650
1.867884 0.891070 0.893441
1.867355 0.885762 0.892098
1.867095 0.882007 0.900887
1.867566 0.886418 0.904164
1.887769 0.889139 0.893198
1.887240 0.883831 0.891855
1.886980 0.880076 0.900645
1.887451 0.884487 0.903921
1.867085 0.881785 0.901204
1.866613 0.877390 0.897927
1.866441 0.872139 0.903176
1.866864 0.874966 0.907890
1.886989 0.880279 0.900337
1.886518 0.875884 0.897061
1.886345 0.870633 0.902310
1.886768 0.873460 0.907023
1.867556 0.886193 0.904490
1.867085 0.881782 0.901213
1.866864 0.874964 0.907899
1.867287 0.877774 0.912613
1.887461 0.884700 0.903612
1.886990 0.880288 0.900336
1.886769 0.873470 0.907022
1.887192 0.876280 0.911736
1.866856 0.874637 0.908107
1.866433 0.871810 0.903393
1.866316 0.864965 0.906236
1.866708 0.865762 0.911672
1.886775 0.873775 0.906816
1.886353 0.870947 0.902102
1.886235 0.864102 0.904945
1.886627 0.864899 0.910381
1.867279 0.877442 0.912828
1.866856 0.874631 0.908115
1.866708 0.865755 0.911680
1.867100 0.866569 0.917115
1.887199 0.876595 0.911532
1.886776 0.873785 0.906818
1.886628 0.864909 0.910383
1.887019 0.865723 0.915818
1.866704 0.865375 0.911746
1.866311 0.864578 0.906311
1.866268 0.857149 0.906316
1.866650 0.855826 0.911648
1.886632 0.865269 0.910309
1.886239 0.864473 0.904874
1.886196 0.857043 0.904879
1.886578 0.855720 0.910211
1.867095 0.866180 0.917187
1.866704 0.865366 0.911752
1.866650 0.855817 0.911653
1.867033 0.854478 0.916985
1.887023 0.866092 0.915750
1.886632 0.865278 0.910315
1.886578 0.855729 0.910216
1.886961 0.854389 0.915548
1.866650 0.855440 0.911569
1.866268 0.856763 0.906237
1.866304 0.849913 0.903403
1.866700 0.846639 0.907822
1.886578 0.856090 0.910286
1.886197 0.857413 0.904954
1.886232 0.850563 0.902120
1.886628 0.847288 0.906539
1.867033 0.854090 0.916902
1.866650 0.855430 0.911570
1.866701 0.846629 0.907823
1.867096 0.843372 0.912241
1.886961 0.854756 0.915626
1.886578 0.856095 0.910295
1.886629 0.847294 0.906548
1.887024 0.844037 0.910966
1.866704 0.846312 0.907601
1.866308 0.849587 0.903182
1.866420 0.844327 0.897941
1.866850 0.839632 0.900775
1.886625 0.847601 0.906750
1.886228 0.850876 0.902332
1.886340 0.845615 0.897090
1.886770 0.840920 0.899924
1.867100 0.843045 0.912017
1.866705 0.846303 0.907599
1.866850 0.839622 0.900773
1.867281 0.834909 0.903607
1.887020 0.844346 0.911178
1.886625 0.847603 0.906760
1.886770 0.840922 0.899934
1.887201 0.836210 0.902769
1.866857 0.839414 0.900446
1.866428 0.844110 0.897612
1.866596 0.841272 0.890760
1.867077 0.835838 0.891582
1.886762 0.841128 0.900239
1.886333 0.845823 0.897405
1.886502 0.842986 0.890553
1.886983 0.837552 0.891375
1.867289 0.834694 0.903275
1.866858 0.839406 0.900440
1.867078 0.835830 0.891576
1.867558 0.830413 0.892397
1.887193 0.836414 0.903084
1.886763 0.841126 0.900249
1.886983 0.837550 0.891384
1.887463 0.832133 0.892206
1.867087 0.835763 0.891196
1.866607 0.841197 0.890374
1.866808 0.841183 0.882955
1.867346 0.835869 0.881641
1.886973 0.837624 0.891744
1.886492 0.843058 0.890923
1.886693 0.843043 0.883504
1.887232 0.837729 0.882190
1.867568 0.830341 0.892008
1.867088 0.835759 0.891187
1.867347 0.835864 0.881632
1.867886 0.830534 0.880319
1.887453 0.832200 0.892574
1.886973 0.837618 0.891753
1.887232 0.837723 0.882199
1.887771 0.832392 0.880885
1.867357 0.835948 0.881255
1.866819 0.841262 0.882569
1.867021 0.844105 0.875714
1.867617 0.839687 0.872466
1.887221 0.837653 0.882560
1.886683 0.842967 0.883874
1.886885 0.845810 0.877019
1.887482 0.841392 0.873771
1.867897 0.830616 0.879932
1.867358 0.835947 0.881245
1.867618 0.839686 0.872456
1.868214 0.835285 0.869209
1.887761 0.832314 0.881251
1.887222 0.837645 0.882565
1.887482 0.841384 0.873776
1.888078 0.836983 0.870529
1.867628 0.839907 0.872140
1.867031 0.844325 0.875388
1.867204 0.849559 0.870139
1.867848 0.846743 0.865454
1.887472 0.841181 0.874083
1.886875 0.845599 0.877331
1.887048 0.850833 0.872082
1.887693 0.848017 0.867397
1.868224 0.835510 0.868883
1.867628 0.839910 0.872131
1.867849 0.846746 0.865444
1.868494 0.843912 0.860760
1.888069 0.836770 0.870837
1.887473 0.841171 0.874085
1.887693 0.848006 0.867399
1.888338 0.845173 0.862714
1.867856 0.847071 0.865236
1.867212 0.849888 0.869921
1.867328 0.856750 0.867078
1.868005 0.855930 0.861671
1.887685 0.847702 0.867605
1.887041 0.850519 0.872290
1.887157 0.857381 0.869447
1.887834 0.856561 0.864040
1.868502 0.844244 0.860545
1.867857 0.847078 0.865230
1.868006 0.855937 0.861665
1.868681 0.855134 0.856258
1.888331 0.844858 0.862917
1.887686 0.847692 0.867602
1.887835 0.856550 0.864037
1.888510 0.855747 0.858631
1.868010 0.856317 0.861596
1.867333 0.857137 0.867003
1.867377 0.864549 0.866998
1.868062 0.865883 0.861695
1.887830 0.856190 0.864112
1.887153 0.857010 0.869519
1.887197 0.864423 0.869514
1.887883 0.865756 0.864211
1.868685 0.855522 0.856187
1.868010 0.856326 0.861593
1.868063 0.865892 0.861692
1.868749 0.867208 0.856389
1.888506 0.855379 0.858699
1.887831 0.856182 0.864105
1.887884 0.865748 0.864204
1.888570 0.867065 0.858901
1.867124 0.863327 0.874209
1.867106 0.868495 0.876010
1.867263 0.871417 0.870826
1.867300 0.864550 0.867992
1.887097 0.863210 0.874749
1.887079 0.868378 0.876551
1.887236 0.871300 0.871367
1.887273 0.864433 0.868533
1.866949 0.862086 0.880431
1.866946 0.867765 0.881756
1.867106 0.868493 0.876016
1.867124 0.863326 0.874215
1.886922 0.861969 0.880972
1.886919 0.867648 0.882296
1.887079 0.868376 0.876557
1.887097 0.863209 0.874755
1.866773 0.860862 0.886654
1.866779 0.866907 0.887747
1.866946 0.867764 0.881762
1.866949 0.862085 0.880437
1.886745 0.860745 0.887195
1.886752 0.866790 0.888288
1.886918 0.867647 0.882303
1.886921 0.861968 0.880978
1.866773 0.860860 0.886659
1.866599 0.859366 0.892765
1.866615 0.865270 0.893431
1.866779 0.866905 0.887753
1.886745 0.860743 0.887201
1.886571 0.859249 0.893307
1.886587 0.865153 0.893972
1.886751 0.866788 0.888294
1.866773 0.860854 0.886658
1.866771 0.854642 0.885407
1.866614 0.853596 0.890955
1.866599 0.859360 0.892764
1.886745 0.860737 0.887200
1.886743 0.854525 0.885949
1.886586 0.853479 0.891496
1.886571 0.859243 0.893306
1.866949 0.862079 0.880436
1.866931 0.856202 0.879804
1.866771 0.854643 0.885402
1.866773 0.860856 0.886653
1.886921 0.861962 0.880977
1.886904 0.856085 0.880345
1.886743 0.854527 0.885943
1.886745 0.860739 0.887194
1.867124 0.863320 0.874214
1.867099 0.857828 0.873962
1.866932 0.856203 0.879798
1.866949 0.862080 0.880430
1.887097 0.863203 0.874754
1.887072 0.857711 0.874502
1.886904 0.856087 0.880338
1.886922 0.861963 0.880971
1.867256 0.857132 0.867996
1.867100 0.857829 0.873956
1.867124 0.863321 0.874207
1.867300 0.864544 0.867991
1.887229 0.857015 0.868537
1.887072 0.857712 0.874497
1.887097 0.863204 0.874748
1.887273 0.864427 0.868532
1.867140 0.850263 0.870840
1.867059 0.852574 0.874302
1.867099 0.857823 0.873956
1.867256 0.857125 0.867997
1.887112 0.850147 0.871381
1.887031 0.852458 0.874843
1.887072 0.857706 0.874497
1.887229 0.857009 0.868538
1.866967 0.845024 0.876093
1.866920 0.850003 0.878895
1.867059 0.852569 0.874305
1.867140 0.850258 0.870843
1.886939 0.844907 0.876634
1.886892 0.849887 0.879436
1.887031 0.852453 0.874846
1.887112 0.850142 0.871384
1.866764 0.842178 0.882953
1.866768 0.848305 0.884118
1.866920 0.850000 0.878900
1.866967 0.845021 0.876098
1.886737 0.842062 0.883495
1.886741 0.848189 0.884660
1.886892 0.849884 0.879442
1.886939 0.844904 0.876639
1.866563 0.842192 0.890378
1.866620 0.848030 0.889536
1.866768 0.848304 0.884125
1.866764 0.842177 0.882960
1.886535 0.842075 0.890919
1.886593 0.847913 0.890077
1.886740 0.848187 0.884666
1.886736 0.842060 0.883500
1.866394 0.845030 0.897236
1.866486 0.848583 0.894583
1.866620 0.848030 0.889542
1.866563 0.842193 0.890384
1.886366 0.844913 0.897777
1.886459 0.848466 0.895125
1.886593 0.847914 0.890083
1.886535 0.842076 0.890925
1.866282 0.850293 0.902482
1.866452 0.853094 0.896851
1.866486 0.848586 0.894588
1.866394 0.845033 0.897240
1.886254 0.850176 0.903024
1.886424 0.852977 0.897393
1.886458 0.848469 0.895130
1.886366 0.844916 0.897782
1.866246 0.857149 0.905320
1.866428 0.858342 0.898855
1.866452 0.853100 0.896855
1.866282 0.850299 0.902486
1.886218 0.857031 0.905861
1.886400 0.858225 0.899396
1.886424 0.852982 0.897396
1.886254 0.850182 0.903027
1.866289 0.864584 0.905316
1.866456 0.863777 0.899010
1.866428 0.858348 0.898856
1.866246 0.857155 0.905321
1.886262 0.864467 0.905857
1.886428 0.863661 0.899551
1.886400 0.858231 0.899397
1.886218 0.857038 0.905862
1.866407 0.871435 0.902472
1.866504 0.868716 0.898288
1.866456 0.863784 0.899009
1.866289 0.864590 0.905315
1.886379 0.871319 0.903013
1.886476 0.868599 0.898829
1.886428 0.863667 0.899550
1.886262 0.864474 0.905856
1.866579 0.876691 0.897219
1.866635 0.871061 0.893961
1.866504 0.868721 0.898285
1.866407 0.871440 0.902468
1.886551 0.876575 0.897761
1.886608 0.870945 0.894502
1.886476 0.868605 0.898826
1.886379 0.871324 0.903010
1.866782 0.879520 0.890358
1.866783 0.873074 0.888920
1.866636 0.871064 0.893955
1.866579 0.876694 0.897214
1.886754 0.879404 0.890900
1.886756 0.872958 0.889461
1.886608 0.870949 0.894497
1.886552 0.876578 0.897756
1.866983 0.879524 0.882935
1.866934 0.873459 0.883447
1.866783 0.873076 0.888914
1.866782 0.879521 0.890353
1.886955 0.879407 0.883475
1.886906 0.873343 0.883987
1.886756 0.872959 0.889454
1.886755 0.879405 0.890893
1.867152 0.876669 0.876076
1.867067 0.873054 0.878425
1.866934 0.873458 0.883440
1.866983 0.879523 0.882928
1.887125 0.876553 0.876618
1.887040 0.872937 0.878966
1.886906 0.873342 0.883982
1.886955 0.879407 0.883469
1.867106 0.868500 0.876014
1.867068 0.873051 0.878420
1.867152 0.876666 0.876072
1.867263 0.871423 0.870830
1.887079 0.868383 0.876554
1.887040 0.872934 0.878961
1.887125 0.876549 0.876612
1.887236 0.871306 0.871370
1.866946 0.867770 0.881757
1.866934 0.873453 0.883440
1.867067 0.873049 0.878424
1.867106 0.868498 0.876017
1.886919 0.867654 0.882299
1.886906 0.873337 0.883982
1.887040 0.872932 0.878966
1.887078 0.868382 0.876559
1.866779 0.866912 0.887749
1.866783 0.873069 0.888913
1.866934 0.873453 0.883446
1.866946 0.867770 0.881763
1.886752 0.866796 0.888289
1.886756 0.872953 0.889454
1.886906 0.873337 0.883986
1.886918 0.867654 0.882304
1.866615 0.865276 0.893432
1.866636 0.871059 0.893954
1.866783 0.873069 0.888918
1.866779 0.866912 0.887754
1.886587 0.865158 0.893973
1.886608 0.870942 0.894495
1.886756 0.872952 0.889460
1.886751 0.866794 0.888295
1.866615 0.865274 0.893437
1.866456 0.863784 0.899004
1.866504 0.868716 0.898283
1.866635 0.871057 0.893959
1.886587 0.865157 0.893978
1.886428 0.863667 0.899545
1.886476 0.868599 0.898824
1.886608 0.870940 0.894500
1.866599 0.859364 0.892772
1.866428 0.858349 0.898850
1.866456 0.863778 0.899004
1.866615 0.865268 0.893437
1.886571 0.859248 0.893312
1.886400 0.858232 0.899391
1.886428 0.863661 0.899545
1.886587 0.865151 0.893978
1.866614 0.853595 0.890961
1.866452 0.853101 0.896849
1.866428 0.858343 0.898849
1.866599 0.859359 0.892770
1.886586 0.853478 0.891502
1.886424 0.852984 0.897390
1.886400 0.858226 0.899390
1.886571 0.859242 0.893311
1.866614 0.853590 0.890959
1.866620 0.848035 0.889542
1.866486 0.848588 0.894583
1.866452 0.853095 0.896846
1.886586 0.853473 0.891500
1.886593 0.847919 0.890083
1.886459 0.848471 0.895125
1.886424 0.852979 0.897388
1.866771 0.854636 0.885406
1.866768 0.848310 0.884125
1.866621 0.848035 0.889536
1.866614 0.853590 0.890953
1.886743 0.854519 0.885947
1.886740 0.848193 0.884667
1.886593 0.847919 0.890078
1.886586 0.853473 0.891494
1.866920 0.850007 0.878902
1.866768 0.848311 0.884120
1.866771 0.854637 0.885401
1.866931 0.856196 0.879803
1.886892 0.849889 0.879443
1.886741 0.848194 0.884661
1.886743 0.854520 0.885942
1.886904 0.856079 0.880344
1.866931 0.856198 0.879798
1.867099 0.857822 0.873961
1.867059 0.852574 0.874307
1.866920 0.850008 0.878897
1.886904 0.856081 0.880338
1.887072 0.857706 0.874502
1.887031 0.852458 0.874847
1.886892 0.849892 0.879438
