3.779158 0.645773 0.429661
3.780729 0.637739 0.411962
3.761940 0.622355 0.396889
3.762341 0.640448 0.424087
3.794165 0.583379 0.466361
3.795737 0.575346 0.448662
3.776948 0.559961 0.433589
3.777348 0.578055 0.460787
3.764714 0.688067 0.408819
3.767243 0.682020 0.412679
3.773886 0.679351 0.391415
3.701893 0.652153 0.393699
3.704421 0.646106 0.397558
3.711065 0.643437 0.376294
3.750800 0.615868 0.439194
3.738384 0.604953 0.487686
3.738094 0.619350 0.491152
3.751207 0.625595 0.438748
3.822527 0.613303 0.456906
3.810111 0.602388 0.505398
3.809821 0.616784 0.508864
3.822934 0.623030 0.456460
3.740204 0.606140 0.482370
3.720399 0.590154 0.527225
3.718700 0.602785 0.533238
3.739914 0.620537 0.485835
3.808259 0.601175 0.510811
3.788454 0.585188 0.555667
3.786755 0.597820 0.561680
3.807969 0.615571 0.514277
3.722440 0.594250 0.524138
3.695743 0.577203 0.564916
3.694048 0.587152 0.573739
3.720740 0.606881 0.530151
3.786366 0.581057 0.558842
3.759670 0.564011 0.599620
3.757975 0.573960 0.608443
3.784667 0.593689 0.564855
3.761141 0.644909 0.446867
3.749829 0.638309 0.493511
3.765542 0.639318 0.500933
3.777958 0.650233 0.452441
3.778536 0.573598 0.438076
3.767225 0.566999 0.484720
3.782937 0.568007 0.492143
3.795353 0.578923 0.443651
3.750635 0.637517 0.498537
3.734778 0.621679 0.542106
3.746543 0.622540 0.550815
3.766348 0.638526 0.505959
3.766389 0.567766 0.479786
3.750532 0.551927 0.523355
3.762297 0.552788 0.532064
3.782102 0.568774 0.487209
3.734415 0.621699 0.541711
3.706303 0.605988 0.578485
3.719484 0.605513 0.591198
3.746180 0.622559 0.550420
3.750849 0.551875 0.523833
3.722738 0.536164 0.560606
3.735918 0.535690 0.573319
3.762615 0.552736 0.532542
3.763713 0.678063 0.476709
3.747031 0.669021 0.501650
3.754680 0.640456 0.523635
3.772172 0.650668 0.493352
3.719406 0.636340 0.434743
3.702723 0.627298 0.459684
3.710372 0.598733 0.481669
3.727865 0.608946 0.451386
3.773696 0.651455 0.490725
3.756203 0.641243 0.521008
3.766312 0.608495 0.551050
3.782169 0.624333 0.507480
3.726359 0.608101 0.454055
3.708866 0.597888 0.484339
3.718975 0.565140 0.514380
3.734832 0.580979 0.470811
3.740077 0.672049 0.504430
3.719179 0.662386 0.525686
3.725226 0.627785 0.558525
3.747726 0.643484 0.526415
3.709638 0.624247 0.456959
3.688740 0.614584 0.478215
3.694787 0.579983 0.511053
3.717287 0.595683 0.478944
3.747235 0.644989 0.525125
3.724735 0.629289 0.557235
3.729232 0.596530 0.591940
3.757343 0.612241 0.555167
3.717793 0.594113 0.480293
3.695292 0.578414 0.512403
3.699789 0.545655 0.547108
3.727901 0.561365 0.510335
3.779651 0.704278 0.416484
3.756952 0.687791 0.464070
3.761763 0.683528 0.472013
3.774414 0.687113 0.443572
3.739265 0.651676 0.383819
3.716566 0.635189 0.431404
3.721377 0.630926 0.439348
3.734028 0.634511 0.410906
3.743388 0.694290 0.463441
3.726723 0.687112 0.486593
3.731517 0.680985 0.496326
3.748199 0.690027 0.471385
3.730096 0.628672 0.432094
3.713431 0.621494 0.455246
3.718224 0.615367 0.464980
3.734907 0.624409 0.440038
3.726759 0.685157 0.490150
3.708021 0.677020 0.511320
3.710655 0.669366 0.521139
3.731553 0.679029 0.499883
3.713359 0.623433 0.451735
3.694620 0.615297 0.472905
3.697254 0.607642 0.482725
3.718152 0.617306 0.461468
3.722939 0.698625 0.407506
3.707626 0.696648 0.422502
3.723856 0.696053 0.450087
3.746555 0.712540 0.402502
3.748726 0.629503 0.402775
3.733412 0.627527 0.417772
3.749643 0.626931 0.445357
3.772342 0.643419 0.397772
3.714833 0.698192 0.425645
3.697208 0.694674 0.437488
3.714399 0.690419 0.476382
3.731064 0.697597 0.453230
3.726168 0.625968 0.414678
3.708543 0.622450 0.426521
3.725734 0.618195 0.465415
3.742399 0.625373 0.442263
3.696698 0.694281 0.439232
3.678120 0.689710 0.449148
3.695151 0.681890 0.499297
3.713889 0.690027 0.478127
3.709017 0.622830 0.424810
3.690438 0.618258 0.434725
3.707469 0.610439 0.484874
3.726208 0.618576 0.463704
3.753143 0.691593 0.423874
3.737030 0.690950 0.438969
3.740357 0.683569 0.442730
3.755671 0.685546 0.427734
3.713443 0.648630 0.378672
3.697331 0.647986 0.393768
3.700658 0.640606 0.397528
3.715972 0.642582 0.382532
3.732804 0.688450 0.443973
3.715294 0.684923 0.456893
3.718505 0.677551 0.459577
3.736131 0.681069 0.447734
3.701524 0.650481 0.388791
3.684015 0.646954 0.401711
3.687225 0.639582 0.404395
3.704851 0.643101 0.392552
3.712077 0.682321 0.460022
3.692983 0.677942 0.470145
3.696710 0.670377 0.472621
3.715288 0.674948 0.462706
3.687195 0.649549 0.398605
3.668101 0.645170 0.408729
3.671828 0.637605 0.411204
3.690406 0.642177 0.401289
3.555429 0.547425 0.565935
3.557532 0.536193 0.563607
3.514514 0.542499 0.516573
3.513618 0.558426 0.517859
3.499935 0.535014 0.613172
3.502037 0.523781 0.610844
3.459019 0.530088 0.563810
3.458123 0.546015 0.565096
3.516020 0.563023 0.523031
3.516916 0.547097 0.521745
3.485216 0.553570 0.466933
3.477707 0.570805 0.471315
3.455644 0.541433 0.559823
3.456540 0.525507 0.558537
3.424840 0.531980 0.503725
3.417331 0.549214 0.508106
3.537184 0.571365 0.583488
3.489371 0.571561 0.541306
3.483375 0.572585 0.546291
3.526393 0.566278 0.593325
3.543977 0.498771 0.571281
3.496164 0.498967 0.529099
3.490168 0.499991 0.534083
3.533186 0.493684 0.581117
3.492880 0.571838 0.540541
3.462057 0.581739 0.485968
3.455183 0.579335 0.490713
3.486883 0.572862 0.545525
3.492579 0.498702 0.529764
3.461757 0.508604 0.475192
3.454883 0.506199 0.479937
3.486583 0.499726 0.534749
3.516840 0.624098 0.536454
3.482360 0.621186 0.514426
3.479181 0.592351 0.534765
3.520117 0.588957 0.568430
3.553349 0.583440 0.486664
3.518870 0.580528 0.464636
3.515690 0.551693 0.484974
3.556626 0.548299 0.518640
3.475835 0.616885 0.511794
3.446655 0.616262 0.482988
3.441661 0.589123 0.493820
3.472655 0.588050 0.532132
3.525327 0.584829 0.467207
3.496147 0.584206 0.438402
3.491153 0.557067 0.449233
3.522147 0.555994 0.487546
3.518936 0.589233 0.567281
3.477999 0.592627 0.533616
3.473337 0.555922 0.558902
3.521149 0.555725 0.601084
3.557807 0.547956 0.519844
3.516870 0.551350 0.486179
3.512208 0.514644 0.511465
3.560020 0.514448 0.553647
3.469917 0.586515 0.529860
3.438922 0.587587 0.491547
3.434432 0.559711 0.500573
3.465254 0.549809 0.555146
3.524877 0.557469 0.489851
3.493883 0.558542 0.451538
3.489393 0.530665 0.460564
3.520215 0.520764 0.515137
3.520866 0.638595 0.520948
3.487858 0.635539 0.500345
3.486083 0.629011 0.508580
3.520563 0.631923 0.530608
3.549930 0.582326 0.482815
3.516922 0.579270 0.462212
3.515148 0.572742 0.470447
3.549627 0.575654 0.492475
3.484665 0.635035 0.498273
3.457866 0.634914 0.470087
3.453711 0.627883 0.477702
3.482891 0.628507 0.506508
3.520053 0.579770 0.464235
3.493254 0.579649 0.436050
3.489099 0.572619 0.443664
3.518279 0.573242 0.472470
3.538088 0.659467 0.454408
3.513812 0.656867 0.442963
3.494718 0.642788 0.488734
3.527726 0.645844 0.509336
3.553448 0.588721 0.439439
3.529172 0.586121 0.427994
3.510078 0.572042 0.473765
3.543086 0.575098 0.494367
3.513140 0.656852 0.442286
3.490222 0.653361 0.428545
3.467246 0.642652 0.459871
3.494046 0.642773 0.488057
3.529791 0.586131 0.428634
3.506873 0.582640 0.414893
3.483897 0.571931 0.446219
3.510697 0.572052 0.474405
3.527810 0.644806 0.474251
3.505301 0.641870 0.463263
3.505187 0.632383 0.466787
3.529463 0.634983 0.478232
3.560433 0.623051 0.411581
3.537925 0.620115 0.400593
3.537811 0.610628 0.404117
3.562087 0.613228 0.415562
3.501936 0.643163 0.460757
3.480819 0.640655 0.447022
3.478905 0.630185 0.450539
3.501822 0.633676 0.464280
3.541244 0.618817 0.403075
3.520128 0.616309 0.389340
3.518213 0.605838 0.392857
3.541130 0.609330 0.406598
3.578366 0.551466 0.597448
3.580311 0.547347 0.592793
3.555183 0.546364 0.565945
3.553080 0.557597 0.568272
3.527637 0.518699 0.640086
3.529582 0.514581 0.635431
3.504453 0.513598 0.608582
3.502351 0.524831 0.610910
3.595678 0.637394 0.551604
3.562130 0.631844 0.548427
3.571276 0.596905 0.579834
3.610946 0.601541 0.582994
3.607006 0.591142 0.495058
3.573457 0.585592 0.491881
3.582604 0.550652 0.523289
3.622274 0.555288 0.526448
3.611901 0.602972 0.581941
3.572231 0.598336 0.578782
3.580517 0.565411 0.610465
3.625544 0.568244 0.615257
3.621343 0.553788 0.527564
3.581673 0.549152 0.524405
3.589959 0.516227 0.556088
3.634986 0.519061 0.560880
3.558136 0.631699 0.547449
3.525510 0.626758 0.538878
3.528787 0.591617 0.570854
3.567283 0.596760 0.578857
3.577379 0.585727 0.492848
3.544752 0.580785 0.484276
3.548030 0.545644 0.516252
3.586525 0.550788 0.524255
3.569264 0.598507 0.577939
3.530768 0.593364 0.569936
3.532982 0.559856 0.603740
3.577550 0.565581 0.609623
3.584556 0.548972 0.525237
3.546060 0.543829 0.517234
3.548274 0.510321 0.551037
3.592842 0.516047 0.556920
3.592214 0.648143 0.539156
3.559357 0.642553 0.535608
3.560764 0.636459 0.543556
3.594313 0.642009 0.546732
3.606258 0.592702 0.492314
3.573401 0.587113 0.488766
3.574809 0.581019 0.496713
3.608357 0.586569 0.499890
3.555888 0.643215 0.533419
3.524972 0.638852 0.523135
3.524669 0.632179 0.532795
3.557295 0.637121 0.541366
3.576805 0.586441 0.490942
3.545890 0.582078 0.480659
3.545586 0.575405 0.490319
3.578213 0.580347 0.498890
3.591264 0.668701 0.465667
3.564644 0.664055 0.462074
3.559337 0.650263 0.520032
3.592194 0.655853 0.523580
3.605347 0.597860 0.449912
3.578728 0.593214 0.446319
3.573421 0.579422 0.504276
3.606278 0.585012 0.507825
3.563807 0.663964 0.461681
3.537947 0.659432 0.454428
3.527584 0.645809 0.509356
3.558500 0.650172 0.519639
3.579507 0.593295 0.446698
3.553647 0.588763 0.439445
3.543284 0.575140 0.494373
3.574200 0.579503 0.504656
3.588729 0.655790 0.487235
3.562717 0.651345 0.483690
3.564754 0.642391 0.487770
3.591373 0.647037 0.491363
3.602593 0.628299 0.420026
3.576582 0.623854 0.416481
3.578618 0.614900 0.420561
3.605238 0.619546 0.424154
3.558413 0.649606 0.483190
3.532936 0.645943 0.476036
3.534589 0.636121 0.480017
3.560450 0.640653 0.487270
3.580834 0.625584 0.416969
3.555357 0.621920 0.409814
3.557010 0.612098 0.413795
3.582870 0.616630 0.421049
3.690669 0.668348 0.475369
3.686942 0.675913 0.472893
3.645565 0.665587 0.485227
3.648815 0.657339 0.488202
3.677808 0.639619 0.408479
3.674081 0.647184 0.406003
3.632704 0.636858 0.418337
3.635953 0.628610 0.421312
3.641237 0.656881 0.488989
3.637988 0.665129 0.486015
3.594592 0.655968 0.487856
3.597236 0.647215 0.491985
3.643445 0.629048 0.420539
3.640196 0.637296 0.417564
3.596800 0.628135 0.419405
3.599444 0.619382 0.423534
3.706325 0.663533 0.529036
3.656799 0.650578 0.546756
3.668336 0.614787 0.577544
3.712372 0.628932 0.561874
3.701526 0.613410 0.474909
3.652001 0.600455 0.492629
3.663537 0.564664 0.523417
3.707573 0.578809 0.507747
3.709668 0.629860 0.561091
3.665632 0.615715 0.576761
3.675369 0.578000 0.612105
3.714165 0.597101 0.595796
3.710293 0.577811 0.508598
3.666257 0.563665 0.524268
3.675994 0.525950 0.559612
3.714790 0.545051 0.543303
3.651354 0.649006 0.548075
3.598389 0.637778 0.551702
3.613657 0.601924 0.583092
3.662890 0.613215 0.578863
3.657348 0.602003 0.491331
3.604383 0.590775 0.494959
3.619651 0.554921 0.526349
3.668885 0.566212 0.522119
3.662622 0.614441 0.577768
3.613388 0.603150 0.581998
3.627031 0.568423 0.615313
3.672359 0.576726 0.613112
3.669178 0.564913 0.523279
3.619945 0.553623 0.527509
3.633588 0.518895 0.560824
3.678916 0.527198 0.558623
3.701706 0.675393 0.514733
3.652901 0.661391 0.533723
3.654814 0.654783 0.542273
3.704340 0.667739 0.524552
3.700866 0.616902 0.469532
3.652061 0.602900 0.488521
3.653975 0.596292 0.497072
3.703500 0.609248 0.479351
3.648134 0.660412 0.534545
3.594984 0.648710 0.539146
3.597083 0.642577 0.546722
3.650048 0.653805 0.543095
3.656725 0.603853 0.487722
3.603574 0.592152 0.492323
3.605673 0.586018 0.499900
3.658638 0.597246 0.496272
3.694307 0.681569 0.500074
3.677276 0.689388 0.449925
3.635422 0.678379 0.462758
3.645502 0.667567 0.519064
3.708249 0.610742 0.484128
3.691218 0.618561 0.433979
3.649363 0.607553 0.446811
3.659444 0.596740 0.503117
3.645274 0.667509 0.519117
3.635193 0.678322 0.462810
3.591193 0.668656 0.465806
3.592123 0.655808 0.523718
3.659578 0.596774 0.503085
3.649497 0.607587 0.446779
3.605497 0.597921 0.449774
3.606427 0.585073 0.507686
3.625237 0.579941 0.682112
3.595184 0.575771 0.667828
3.592607 0.574396 0.678116
3.625470 0.577803 0.690482
3.638866 0.508245 0.670324
3.608812 0.504075 0.656040
3.606236 0.502699 0.666328
3.639098 0.506107 0.678694
3.593645 0.575929 0.662377
3.571865 0.570571 0.636961
3.565645 0.569638 0.648146
3.591068 0.574553 0.672665
3.610296 0.503908 0.661453
3.588516 0.498551 0.636037
3.582297 0.497617 0.647222
3.607720 0.502533 0.671741
3.584258 0.570924 0.631270
3.559061 0.567329 0.608936
3.557117 0.571447 0.613591
3.578039 0.569990 0.642455
3.576076 0.498193 0.641677
3.550879 0.494598 0.619343
3.548935 0.498716 0.623997
3.569857 0.497259 0.652862
3.703333 0.604377 0.581050
3.695789 0.589520 0.615362
3.704406 0.588761 0.627460
3.716514 0.603903 0.593763
3.725670 0.537744 0.558113
3.718126 0.522887 0.592425
3.726743 0.522128 0.604523
3.738851 0.537269 0.570826
3.697694 0.591347 0.610613
3.684553 0.580722 0.644488
3.689196 0.580619 0.655270
3.706311 0.590588 0.622711
3.716195 0.521034 0.597242
3.703054 0.510409 0.631117
3.707697 0.510306 0.641899
3.724812 0.520275 0.609340
3.694130 0.582356 0.641309
3.667447 0.581119 0.667237
3.669233 0.579307 0.676075
3.698773 0.582254 0.652091
3.693434 0.508762 0.634355
3.666750 0.507524 0.660283
3.668536 0.505712 0.669121
3.698076 0.508659 0.645137
3.669404 0.580333 0.671770
3.634422 0.580108 0.684210
3.634655 0.577970 0.692580
3.671190 0.578521 0.680608
3.664729 0.508307 0.655787
3.629748 0.508082 0.668227
3.629980 0.505944 0.676597
3.666516 0.506495 0.664625
3.579947 0.573117 0.665576
3.559291 0.567433 0.641116
3.556399 0.558591 0.651416
3.578178 0.563949 0.676832
3.627538 0.525066 0.635721
3.606882 0.519383 0.611261
3.603989 0.510541 0.621561
3.625769 0.515898 0.646976
3.564604 0.572792 0.638882
3.543866 0.567849 0.614269
3.536514 0.560356 0.626847
3.561711 0.563951 0.649181
3.601525 0.514014 0.613447
3.580788 0.509070 0.588834
3.573436 0.501577 0.601412
3.598633 0.505172 0.623747
3.549707 0.572103 0.610214
3.528018 0.568714 0.586107
3.517227 0.563627 0.595944
3.542355 0.564610 0.622792
3.574901 0.504809 0.592840
3.553212 0.501421 0.568732
3.542421 0.496334 0.578569
3.567549 0.497316 0.605418
3.628136 0.580297 0.583888
3.609933 0.581126 0.599519
3.607482 0.583159 0.619237
3.628874 0.584972 0.623282
3.632430 0.506981 0.592331
3.614227 0.507810 0.607962
3.611776 0.509842 0.627681
3.633167 0.511656 0.631725
3.628281 0.580332 0.584122
3.583254 0.577498 0.579330
3.594506 0.579757 0.595712
3.610078 0.581161 0.599753
3.632256 0.506941 0.592064
3.587229 0.504107 0.587272
3.598481 0.506366 0.603654
3.614053 0.507770 0.607694
3.609495 0.581135 0.599853
3.593923 0.579731 0.595813
3.589593 0.580621 0.608142
3.607044 0.583168 0.619572
3.614628 0.507798 0.607626
3.599057 0.506394 0.603585
3.594726 0.507284 0.615914
3.612177 0.509831 0.627344
3.604999 0.583010 0.619995
3.587547 0.580463 0.608565
3.578485 0.579921 0.622692
3.599141 0.585605 0.647152
3.614212 0.509991 0.626958
3.596760 0.507444 0.615527
3.587698 0.506903 0.629654
3.608354 0.512586 0.654114
3.592976 0.579720 0.596512
3.581724 0.577462 0.580130
3.576358 0.578068 0.595757
3.588645 0.580610 0.608840
3.599976 0.506401 0.602863
3.588724 0.504142 0.586482
3.583358 0.504749 0.602109
3.595645 0.507290 0.615192
3.586124 0.580367 0.610063
3.573837 0.577826 0.596980
3.556324 0.574882 0.599578
3.577062 0.579826 0.624190
3.598148 0.507532 0.613992
3.585861 0.504990 0.600908
3.568348 0.502047 0.603506
3.589086 0.506990 0.628119
3.574813 0.577990 0.597309
3.580179 0.577383 0.581683
3.535611 0.571657 0.575799
3.557300 0.575046 0.599907
3.584860 0.504821 0.600540
3.590226 0.504214 0.584913
3.545658 0.498488 0.579030
3.567347 0.501877 0.603137
3.684438 0.571724 0.681494
3.711121 0.572962 0.655566
3.701636 0.581260 0.649956
3.678967 0.581490 0.673830
3.649749 0.516928 0.646010
3.676432 0.518166 0.620082
3.666947 0.526464 0.614472
3.644278 0.526694 0.638346
3.709817 0.575177 0.653058
3.722958 0.585802 0.619183
3.715254 0.589600 0.619371
3.700331 0.583475 0.647449
3.677776 0.515960 0.622533
3.690917 0.526585 0.588658
3.683213 0.530383 0.588846
3.668290 0.524258 0.616924
3.628605 0.584947 0.623211
3.652347 0.586298 0.621338
3.648309 0.583655 0.601010
3.627868 0.580272 0.583817
3.633477 0.511683 0.631798
3.657219 0.513034 0.629925
3.653181 0.510392 0.609597
3.632740 0.507009 0.592404
3.657037 0.590665 0.653253
3.679707 0.590435 0.629379
3.668333 0.588863 0.611548
3.650233 0.586241 0.622832
3.666191 0.517525 0.658892
3.688860 0.517295 0.635018
3.677486 0.515723 0.617187
3.659386 0.513101 0.628472
3.647464 0.585767 0.622582
3.665563 0.588389 0.611297
3.659166 0.586140 0.598838
3.643426 0.583125 0.602254
3.662141 0.513570 0.628681
3.680241 0.516192 0.617396
3.673844 0.513943 0.604937
3.658104 0.510928 0.608353
3.644083 0.583374 0.605940
3.659822 0.586389 0.602523
3.668969 0.588293 0.586546
3.623641 0.579991 0.588747
3.657436 0.510675 0.604635
3.673176 0.513691 0.601218
3.682323 0.515595 0.585241
3.636995 0.507293 0.587442
3.674106 0.589393 0.632705
3.689028 0.595518 0.604627
3.673207 0.589610 0.600555
3.662732 0.587822 0.614873
3.694493 0.518341 0.631654
3.709416 0.524467 0.603577
3.693594 0.518559 0.599504
3.683119 0.516770 0.613823
3.664185 0.588187 0.613056
3.674660 0.589976 0.598738
3.666935 0.587842 0.584619
3.657788 0.585939 0.600596
3.681645 0.516398 0.615615
3.692120 0.518187 0.601297
3.684395 0.516054 0.587178
3.675248 0.514150 0.603156
3.684662 0.593739 0.608019
3.699911 0.604798 0.573519
3.661116 0.585697 0.589828
3.668841 0.587831 0.603947
3.713798 0.526255 0.600139
3.729047 0.537314 0.565639
3.690251 0.518213 0.581948
3.697976 0.520347 0.596066
3.729510 0.600724 0.585728
3.714262 0.589665 0.620229
3.721966 0.585867 0.620040
3.699475 0.541395 0.553434
3.684226 0.530335 0.587935
3.691930 0.526538 0.587747
3.690885 0.584263 0.580179
3.692580 0.574314 0.571355
3.680472 0.559173 0.605052
3.761103 0.576817 0.602065
3.762799 0.566868 0.593242
3.750690 0.551727 0.626938
3.429502 0.607215 0.461583
3.426878 0.580575 0.466363
3.433634 0.581985 0.486144
3.438628 0.609124 0.475312
3.495010 0.589434 0.432297
3.492386 0.562794 0.437077
3.499142 0.564204 0.456859
3.504136 0.591342 0.446027
3.420173 0.564363 0.427751
3.427337 0.577661 0.425876
3.426887 0.573677 0.412699
3.419288 0.561255 0.411058
3.484111 0.527718 0.433594
3.491275 0.541016 0.431720
3.490825 0.537032 0.418542
3.483226 0.524610 0.416901
3.421991 0.569197 0.447890
3.429272 0.578473 0.442696
3.428249 0.579376 0.429329
3.421085 0.566079 0.431204
3.484106 0.529126 0.446857
3.491387 0.538401 0.441663
3.490364 0.539305 0.428296
3.483200 0.526007 0.430171
3.432210 0.581998 0.482404
3.425455 0.580589 0.462622
3.423003 0.556297 0.474591
3.427720 0.554122 0.491429
3.500558 0.564137 0.460617
3.493802 0.562727 0.440836
3.491351 0.538436 0.452805
3.496068 0.536260 0.469643
3.420375 0.576090 0.429440
3.422630 0.555562 0.431361
3.423653 0.554659 0.444727
3.422947 0.567874 0.454247
3.493735 0.583674 0.424345
3.495989 0.563147 0.426265
3.497012 0.562243 0.439632
3.496306 0.575458 0.449152
3.487558 0.558536 0.477648
3.482287 0.560637 0.460370
3.475930 0.577297 0.466806
3.480050 0.575771 0.482030
3.422458 0.527023 0.492940
3.417187 0.529124 0.475663
3.410829 0.545784 0.482098
3.414949 0.544257 0.497322
3.482237 0.560599 0.460081
3.477272 0.562390 0.442724
3.471376 0.578676 0.451380
3.475879 0.577260 0.466517
3.417228 0.529165 0.475919
3.412264 0.530956 0.458563
3.406368 0.547241 0.467219
3.410870 0.545825 0.482355
3.477597 0.562627 0.444819
3.474774 0.562896 0.426850
3.469290 0.577223 0.437954
3.471701 0.578913 0.453475
3.411931 0.530719 0.456435
3.409108 0.530988 0.438466
3.403624 0.545316 0.449570
3.406035 0.547005 0.465091
3.474851 0.563062 0.427823
3.472009 0.563311 0.409869
3.467960 0.575757 0.423226
3.469367 0.577389 0.438928
3.409027 0.530821 0.437459
3.406185 0.531070 0.419504
3.402136 0.543516 0.432862
3.403543 0.545148 0.448563
3.454041 0.580661 0.487290
3.449324 0.582837 0.470451
3.441896 0.580358 0.474757
3.447167 0.578257 0.492035
3.469737 0.509692 0.473798
3.465020 0.511867 0.456960
3.457592 0.509388 0.461266
3.462863 0.507287 0.478544
3.448834 0.582856 0.469728
3.444711 0.584657 0.453433
3.436442 0.582167 0.456678
3.441407 0.580377 0.474034
3.465500 0.511853 0.457649
3.461376 0.513654 0.441354
3.453108 0.511164 0.444598
3.458072 0.509374 0.461955
3.449146 0.585821 0.444781
3.448240 0.582702 0.428094
3.438054 0.583600 0.430055
3.440877 0.583331 0.448025
3.456935 0.512490 0.449973
3.456029 0.509371 0.433287
3.445843 0.510269 0.435248
3.448666 0.510000 0.453217
3.459970 0.581957 0.426866
3.459086 0.578848 0.410173
3.446943 0.583104 0.410873
3.449785 0.582855 0.428827
3.444295 0.510114 0.434480
3.443410 0.507006 0.417787
3.431267 0.511261 0.418486
3.434109 0.511012 0.436441
3.452265 0.632602 0.466587
3.443495 0.632181 0.453906
3.438984 0.623663 0.460472
3.448110 0.625571 0.474202
3.498818 0.581960 0.439508
3.490048 0.581539 0.426828
3.485537 0.573021 0.433393
3.494663 0.574929 0.447123
3.440793 0.629154 0.454310
3.432706 0.628702 0.441336
3.428311 0.619422 0.446629
3.436281 0.620635 0.460875
3.492733 0.584565 0.426398
3.484646 0.584113 0.413424
3.480252 0.574833 0.418717
3.488222 0.576047 0.432963
3.427336 0.622227 0.438950
3.420564 0.630160 0.414317
3.419275 0.614213 0.428091
3.422941 0.612947 0.444243
3.490003 0.590592 0.415776
3.483231 0.598525 0.391143
3.481942 0.582577 0.404917
3.485608 0.581312 0.421069
3.488708 0.653362 0.426088
3.479546 0.651308 0.418552
3.456962 0.642232 0.444733
3.465732 0.642653 0.457413
3.508354 0.582636 0.417320
3.499192 0.580581 0.409785
3.476608 0.571506 0.435965
3.485378 0.571927 0.448646
3.479866 0.651485 0.417749
3.470833 0.649451 0.410063
3.449195 0.641958 0.430956
3.457282 0.642410 0.443929
3.498855 0.580401 0.410568
3.489822 0.578367 0.402883
3.468184 0.570874 0.423775
3.476271 0.571326 0.436749
3.480001 0.650259 0.413160
3.472601 0.648465 0.403810
3.451590 0.650699 0.409419
3.458362 0.642766 0.434052
3.480639 0.577561 0.399759
3.473239 0.575767 0.390410
3.452229 0.578001 0.396019
3.459001 0.570068 0.420651
3.483439 0.647551 0.397215
3.476034 0.645794 0.387877
3.461046 0.654231 0.388755
3.462429 0.649785 0.402823
3.462389 0.576686 0.396977
3.454985 0.574928 0.387639
3.439997 0.583365 0.388517
3.441379 0.578919 0.402585
3.477100 0.640846 0.444011
3.467650 0.639265 0.436463
3.466024 0.628322 0.439993
3.475186 0.630376 0.447528
3.523815 0.616113 0.392329
3.514365 0.614531 0.384781
3.512739 0.603588 0.388312
3.521901 0.605642 0.395847
3.467189 0.638148 0.436553
3.457830 0.636522 0.428942
3.456530 0.625170 0.432398
3.465563 0.627204 0.440083
3.514808 0.615645 0.384677
3.505449 0.614020 0.377066
3.504149 0.602667 0.380522
3.513182 0.604702 0.388207
3.452688 0.635106 0.423776
3.445212 0.632286 0.414589
3.443988 0.621960 0.417881
3.451388 0.623754 0.427231
3.510574 0.615432 0.382216
3.503098 0.612612 0.373030
3.501874 0.602286 0.376322
3.509274 0.604079 0.385671
3.445331 0.632621 0.414593
3.437791 0.629846 0.405438
3.436702 0.620537 0.408547
3.444107 0.622295 0.417885
3.502964 0.612272 0.373007
3.495425 0.609498 0.363852
3.494336 0.600189 0.366962
3.501740 0.601946 0.376300
3.468562 0.651020 0.387047
3.483550 0.642583 0.386169
3.467612 0.650827 0.372252
3.432471 0.586580 0.390204
3.447459 0.578143 0.389326
3.431522 0.586387 0.375410
3.446244 0.622363 0.416919
3.447333 0.631672 0.413809
3.430306 0.630607 0.403003
3.484776 0.598363 0.358573
3.485865 0.607672 0.355463
3.468839 0.606608 0.344656
3.764412 0.690770 0.373134
3.755569 0.695887 0.381633
3.748925 0.698556 0.402897
3.760116 0.694834 0.392097
3.738239 0.621774 0.377565
3.729396 0.626892 0.386063
3.722752 0.629560 0.407327
3.733943 0.625839 0.396528
3.728776 0.673881 0.349246
3.720974 0.672841 0.362300
3.716678 0.676905 0.381263
3.728294 0.688871 0.365624
3.789499 0.640746 0.375322
3.781696 0.639706 0.388375
3.777401 0.643770 0.407338
3.789016 0.655736 0.391699
3.729443 0.694454 0.373920
3.717828 0.682489 0.389559
3.730253 0.700125 0.395355
3.787868 0.650169 0.383430
3.776253 0.638204 0.399069
3.788678 0.655841 0.404865
3.718358 0.684670 0.379903
3.741974 0.698585 0.374900
3.729549 0.680949 0.369104
3.753326 0.643460 0.430341
3.776942 0.657375 0.425338
3.764517 0.639739 0.419542
3.749936 0.615944 0.444141
3.750343 0.625671 0.443695
3.751508 0.607911 0.426442
3.823404 0.613227 0.451897
3.823811 0.622954 0.451451
3.824976 0.605194 0.434198
3.420534 0.548767 0.459022
3.422985 0.573059 0.447053
3.423691 0.559843 0.437533
3.493816 0.545965 0.468346
3.496268 0.570257 0.456376
3.496974 0.557042 0.446856
3.434866 0.583590 0.451418
3.427585 0.574315 0.456612
3.431709 0.572514 0.472907
3.485794 0.533280 0.432969
3.478513 0.524005 0.438163
3.482637 0.522204 0.454458
3.417913 0.590692 0.434318
3.420688 0.573481 0.428537
3.423260 0.565266 0.453344
3.490643 0.603524 0.431029
3.493418 0.586313 0.425248
3.495989 0.578098 0.450055
3.427611 0.577959 0.469083
3.430235 0.604599 0.464303
3.422264 0.603385 0.450057
3.491641 0.565417 0.434329
3.494265 0.592057 0.429549
3.486295 0.590843 0.415303
3.417406 0.583348 0.410346
3.422026 0.574221 0.407717
3.423848 0.564872 0.420717
3.483811 0.613412 0.422661
3.488431 0.604284 0.420032
3.490253 0.594935 0.433032
3.421762 0.571740 0.434251
3.418987 0.588952 0.440032
3.415320 0.590217 0.423880
3.492338 0.588072 0.419510
3.489563 0.605283 0.425291
3.485897 0.606548 0.409139
