3.133312 0.686111 0.808952
3.132367 0.674098 0.808700
3.121071 0.681796 0.808437
3.120709 0.696852 0.808162
3.128214 0.686320 0.928263
3.127269 0.674307 0.928011
3.115973 0.682005 0.927748
3.115611 0.697061 0.927473
3.131776 0.670981 0.808764
3.130509 0.658966 0.809892
3.120844 0.663621 0.808801
3.120480 0.678679 0.808501
3.127858 0.677397 0.927948
3.126592 0.665382 0.929075
3.116927 0.670038 0.927985
3.116562 0.685096 0.927684
3.137548 0.658717 0.810557
3.136282 0.646702 0.811723
3.128244 0.648316 0.809744
3.127883 0.663373 0.809466
3.119552 0.665604 0.928412
3.118287 0.653589 0.929578
3.110249 0.655203 0.927599
3.109887 0.670260 0.927322
3.121909 0.590643 0.810850
3.108499 0.590267 0.810118
3.107714 0.604938 0.809982
3.121675 0.604248 0.809881
3.119208 0.595208 0.930153
3.105798 0.594833 0.929421
3.105014 0.609503 0.929284
3.118975 0.608814 0.929184
3.119839 0.605364 0.809836
3.105878 0.606053 0.809936
3.105677 0.621101 0.809639
3.119475 0.620420 0.809541
3.120810 0.607727 0.929229
3.106849 0.608417 0.929329
3.106648 0.623465 0.929032
3.120447 0.622784 0.928934
3.119563 0.620408 0.809541
3.105765 0.621088 0.809639
3.105563 0.636137 0.809315
3.119201 0.635464 0.809258
3.120358 0.622827 0.928934
3.106560 0.623508 0.929032
3.106358 0.638556 0.928709
3.119997 0.637883 0.928651
3.119334 0.635520 0.809256
3.105695 0.636193 0.809313
3.105495 0.651240 0.809010
3.118971 0.650577 0.808973
3.119864 0.637857 0.928653
3.106225 0.638530 0.928710
3.106025 0.653577 0.928406
3.119501 0.652914 0.928369
3.119099 0.650578 0.808972
3.105623 0.651241 0.809010
3.105421 0.666290 0.808692
3.118738 0.665635 0.808695
3.119371 0.652944 0.928369
3.105895 0.653607 0.928406
3.105693 0.668655 0.928089
3.119010 0.668001 0.928091
3.118825 0.665641 0.808694
3.105508 0.666295 0.808692
3.105307 0.681343 0.808392
3.118460 0.680699 0.808394
3.118923 0.668025 0.928091
3.105606 0.668679 0.928089
3.105405 0.683727 0.927789
3.118558 0.683082 0.927791
3.118547 0.680743 0.808393
3.105393 0.681388 0.808391
3.105190 0.696436 0.808079
3.118185 0.695800 0.808119
3.118472 0.683068 0.927791
3.105318 0.683712 0.927789
3.105115 0.698761 0.927477
3.118110 0.698124 0.927516
3.108522 0.593793 0.810088
3.095110 0.593417 0.809345
3.093778 0.609153 0.810065
3.107737 0.608464 0.809952
3.105748 0.591307 0.929450
3.092336 0.590930 0.928707
3.091004 0.606666 0.929428
3.104963 0.605977 0.929314
3.105904 0.605956 0.809938
3.091944 0.606646 0.810052
3.091903 0.621685 0.809705
3.105703 0.621004 0.809641
3.106795 0.608515 0.929328
3.092836 0.609205 0.929441
3.092795 0.624244 0.929095
3.106594 0.623563 0.929031
3.105808 0.621009 0.809640
3.092008 0.621690 0.809704
3.091969 0.636729 0.809380
3.105606 0.636058 0.809317
3.106489 0.623588 0.929031
3.092689 0.624269 0.929095
3.092650 0.639307 0.928770
3.106287 0.638636 0.928707
3.105678 0.636091 0.809316
3.092041 0.636762 0.809379
3.092000 0.651801 0.809042
3.105478 0.651138 0.809012
3.106215 0.638633 0.928708
3.092577 0.639305 0.928771
3.092537 0.654344 0.928435
3.106014 0.653681 0.928404
3.105569 0.651146 0.809012
3.092092 0.651809 0.809042
3.092052 0.666848 0.808715
3.105367 0.666194 0.808695
3.105922 0.653703 0.928404
3.092445 0.654366 0.928434
3.092405 0.669405 0.928108
3.105720 0.668751 0.928087
3.105479 0.666215 0.808694
3.092163 0.666869 0.808715
3.092123 0.681909 0.808374
3.105278 0.681263 0.808394
3.105608 0.668760 0.928087
3.092293 0.669414 0.928108
3.092252 0.684453 0.927767
3.105407 0.683808 0.927787
3.105394 0.681294 0.808393
3.092238 0.681940 0.808373
3.092198 0.696978 0.808052
3.105191 0.696343 0.808081
3.105291 0.683807 0.927787
3.092136 0.684452 0.927767
3.092096 0.699491 0.927446
3.105088 0.698856 0.927475
3.091155 0.592768 0.809373
3.075741 0.594164 0.810554
3.075861 0.609194 0.810192
3.089822 0.608504 0.810094
3.096263 0.591580 0.928679
3.080850 0.592976 0.929859
3.080970 0.608007 0.929497
3.094931 0.607317 0.929399
3.091887 0.606553 0.810054
3.077927 0.607243 0.810152
3.078048 0.622273 0.809806
3.091846 0.621592 0.809708
3.092865 0.609299 0.929439
3.078904 0.609989 0.929537
3.079026 0.625018 0.929191
3.092824 0.624338 0.929093
3.091942 0.621599 0.809707
3.078144 0.622280 0.809805
3.078264 0.637310 0.809434
3.091903 0.636638 0.809382
3.092728 0.624361 0.929093
3.078930 0.625042 0.929191
3.079051 0.640072 0.928819
3.092689 0.639400 0.928768
3.092034 0.636671 0.809381
3.078396 0.637344 0.809432
3.078516 0.652373 0.809082
3.091993 0.651711 0.809044
3.092558 0.639397 0.928769
3.078919 0.640069 0.928820
3.079040 0.655099 0.928470
3.092517 0.654436 0.928433
3.092098 0.651725 0.809044
3.078621 0.652388 0.809081
3.078741 0.667418 0.808721
3.092057 0.666764 0.808717
3.092412 0.654452 0.928433
3.078936 0.655114 0.928470
3.079056 0.670145 0.928109
3.092372 0.669490 0.928106
3.092145 0.666778 0.808717
3.078829 0.667433 0.808720
3.078950 0.682463 0.808374
3.092104 0.681818 0.808376
3.092285 0.669506 0.928106
3.078969 0.670161 0.928109
3.079089 0.685190 0.927763
3.092244 0.684545 0.927765
3.092207 0.681842 0.808375
3.079052 0.682487 0.808373
3.079173 0.697517 0.808012
3.092166 0.696881 0.808054
3.092142 0.684551 0.927765
3.078987 0.685196 0.927763
3.079108 0.700227 0.927402
3.092101 0.699590 0.927443
3.077693 0.592104 0.810518
3.063571 0.592804 0.810648
3.063854 0.607824 0.810268
3.077813 0.607135 0.810155
3.078869 0.595038 0.929897
3.064747 0.595738 0.930027
3.065030 0.610757 0.929647
3.078989 0.610069 0.929534
3.077949 0.607153 0.810154
3.063989 0.607842 0.810266
3.064271 0.622864 0.809872
3.078070 0.622183 0.809808
3.078854 0.610080 0.929535
3.064894 0.610769 0.929647
3.065176 0.625791 0.929253
3.078975 0.625110 0.929189
3.078178 0.622183 0.809807
3.064379 0.622864 0.809872
3.064661 0.637884 0.809496
3.078299 0.637213 0.809436
3.078868 0.625140 0.929189
3.065069 0.625822 0.929253
3.065351 0.640842 0.928878
3.078989 0.640171 0.928817
3.078360 0.637270 0.809434
3.064722 0.637941 0.809495
3.065004 0.652963 0.809120
3.078481 0.652300 0.809084
3.078928 0.640144 0.928818
3.065290 0.640815 0.928879
3.065571 0.655837 0.928504
3.079048 0.655174 0.928468
3.078563 0.652296 0.809083
3.065086 0.652959 0.809119
3.065368 0.667980 0.808745
3.078683 0.667326 0.808723
3.078967 0.655208 0.928468
3.065490 0.655871 0.928504
3.065772 0.670892 0.928130
3.079087 0.670238 0.928107
3.078808 0.667339 0.808722
3.065493 0.667993 0.808745
3.065774 0.683014 0.808356
3.078929 0.682368 0.808376
3.078963 0.670256 0.928107
3.065647 0.670910 0.928129
3.065929 0.685932 0.927741
3.079083 0.685286 0.927761
3.079056 0.682382 0.808376
3.065901 0.683028 0.808356
3.066184 0.698048 0.807982
3.079177 0.697412 0.808015
3.078957 0.685302 0.927760
3.065802 0.685948 0.927740
3.066084 0.700969 0.927366
3.079077 0.700333 0.927400
3.063580 0.592683 0.810651
3.049460 0.593380 0.810788
3.049902 0.608395 0.810362
3.063863 0.607703 0.810271
3.064709 0.595860 0.930024
3.050589 0.596557 0.930161
3.051031 0.611571 0.929735
3.064992 0.610880 0.929644
3.063962 0.607748 0.810269
3.050001 0.608440 0.810360
3.050445 0.623450 0.809964
3.064244 0.622770 0.809875
3.064894 0.610864 0.929645
3.050933 0.611556 0.929736
3.051376 0.626566 0.929341
3.065176 0.625887 0.929251
3.064357 0.622755 0.809874
3.050558 0.623434 0.809964
3.051001 0.638447 0.809536
3.064639 0.637775 0.809499
3.065063 0.625932 0.929251
3.051264 0.626612 0.929340
3.051707 0.641625 0.928912
3.065345 0.640953 0.928875
3.064746 0.637906 0.809495
3.051108 0.638578 0.809532
3.051551 0.653591 0.809163
3.065028 0.652928 0.809120
3.065239 0.640852 0.928878
3.051601 0.641523 0.928915
3.052044 0.656536 0.928546
3.065520 0.655873 0.928503
3.065104 0.652848 0.809122
3.051628 0.653511 0.809165
3.052070 0.668523 0.808747
3.065386 0.667869 0.808748
3.065445 0.655984 0.928501
3.051968 0.656647 0.928543
3.052411 0.671659 0.928126
3.065727 0.671005 0.928127
3.065486 0.667907 0.808747
3.052171 0.668561 0.808746
3.052613 0.683573 0.808357
3.065768 0.682928 0.808358
3.065627 0.670997 0.928127
3.052311 0.671652 0.928127
3.052754 0.686664 0.927737
3.065909 0.686019 0.927739
3.065867 0.682916 0.808359
3.052713 0.683561 0.808357
3.053155 0.698574 0.807940
3.066150 0.697937 0.807984
3.065810 0.686061 0.927738
3.052655 0.686706 0.927736
3.053098 0.701719 0.927319
3.066092 0.701082 0.927364
3.048966 0.593713 0.810787
3.034844 0.594412 0.810917
3.035892 0.613171 0.810606
3.049407 0.608727 0.810361
3.051056 0.596227 0.930163
3.036935 0.596926 0.930293
3.037983 0.615685 0.929982
3.051498 0.611242 0.929737
3.049415 0.607753 0.810389
3.035899 0.612196 0.810635
3.036058 0.623445 0.810031
3.049858 0.622763 0.809994
3.051492 0.612246 0.929707
3.037977 0.616689 0.929952
3.038135 0.627938 0.929349
3.051935 0.627256 0.929312
3.050589 0.623390 0.809965
3.036789 0.624072 0.810002
3.037395 0.639075 0.809604
3.051032 0.638403 0.809537
3.051205 0.626657 0.929339
3.037405 0.627339 0.929377
3.038010 0.642342 0.928978
3.051648 0.641670 0.928911
3.051047 0.638524 0.809533
3.037410 0.639196 0.809601
3.038013 0.654200 0.809196
3.051490 0.653537 0.809164
3.051634 0.641579 0.928913
3.037997 0.642250 0.928981
3.038600 0.657255 0.928576
3.052077 0.656592 0.928544
3.051527 0.653461 0.809166
3.038050 0.654124 0.809198
3.038653 0.669129 0.808797
3.051969 0.668474 0.808749
3.052042 0.656698 0.928542
3.038565 0.657360 0.928574
3.039169 0.672365 0.928173
3.052485 0.671710 0.928125
3.053942 0.666648 0.808851
3.040626 0.667303 0.808899
3.042329 0.680825 0.807694
3.054384 0.681660 0.808461
3.050514 0.673565 0.928022
3.037198 0.674220 0.928070
3.038901 0.687743 0.926865
3.050957 0.688578 0.927632
3.054578 0.684950 0.808367
3.042522 0.684115 0.807599
3.042027 0.700599 0.807917
3.055021 0.699963 0.807950
3.050764 0.685318 0.927726
3.038709 0.684483 0.926958
3.038214 0.700967 0.927276
3.051207 0.700331 0.927309
3.077581 0.533476 0.857512
3.073257 0.538728 0.847117
3.088670 0.537333 0.845936
3.089907 0.532867 0.857400
3.087662 0.643139 0.903703
3.083337 0.648391 0.893308
3.098751 0.646996 0.892127
3.099987 0.642530 0.903591
3.094998 0.533265 0.855951
3.093761 0.537731 0.844487
3.107173 0.538107 0.845230
3.107322 0.532632 0.855817
3.094923 0.642130 0.905039
3.093687 0.646596 0.893575
3.107099 0.646972 0.894319
3.107247 0.641497 0.904905
3.107581 0.535556 0.850159
3.107433 0.541032 0.839573
3.120843 0.541407 0.840305
3.119907 0.534955 0.850054
3.107013 0.638572 0.910563
3.106864 0.644048 0.899977
3.120274 0.644423 0.900709
3.119338 0.637971 0.910457
3.091720 0.756841 0.851424
3.105193 0.756290 0.850671
3.106759 0.750562 0.840239
3.093766 0.751198 0.840209
3.088479 0.650935 0.906513
3.101953 0.650384 0.905760
3.103518 0.644657 0.895328
3.090526 0.645292 0.895298
3.105071 0.755145 0.848567
3.118543 0.754606 0.847798
3.119631 0.748781 0.838175
3.106637 0.749418 0.838135
3.102102 0.651528 0.907863
3.115573 0.650988 0.907093
3.116661 0.645164 0.897470
3.103667 0.645801 0.897431
3.054601 0.533320 0.929838
3.048781 0.533256 0.931876
3.054588 0.532499 0.916688
3.063317 0.532142 0.916288
3.055756 0.652502 0.922397
3.049936 0.652439 0.924436
3.055742 0.651682 0.909247
3.064472 0.651325 0.908847
3.061007 0.532160 0.915400
3.052278 0.532517 0.915800
3.058004 0.531664 0.901961
3.069723 0.531003 0.901848
3.066797 0.651304 0.909707
3.058067 0.651661 0.910107
3.063794 0.650808 0.896268
3.075512 0.650147 0.896154
3.067290 0.531185 0.902130
3.055571 0.531847 0.902243
3.061542 0.530944 0.887815
3.077269 0.528919 0.883768
3.077961 0.649962 0.895842
3.066242 0.650623 0.895955
3.072213 0.649720 0.881526
3.087941 0.647695 0.877479
3.074866 0.532123 0.861940
3.059139 0.534147 0.865988
3.056420 0.538075 0.851675
3.070542 0.537375 0.851545
3.090348 0.644495 0.899277
3.074621 0.646519 0.903325
3.071901 0.650447 0.889012
3.086024 0.649747 0.888882
3.047201 0.533209 0.930128
3.041539 0.533345 0.929465
3.044148 0.532830 0.915339
3.053008 0.532451 0.914940
3.051501 0.652486 0.926185
3.045839 0.652623 0.925522
3.048448 0.652108 0.911396
3.057308 0.651729 0.910996
3.052221 0.532490 0.915095
3.043361 0.532869 0.915495
3.045968 0.532306 0.901370
3.057948 0.531637 0.901256
3.058103 0.651689 0.910812
3.049243 0.652067 0.911211
3.051850 0.651504 0.897086
3.063830 0.650836 0.896973
3.057047 0.531674 0.900788
3.045067 0.532342 0.900902
3.047620 0.531878 0.886528
3.063018 0.530771 0.886360
3.064739 0.650798 0.897412
3.052760 0.651467 0.897526
3.055313 0.651003 0.883152
3.070710 0.649895 0.882984
3.063181 0.532525 0.870174
3.047784 0.533632 0.870342
3.046342 0.537149 0.855998
3.060462 0.536452 0.855861
3.070549 0.648144 0.899141
3.055152 0.649252 0.899309
3.053710 0.652769 0.884966
3.067830 0.652072 0.884828
3.041986 0.533315 0.928928
3.036247 0.533393 0.929613
3.035604 0.533167 0.915202
3.044595 0.532800 0.914802
3.045378 0.652653 0.926059
3.039639 0.652731 0.926745
3.038996 0.652505 0.912334
3.047987 0.652138 0.911934
3.043231 0.532853 0.914726
3.034240 0.533219 0.915126
3.033601 0.533025 0.900713
3.045838 0.532290 0.900601
3.049353 0.652084 0.911981
3.040362 0.652451 0.912381
3.039723 0.652256 0.897968
3.051960 0.651521 0.897856
3.044853 0.532338 0.900013
3.032617 0.533072 0.900125
3.032030 0.533018 0.885788
3.047407 0.531874 0.885638
3.052946 0.651473 0.898416
3.040709 0.652208 0.898528
3.040123 0.652153 0.884191
3.055499 0.651009 0.884041
3.047696 0.533315 0.871697
3.032320 0.534459 0.871846
3.032133 0.537531 0.857484
3.046255 0.536832 0.857353
3.055209 0.649571 0.897955
3.039833 0.650715 0.898104
3.039646 0.653786 0.883742
3.053767 0.653088 0.883611
3.061951 0.765261 0.923951
3.071265 0.764610 0.910189
3.065147 0.764965 0.910352
3.058285 0.765511 0.924297
3.054617 0.646069 0.924814
3.063931 0.645419 0.911052
3.057813 0.645774 0.911215
3.050951 0.646319 0.925160
3.071098 0.764620 0.910118
3.080413 0.763957 0.896367
3.071841 0.764463 0.896324
3.064979 0.764975 0.910281
3.064115 0.645408 0.911096
3.073431 0.644745 0.897345
3.064859 0.645251 0.897301
3.057997 0.645763 0.911258
3.079494 0.764005 0.896735
3.092642 0.763547 0.878878
3.077788 0.764054 0.882745
3.070922 0.764512 0.896691
3.074368 0.644695 0.896948
3.087517 0.644237 0.879091
3.072663 0.644743 0.882958
3.065796 0.645202 0.896905
3.089116 0.758784 0.855499
3.091162 0.753141 0.844284
3.078169 0.753778 0.844243
3.074262 0.759291 0.859366
3.091056 0.648994 0.902441
3.093103 0.643351 0.891226
3.080109 0.643987 0.891185
3.076202 0.649500 0.906308
3.058490 0.765497 0.924114
3.065352 0.764951 0.910168
3.059168 0.765310 0.910319
3.054828 0.765783 0.924470
3.050736 0.646335 0.925344
3.057598 0.645789 0.911399
3.051414 0.646148 0.911550
3.047074 0.646621 0.925701
3.064785 0.764985 0.910145
3.071646 0.764473 0.896188
3.062945 0.764940 0.896155
3.058601 0.765344 0.910296
3.058177 0.645754 0.911394
3.065038 0.645242 0.897438
3.056337 0.645709 0.897404
3.051993 0.646113 0.911546
3.071438 0.764485 0.896291
3.078305 0.764027 0.882345
3.067083 0.764590 0.882105
3.062737 0.764952 0.896258
3.065258 0.645229 0.897306
3.072125 0.644771 0.883360
3.060903 0.645334 0.883120
3.056557 0.645696 0.897273
3.078227 0.760615 0.862944
3.082134 0.755101 0.847821
3.069141 0.755737 0.847788
3.067006 0.761178 0.862705
3.072211 0.648178 0.902731
3.076118 0.642665 0.887608
3.063125 0.643301 0.887575
3.060990 0.648741 0.902492
3.055163 0.765754 0.923986
3.059503 0.765280 0.909835
3.053255 0.765630 0.909997
3.051823 0.766084 0.923888
3.046730 0.646652 0.926185
3.051070 0.646178 0.912034
3.044822 0.646528 0.912196
3.043390 0.646982 0.926087
3.058504 0.765348 0.910159
3.062848 0.764944 0.896017
3.054018 0.765408 0.895972
3.052256 0.765698 0.910320
3.052075 0.646110 0.911683
3.056419 0.645706 0.897542
3.047589 0.646171 0.897497
3.045827 0.646460 0.911844
3.062687 0.764954 0.896121
3.067033 0.764592 0.881968
3.055621 0.765160 0.881738
3.053857 0.765418 0.896076
3.056587 0.645696 0.897410
3.060933 0.645334 0.883257
3.049521 0.645902 0.883027
3.047757 0.646160 0.897365
3.066983 0.761073 0.862408
3.069118 0.755633 0.847491
3.056124 0.756270 0.847447
3.055571 0.761641 0.862178
3.060988 0.648847 0.902788
3.063123 0.643407 0.887871
3.050128 0.644044 0.887827
3.049575 0.649415 0.902558
3.051512 0.766087 0.923162
3.052944 0.765634 0.909271
3.046632 0.765986 0.909422
3.047513 0.766406 0.922835
3.043691 0.646979 0.926813
3.045123 0.646526 0.912922
3.038811 0.646878 0.913073
3.039692 0.647298 0.926486
3.052166 0.765701 0.910186
3.053928 0.765411 0.895839
3.044969 0.765863 0.895803
3.045854 0.766053 0.910337
3.045902 0.646458 0.911978
3.047664 0.646169 0.897631
3.038705 0.646620 0.897595
3.039590 0.646811 0.912129
3.053787 0.765421 0.896003
3.055551 0.765162 0.881665
3.043946 0.765739 0.881423
3.044828 0.765872 0.895968
3.047806 0.646159 0.897437
3.049570 0.645900 0.883099
3.037964 0.646477 0.882857
3.038847 0.646610 0.897402
3.055551 0.761536 0.861885
3.056104 0.756165 0.847154
3.043110 0.756801 0.847122
3.043945 0.762113 0.861643
3.049571 0.649521 0.902850
3.050124 0.644150 0.888119
3.037130 0.644786 0.888087
3.037965 0.650098 0.902608
3.191624 0.707830 0.867609
3.191585 0.709061 0.892453
3.190989 0.695700 0.893787
3.191186 0.695831 0.869581
3.072301 0.712603 0.866928
3.072262 0.713833 0.891771
3.071666 0.700472 0.893105
3.071863 0.700604 0.868899
3.191623 0.710565 0.892795
3.190986 0.711895 0.917589
3.191141 0.697011 0.918381
3.191027 0.697204 0.894128
3.072223 0.712330 0.891479
3.071586 0.713659 0.916274
3.071741 0.698775 0.917065
3.071627 0.698969 0.892813
3.191098 0.694215 0.869808
3.190901 0.694083 0.894014
3.189973 0.680735 0.893162
3.190344 0.682233 0.869188
3.071950 0.702195 0.868673
3.071753 0.702063 0.892879
3.070825 0.688715 0.892026
3.071196 0.690213 0.868053
3.190765 0.692403 0.893975
3.190879 0.692210 0.918227
3.189157 0.677596 0.917048
3.189837 0.679055 0.893123
3.071888 0.703742 0.892966
3.072002 0.703548 0.917218
3.070280 0.688934 0.916039
3.070960 0.690393 0.892113
3.190334 0.682073 0.869002
3.189963 0.680575 0.892976
3.189307 0.669038 0.887965
3.189389 0.670060 0.868750
3.071203 0.690348 0.868235
3.070833 0.688850 0.892209
3.070176 0.677313 0.887198
3.070258 0.678335 0.867983
3.190073 0.682808 0.893326
3.189393 0.681349 0.917251
3.189503 0.670246 0.907570
3.189417 0.671271 0.888314
3.070722 0.686615 0.891902
3.070042 0.685156 0.915827
3.070152 0.674053 0.906147
3.070066 0.675078 0.886891
3.189358 0.669785 0.867140
3.189276 0.668763 0.886355
3.188738 0.657290 0.881922
3.188091 0.657770 0.868268
3.070287 0.678587 0.869589
3.070205 0.677565 0.888803
3.069668 0.666092 0.884370
3.069021 0.666572 0.870716
3.189423 0.673641 0.885814
3.189509 0.672616 0.905069
3.189792 0.661674 0.894980
3.188885 0.662168 0.881381
3.070059 0.672686 0.889377
3.070145 0.671661 0.908633
3.070429 0.660719 0.898544
3.069522 0.661213 0.884944
3.192124 0.721497 0.867008
3.191523 0.722764 0.888296
3.191624 0.710771 0.892975
3.191662 0.709540 0.868131
3.072724 0.722874 0.865278
3.072123 0.724141 0.886566
3.072224 0.712148 0.891245
3.072262 0.710917 0.866401
3.191524 0.723089 0.888409
3.191439 0.724224 0.909747
3.190987 0.712426 0.917882
3.191625 0.711096 0.893088
3.072121 0.723818 0.886500
3.072036 0.724953 0.907837
3.071585 0.713155 0.915973
3.072222 0.711825 0.891178
3.192080 0.733885 0.866600
3.191884 0.734532 0.883423
3.191517 0.722968 0.888702
3.192118 0.721702 0.867413
3.072691 0.734878 0.864053
3.072494 0.735524 0.880876
3.072128 0.723961 0.886155
3.072729 0.722694 0.864866
3.191891 0.734856 0.883113
3.191379 0.735664 0.899889
3.191440 0.724427 0.909730
3.191525 0.723292 0.888392
3.072486 0.735202 0.881224
3.071974 0.736010 0.898000
3.072035 0.724773 0.907840
3.072120 0.723638 0.886502
3.191948 0.746677 0.864870
3.191974 0.747029 0.877160
3.191898 0.735304 0.882486
3.192094 0.734658 0.865662
3.072530 0.746148 0.864191
3.072556 0.746500 0.876482
3.072480 0.734776 0.881807
3.072677 0.734129 0.864984
3.191957 0.745842 0.877968
3.191932 0.746011 0.890303
3.191369 0.734925 0.900070
3.191881 0.734117 0.883294
3.072573 0.747688 0.875703
3.072548 0.747858 0.888037
3.071984 0.736771 0.897804
3.072497 0.735964 0.881028
3.187855 0.659151 0.863186
3.188502 0.658672 0.876840
3.188222 0.647187 0.872346
3.186590 0.647136 0.864352
3.069255 0.665166 0.875795
3.069902 0.664687 0.889449
3.069622 0.653202 0.884955
3.067989 0.653152 0.876961
3.188463 0.665532 0.876927
3.189370 0.665038 0.890527
3.189580 0.654111 0.880488
3.188183 0.654047 0.872433
3.069944 0.657827 0.889383
3.070851 0.657333 0.902983
3.071061 0.646406 0.892944
3.069664 0.646342 0.884889
3.192353 0.756487 0.863672
3.192341 0.756175 0.871500
3.191937 0.744642 0.876782
3.191911 0.744289 0.864491
3.073009 0.760756 0.863744
3.072996 0.760445 0.871572
3.072593 0.748912 0.876854
3.072567 0.748559 0.864563
3.192338 0.756119 0.871583
3.192353 0.756013 0.879367
3.191910 0.744755 0.889199
3.191935 0.744585 0.876865
3.072998 0.760501 0.871509
3.073013 0.760395 0.879293
3.072570 0.749137 0.889125
3.072595 0.748968 0.876791
