4.196469 0.956221 -0.347031
4.220002 0.959583 -0.347371
4.220070 0.958974 -0.297678
4.196466 0.955612 -0.297393
4.193651 0.976000 -0.346787
4.217184 0.979362 -0.347127
4.217252 0.978753 -0.297434
4.193648 0.975391 -0.297148
4.196462 0.955611 -0.297343
4.220066 0.958973 -0.297628
4.220135 0.958365 -0.247936
4.196459 0.955003 -0.247704
4.193651 0.975391 -0.297099
4.217256 0.978753 -0.297384
4.217324 0.978145 -0.247692
4.193649 0.974782 -0.247459
4.196455 0.955001 -0.247654
4.220131 0.958364 -0.247886
4.220199 0.957755 -0.198193
4.196452 0.954393 -0.198015
4.193652 0.974782 -0.247410
4.217328 0.978145 -0.247642
4.217396 0.977536 -0.197949
4.193649 0.974173 -0.197771
4.196449 0.954391 -0.197966
4.220195 0.957754 -0.198143
4.220265 0.957145 -0.148451
4.196446 0.953783 -0.148326
4.193653 0.974173 -0.197721
4.217400 0.977536 -0.197899
4.217469 0.976927 -0.148206
4.193651 0.973565 -0.148082
4.196443 0.953782 -0.148277
4.220261 0.957144 -0.148401
4.220330 0.956536 -0.098708
4.196440 0.953173 -0.098638
4.193655 0.973565 -0.148033
4.217473 0.976927 -0.148157
4.217542 0.976319 -0.098464
4.193652 0.972956 -0.098394
4.196436 0.953172 -0.098588
4.220327 0.956535 -0.098658
4.220395 0.955926 -0.048965
4.196434 0.952563 -0.048949
4.193655 0.972956 -0.098344
4.217546 0.976319 -0.098414
4.217615 0.975710 -0.048721
4.193654 0.972347 -0.048705
4.196431 0.952562 -0.048900
4.220392 0.955925 -0.048916
4.220461 0.955317 0.000777
4.196429 0.951953 0.000739
4.193658 0.972347 -0.048655
4.217619 0.975710 -0.048671
4.217688 0.975102 0.001022
4.193656 0.971738 0.000983
4.196425 0.951952 0.000789
4.220458 0.955316 0.000827
4.220528 0.954707 0.050520
4.196424 0.951344 0.050428
4.193659 0.971738 0.001033
4.217692 0.975102 0.001071
4.217762 0.974493 0.050764
4.193658 0.971130 0.050672
4.196420 0.951343 0.050478
4.220524 0.954706 0.050569
4.220595 0.954098 0.100263
4.196419 0.950734 0.100116
4.193662 0.971130 0.050722
4.217766 0.974493 0.050814
4.217836 0.973885 0.100507
4.193661 0.970521 0.100360
4.196416 0.950733 0.100166
4.220591 0.954097 0.100312
4.220661 0.953488 0.150005
4.196414 0.950124 0.149805
4.193664 0.970521 0.100410
4.217840 0.973885 0.100557
4.217910 0.973277 0.150249
4.193663 0.969913 0.150049
4.196430 0.950126 0.149852
4.220677 0.953490 0.150052
4.219957 0.952792 0.200506
4.196424 0.949432 0.200847
4.193647 0.969910 0.150103
4.217894 0.973274 0.150303
4.217174 0.972576 0.200758
4.193640 0.969215 0.201099
4.196430 0.949432 0.200900
4.219963 0.952793 0.200559
4.220824 0.952274 0.249490
4.196426 0.948845 0.250428
4.193634 0.969214 0.201146
4.217168 0.972574 0.200805
4.218028 0.972056 0.249737
4.193631 0.968627 0.250675
4.196403 0.948841 0.250483
4.220801 0.952270 0.249545
4.220871 0.951662 0.299238
4.196411 0.948297 0.298875
4.193654 0.968630 0.250718
4.218052 0.972058 0.249780
4.218123 0.971450 0.299473
4.193662 0.968085 0.299110
4.196397 0.948294 0.298920
4.220858 0.951659 0.299283
4.220929 0.951051 0.348976
4.196396 0.947686 0.348559
4.193675 0.968086 0.299164
4.218136 0.971451 0.299527
4.218206 0.970843 0.349220
4.193674 0.967478 0.348803
4.185102 0.965172 -0.346916
4.185099 0.964563 -0.297278
4.183611 0.980470 -0.297036
4.183566 0.981081 -0.346729
4.204993 0.967062 -0.346901
4.204989 0.966453 -0.297263
4.203502 0.982360 -0.297021
4.203456 0.982971 -0.346715
4.185095 0.964604 -0.297224
4.185092 0.963995 -0.247584
4.183690 0.979904 -0.247289
4.183607 0.980511 -0.296982
4.204993 0.966411 -0.297217
4.204990 0.965802 -0.247578
4.203588 0.981711 -0.247283
4.203506 0.982318 -0.296975
4.185088 0.964040 -0.247536
4.185085 0.963431 -0.197898
4.183745 0.979340 -0.197548
4.183686 0.979949 -0.247241
4.204994 0.965756 -0.247527
4.204992 0.965147 -0.197888
4.203651 0.981055 -0.197538
4.203592 0.981665 -0.247232
4.185082 0.963474 -0.197846
4.185079 0.962866 -0.148207
4.183817 0.978775 -0.147803
4.183741 0.979383 -0.197496
4.204995 0.965103 -0.197841
4.204993 0.964494 -0.148201
4.203731 0.980403 -0.147797
4.203655 0.981011 -0.197491
4.185083 0.962821 -0.148188
4.185080 0.962212 -0.098549
4.183590 0.978168 -0.097918
4.183821 0.978730 -0.147784
4.204989 0.964538 -0.148121
4.204986 0.963929 -0.098482
4.203496 0.979884 -0.097851
4.203727 0.980447 -0.147717
4.185077 0.962253 -0.098440
4.185075 0.961645 -0.048801
4.183954 0.977555 -0.048289
4.183587 0.978209 -0.097808
4.204990 0.963887 -0.098492
4.204988 0.963278 -0.048853
4.203867 0.979188 -0.048341
4.203500 0.979842 -0.097861
4.185077 0.961626 -0.048831
4.185075 0.961017 0.000807
4.183518 0.976892 0.002214
4.183956 0.977535 -0.048319
4.204986 0.963296 -0.048723
4.204985 0.962687 0.000916
4.203428 0.978563 0.002323
4.203866 0.979206 -0.048211
4.185087 0.960878 0.000899
4.185086 0.960269 0.050538
4.183539 0.976038 0.051416
4.183531 0.976753 0.002306
4.204972 0.962826 0.000924
4.204970 0.962217 0.050563
4.203424 0.977986 0.051440
4.203415 0.978701 0.002331
4.185086 0.960268 0.050588
4.185085 0.959659 0.100226
4.183535 0.975450 0.100994
4.183539 0.976037 0.051465
4.204970 0.962217 0.050612
4.204969 0.961608 0.100251
4.203420 0.977399 0.101019
4.203424 0.977986 0.051490
4.185085 0.959658 0.100276
4.185083 0.959049 0.149915
4.183531 0.974850 0.151570
4.183535 0.975448 0.101044
4.204969 0.961608 0.100301
4.204968 0.961000 0.149940
4.203416 0.976800 0.151595
4.203420 0.977399 0.101068
4.185083 0.959052 0.149964
4.185077 0.958358 0.200960
4.183527 0.974265 0.201148
4.183531 0.974852 0.151619
4.204968 0.960996 0.149991
4.204962 0.960302 0.200987
4.203412 0.976209 0.201175
4.203416 0.976796 0.151646
4.185076 0.958361 0.201011
4.185073 0.957774 0.250540
4.183523 0.973681 0.250727
4.183527 0.974268 0.201199
4.204962 0.960298 0.201035
4.204959 0.959711 0.250564
4.203409 0.975618 0.250751
4.203413 0.976205 0.201223
4.185073 0.957769 0.250590
4.185081 0.957225 0.298982
4.183520 0.973102 0.299306
4.183524 0.973677 0.250777
4.204958 0.959714 0.250612
4.204966 0.959170 0.299004
4.203405 0.975047 0.299328
4.203409 0.975622 0.250799
4.185081 0.957219 0.299029
4.185080 0.956610 0.348668
4.183517 0.972480 0.348382
4.183521 0.973096 0.299353
4.204965 0.959175 0.299054
4.204964 0.958566 0.348694
4.203401 0.974436 0.348407
4.203405 0.975052 0.299379
4.227011 0.986358 -0.347061
4.227058 0.985747 -0.297368
4.228615 0.969840 -0.297556
4.228547 0.970449 -0.347249
4.207125 0.984424 -0.347062
4.207171 0.983814 -0.297369
4.208729 0.967907 -0.297557
4.208661 0.968515 -0.347250
4.227057 0.985750 -0.297322
4.227136 0.985143 -0.247629
4.228683 0.969235 -0.247817
4.228615 0.969843 -0.297509
4.207172 0.983809 -0.297316
4.207250 0.983202 -0.247623
4.208798 0.967294 -0.247811
4.208729 0.967903 -0.297504
4.227136 0.985140 -0.247577
4.227200 0.984531 -0.197885
4.228752 0.968624 -0.198072
4.228683 0.969232 -0.247765
4.207250 0.983203 -0.247575
4.207314 0.982594 -0.197882
4.208866 0.966687 -0.198070
4.208798 0.967295 -0.247763
4.227200 0.984531 -0.197836
4.227272 0.983923 -0.148142
4.228821 0.968015 -0.148331
4.228752 0.968624 -0.198023
4.207314 0.982593 -0.197831
4.207386 0.981985 -0.148138
4.208935 0.966077 -0.148326
4.208866 0.966685 -0.198019
4.227261 0.984033 -0.148055
4.226970 0.983422 -0.098634
4.228879 0.967516 -0.098550
4.228810 0.968125 -0.148243
4.207398 0.981874 -0.148126
4.207107 0.981263 -0.098705
4.209016 0.965358 -0.098621
4.208947 0.965966 -0.148314
4.226970 0.983421 -0.098656
4.227399 0.982815 -0.048692
4.228948 0.966907 -0.048880
4.228879 0.967516 -0.098572
4.207107 0.981262 -0.098583
4.207537 0.980656 -0.048619
4.209085 0.964749 -0.048807
4.209016 0.965357 -0.098499
4.227394 0.982859 -0.048555
4.226956 0.982216 0.001978
4.229012 0.966343 0.000950
4.228943 0.966951 -0.048743
4.207542 0.980611 -0.048656
4.207103 0.979968 0.001877
4.209160 0.964095 0.000849
4.209090 0.964704 -0.048844
4.226934 0.982397 0.001987
4.226944 0.981682 0.051097
4.229060 0.965916 0.050652
4.228990 0.966524 0.000959
4.207126 0.979785 0.001968
4.207135 0.979071 0.051078
4.209252 0.963304 0.050633
4.209182 0.963913 0.000940
4.226938 0.981727 0.051147
4.226933 0.981128 0.101674
4.229125 0.965352 0.100395
4.229054 0.965961 0.050702
4.207142 0.979024 0.051128
4.207137 0.978425 0.101654
4.209328 0.962650 0.100375
4.209258 0.963258 0.050682
4.226927 0.981172 0.101724
4.226923 0.980585 0.151252
4.229189 0.964788 0.150138
4.229118 0.965396 0.100445
4.207143 0.978380 0.101704
4.207139 0.977793 0.151232
4.209405 0.961996 0.150118
4.209334 0.962605 0.100425
4.226949 0.980378 0.151379
4.226946 0.979791 0.200906
4.228495 0.963884 0.200719
4.229215 0.964581 0.150265
4.207112 0.977998 0.151205
4.207109 0.977411 0.200732
4.208658 0.961504 0.200545
4.209378 0.962202 0.150091
4.226940 0.979840 0.200797
4.226934 0.979253 0.250325
4.229350 0.963414 0.249541
4.228489 0.963933 0.200610
4.207115 0.977361 0.200941
4.207109 0.976774 0.250470
4.209525 0.960935 0.249685
4.208664 0.961453 0.200754
4.226895 0.979539 0.250458
4.226893 0.978964 0.298987
4.229381 0.963092 0.299367
4.229310 0.963700 0.249674
4.207149 0.976487 0.250435
4.207148 0.975912 0.298964
4.209635 0.960039 0.299344
4.209565 0.960648 0.249651
4.226887 0.979008 0.299038
4.226882 0.978386 0.348566
4.229444 0.962527 0.349111
4.229374 0.963135 0.299418
4.207155 0.975867 0.299012
4.207151 0.975245 0.348540
4.209712 0.959386 0.349085
4.209642 0.959995 0.299392
4.227626 0.527516 -0.350732
4.229350 0.512979 -0.351009
4.229396 0.512368 -0.301506
4.227621 0.526909 -0.301289
4.247463 0.529903 -0.350711
4.249187 0.515365 -0.350988
4.249232 0.514755 -0.301485
4.247457 0.529296 -0.301268
4.260382 0.541258 -0.350971
4.236475 0.538649 -0.350599
4.236470 0.538042 -0.301156
4.260449 0.540651 -0.301469
4.262543 0.521397 -0.351216
4.238636 0.518787 -0.350844
4.238631 0.518180 -0.301401
4.262610 0.520790 -0.301714
4.272974 0.516383 -0.351368
4.271419 0.532287 -0.351094
4.271485 0.531681 -0.301592
4.273023 0.515772 -0.301866
4.253087 0.514450 -0.351368
4.251532 0.530354 -0.351094
4.251599 0.529747 -0.301592
4.253137 0.513839 -0.301867
4.227626 0.526865 -0.301237
4.229401 0.512324 -0.301455
4.229475 0.511719 -0.251954
4.227621 0.526258 -0.251792
4.247452 0.529339 -0.301220
4.249227 0.514798 -0.301438
4.249301 0.514194 -0.251937
4.247447 0.528732 -0.251776
4.260452 0.540651 -0.301420
4.236472 0.538041 -0.301106
4.236467 0.537435 -0.251661
4.260518 0.540044 -0.251919
4.262607 0.520789 -0.301665
4.238628 0.518180 -0.301351
4.238622 0.517573 -0.251906
4.262673 0.520182 -0.252164
4.273023 0.515767 -0.301819
4.271486 0.531675 -0.301544
4.271552 0.531068 -0.252043
4.273091 0.515161 -0.252316
4.253136 0.513843 -0.301816
4.251599 0.529752 -0.301541
4.251665 0.529145 -0.252040
4.253203 0.513238 -0.252313
4.227627 0.526207 -0.251744
4.229482 0.511669 -0.251906
4.229545 0.511062 -0.202404
4.227622 0.525601 -0.202301
4.247440 0.528782 -0.251724
4.249295 0.514243 -0.251886
4.249358 0.513636 -0.202384
4.247435 0.528175 -0.202281
4.260521 0.540044 -0.251869
4.236470 0.537434 -0.251612
4.236464 0.536828 -0.202169
4.260587 0.539438 -0.202367
4.262670 0.520181 -0.252114
4.238620 0.517572 -0.251857
4.238614 0.516965 -0.202413
4.262737 0.519575 -0.202612
4.273091 0.515163 -0.252267
4.271552 0.531069 -0.251994
4.271618 0.530463 -0.202492
4.273161 0.514556 -0.202766
4.253204 0.513236 -0.252263
4.251665 0.529142 -0.251990
4.251731 0.528536 -0.202488
4.253275 0.512629 -0.202762
4.227628 0.525554 -0.202252
4.229551 0.511014 -0.202354
4.229617 0.510408 -0.152853
4.227623 0.524947 -0.152807
4.247429 0.528221 -0.202231
4.249352 0.513682 -0.202334
4.249418 0.513076 -0.152833
4.247424 0.527614 -0.152786
4.260590 0.539437 -0.202317
4.236467 0.536827 -0.202119
4.236463 0.536221 -0.152674
4.260656 0.538831 -0.152816
4.262734 0.519574 -0.202562
4.238611 0.516964 -0.202364
4.238607 0.516358 -0.152919
4.262800 0.518967 -0.153061
4.273162 0.514555 -0.202716
4.271618 0.530462 -0.202441
4.271684 0.529855 -0.152940
4.273222 0.513948 -0.153214
4.253275 0.512629 -0.202714
4.251731 0.528536 -0.202439
4.251797 0.527929 -0.152938
4.253335 0.512022 -0.153212
4.227630 0.524898 -0.152758
4.229624 0.510360 -0.152804
4.229691 0.509753 -0.103302
4.227625 0.524292 -0.103314
4.247417 0.527662 -0.152736
4.249412 0.513123 -0.152783
4.249479 0.512517 -0.103281
4.247413 0.527055 -0.103293
4.260659 0.538830 -0.152767
4.236465 0.536220 -0.152625
4.236460 0.535614 -0.103181
4.260725 0.538224 -0.103265
4.262797 0.518967 -0.153012
4.238604 0.516357 -0.152870
4.238599 0.515750 -0.103426
4.262864 0.518360 -0.103510
4.273222 0.513947 -0.153165
4.271685 0.529854 -0.152891
4.271751 0.529248 -0.103389
4.273293 0.513341 -0.103664
4.253335 0.512022 -0.153161
4.251797 0.527929 -0.152887
4.251864 0.527323 -0.103385
4.253406 0.511416 -0.103660
4.227631 0.524244 -0.103265
4.229698 0.509705 -0.103253
4.229763 0.509099 -0.053752
4.227627 0.523637 -0.053821
4.247406 0.527102 -0.103242
4.249473 0.512564 -0.103230
4.249538 0.511957 -0.053729
4.247401 0.526495 -0.053798
4.260728 0.538224 -0.103215
4.236463 0.535613 -0.103132
4.236459 0.535007 -0.053687
4.260795 0.537617 -0.053714
4.262861 0.518359 -0.103460
4.238596 0.515749 -0.103376
4.238592 0.515143 -0.053932
4.262928 0.517753 -0.053959
4.273293 0.513341 -0.103614
4.271751 0.529248 -0.103339
4.271818 0.528641 -0.053838
4.273357 0.512734 -0.054112
4.253406 0.511415 -0.103611
4.251864 0.527322 -0.103336
4.251931 0.526715 -0.053835
4.253470 0.510808 -0.054109
4.227634 0.523589 -0.053772
4.229770 0.509051 -0.053703
4.229839 0.508445 -0.004201
4.227629 0.522982 -0.004328
4.247395 0.526542 -0.053748
4.249531 0.512004 -0.053679
4.249599 0.511398 -0.004177
4.247390 0.525936 -0.004304
4.260797 0.537617 -0.053665
4.236462 0.535006 -0.053638
4.236457 0.534400 -0.004194
4.260864 0.537011 -0.004163
4.262925 0.517752 -0.053909
4.238589 0.515142 -0.053882
4.238584 0.514535 -0.004439
4.262992 0.517146 -0.004407
4.273357 0.512733 -0.054063
4.271818 0.528640 -0.053789
4.271885 0.528034 -0.004287
4.273426 0.512127 -0.004561
4.253470 0.510808 -0.054059
4.251931 0.526715 -0.053785
4.251998 0.526109 -0.004283
4.253539 0.510201 -0.004558
4.227636 0.522934 -0.004279
4.229846 0.508397 -0.004152
4.229911 0.507790 0.045349
4.227632 0.522328 0.045165
4.247382 0.525983 -0.004254
4.249592 0.511445 -0.004127
4.249657 0.510839 0.045375
4.247379 0.525376 0.045191
4.260867 0.537010 -0.004113
4.236459 0.534400 -0.004144
4.236455 0.533793 0.045300
4.260934 0.536404 0.045388
4.262989 0.517145 -0.004358
4.238582 0.514534 -0.004389
4.238578 0.513928 0.045055
4.263057 0.516538 0.045143
4.273426 0.512126 -0.004512
4.271885 0.528034 -0.004237
4.271952 0.527427 0.045264
4.273491 0.511520 0.044990
4.253539 0.510201 -0.004508
4.251998 0.526108 -0.004234
4.252065 0.525502 0.045267
4.253604 0.509595 0.044993
4.227640 0.522280 0.045215
4.229918 0.507743 0.045399
4.229988 0.507137 0.094901
4.227637 0.521673 0.094659
4.247371 0.525422 0.045240
4.249650 0.510885 0.045424
4.249719 0.510279 0.094926
4.247368 0.524816 0.094684
4.260937 0.536404 0.045438
4.236458 0.533793 0.045350
4.236455 0.533186 0.094794
4.261005 0.535797 0.094940
4.263054 0.516537 0.045193
4.238575 0.513927 0.045105
4.238572 0.513320 0.094549
4.263122 0.515931 0.094695
4.273492 0.511519 0.045040
4.271952 0.527426 0.045313
4.272020 0.526820 0.094815
4.273560 0.510913 0.094541
4.253605 0.509594 0.045043
4.252065 0.525501 0.045317
4.252133 0.524895 0.094819
4.253673 0.508988 0.094545
4.227644 0.521626 0.094707
4.229996 0.507089 0.094949
4.230061 0.506483 0.144451
4.227640 0.521019 0.144152
4.247360 0.524862 0.094735
4.249712 0.510326 0.094977
4.249777 0.509719 0.144478
4.247356 0.524256 0.144179
4.261008 0.535797 0.094989
4.236458 0.533186 0.094843
4.236454 0.532579 0.144288
4.261075 0.535191 0.144490
4.263119 0.515930 0.094744
4.238569 0.513319 0.094598
4.238565 0.512713 0.144043
4.263187 0.515324 0.144245
4.273560 0.510912 0.094590
4.272020 0.526820 0.094865
4.272088 0.526213 0.144366
4.273627 0.510306 0.144092
4.253673 0.508987 0.094594
4.252133 0.524895 0.094868
4.252201 0.524288 0.144370
4.253740 0.508381 0.144096
4.227648 0.520971 0.144201
4.230069 0.506435 0.144500
4.230140 0.505829 0.194002
4.227645 0.520365 0.193645
4.247348 0.524303 0.144228
4.249769 0.509766 0.144528
4.249840 0.509160 0.194030
4.247345 0.523696 0.193672
4.261078 0.535190 0.144540
4.236456 0.532579 0.144337
4.236453 0.531973 0.193781
4.261146 0.534584 0.194042
4.263184 0.515323 0.144295
4.238563 0.512712 0.144092
4.238560 0.512106 0.193536
4.263252 0.514717 0.193797
4.273627 0.510305 0.144142
4.272088 0.526212 0.144416
4.272156 0.525606 0.193917
4.273695 0.509699 0.193643
4.253740 0.508381 0.144145
4.252201 0.524288 0.144419
4.252269 0.523682 0.193921
4.253808 0.507774 0.193647
4.227653 0.520317 0.193693
4.230148 0.505781 0.194051
4.230213 0.505175 0.243552
4.227650 0.519711 0.243138
4.247337 0.523742 0.193723
4.249832 0.509206 0.194080
4.249897 0.508600 0.243582
4.247334 0.523136 0.243167
4.261149 0.534584 0.194091
4.236456 0.531972 0.193831
4.236453 0.531366 0.243275
4.261217 0.533978 0.243592
4.263250 0.514716 0.193846
4.238557 0.512105 0.193586
4.238554 0.511498 0.243030
4.263318 0.514110 0.243348
4.273695 0.509698 0.193692
4.272156 0.525606 0.193967
4.272225 0.525000 0.243468
4.273765 0.509092 0.243194
4.253808 0.507773 0.193697
4.252269 0.523681 0.193971
4.252338 0.523075 0.243472
4.253877 0.507167 0.243198
4.227658 0.519663 0.243187
4.230221 0.505127 0.243602
4.230294 0.504521 0.293104
4.227656 0.519057 0.292631
4.247326 0.523183 0.243217
4.249889 0.508647 0.243631
4.249961 0.508041 0.293133
4.247323 0.522576 0.292660
4.261220 0.533977 0.243642
4.236455 0.531366 0.243324
4.236453 0.530759 0.292768
4.261288 0.533371 0.293144
4.263316 0.514109 0.243397
4.238551 0.511497 0.243080
4.238549 0.510891 0.292523
4.263384 0.513503 0.292899
4.273765 0.509092 0.243244
4.272225 0.524999 0.243518
4.272293 0.524393 0.293020
4.273832 0.508486 0.292745
4.253878 0.507167 0.243248
4.252338 0.523074 0.243521
4.252406 0.522468 0.293023
4.253945 0.506561 0.292749
4.227664 0.519010 0.292679
4.230302 0.504474 0.293152
4.230366 0.503868 0.342653
4.227661 0.518403 0.342124
4.247315 0.522622 0.292711
4.249953 0.508087 0.293184
4.250017 0.507480 0.342685
4.247312 0.522016 0.342156
4.261291 0.533371 0.293193
4.236455 0.530759 0.292818
4.236453 0.530152 0.342262
4.261359 0.532765 0.342695
4.263382 0.513502 0.292948
4.238546 0.510890 0.292573
4.238543 0.510284 0.342017
4.263450 0.512896 0.342450
4.273832 0.508484 0.292795
4.272293 0.524391 0.293069
4.272361 0.523785 0.342571
4.273898 0.507878 0.342297
4.253945 0.506561 0.292798
4.252406 0.522468 0.293073
4.252474 0.521862 0.342574
4.254011 0.505954 0.342300
