1.945489 0.542032 -0.855760
1.913821 0.542842 -0.856919
1.896016 0.565830 -0.854715
1.925069 0.566059 -0.853692
1.943797 0.536515 -0.810170
1.912129 0.537325 -0.811329
1.894325 0.560313 -0.809125
1.923378 0.560541 -0.808102
1.913805 0.543026 -0.856897
1.882147 0.543861 -0.858079
1.866936 0.565795 -0.855726
1.896001 0.566014 -0.854693
1.912084 0.537142 -0.811353
1.880426 0.537977 -0.812535
1.865215 0.559910 -0.810183
1.894280 0.560130 -0.809150
1.882119 0.544058 -0.858053
1.850462 0.544893 -0.859235
1.837847 0.565767 -0.856737
1.866908 0.565991 -0.855701
1.880394 0.537781 -0.812563
1.848736 0.538617 -0.813745
1.836122 0.559491 -0.811247
1.865183 0.559715 -0.810210
1.850428 0.545110 -0.859206
1.818770 0.545945 -0.860388
1.808743 0.565768 -0.857732
1.837813 0.565984 -0.856708
1.848709 0.538401 -0.813777
1.817051 0.539236 -0.814958
1.807025 0.559059 -0.812303
1.836095 0.559275 -0.811278
1.818747 0.546187 -0.860351
1.787089 0.547023 -0.861533
1.779666 0.565778 -0.858738
1.808720 0.566010 -0.857696
1.817014 0.538995 -0.814997
1.785356 0.539830 -0.816179
1.777932 0.558586 -0.813384
1.806987 0.558818 -0.812341
1.787058 0.547309 -0.861487
1.755457 0.548076 -0.862704
1.750537 0.565756 -0.859721
1.779635 0.566065 -0.858692
1.785326 0.539544 -0.816227
1.753724 0.540311 -0.817444
1.748804 0.557991 -0.814461
1.777902 0.558300 -0.813432
1.950525 0.583415 -0.611155
1.965494 0.561255 -0.613835
1.966005 0.562248 -0.645146
1.951062 0.582370 -0.642521
1.912977 0.556929 -0.611761
1.927945 0.534769 -0.614441
1.928456 0.535761 -0.645752
1.913514 0.555884 -0.643127
1.950411 0.583249 -0.642563
1.965354 0.563126 -0.645188
1.965865 0.564119 -0.676498
1.950950 0.582207 -0.673929
1.914166 0.555005 -0.643148
1.929108 0.534883 -0.645773
1.929619 0.535876 -0.677083
1.914704 0.553964 -0.674514
1.950153 0.583174 -0.673977
1.965069 0.565086 -0.676546
1.965580 0.566079 -0.707856
1.950692 0.582121 -0.705346
1.915501 0.552997 -0.674529
1.930417 0.534909 -0.677098
1.930928 0.535902 -0.708408
1.916040 0.551943 -0.705898
1.950210 0.582565 -0.707353
1.965099 0.566523 -0.709863
1.964224 0.563682 -0.741032
1.948268 0.581627 -0.738630
1.916520 0.551498 -0.703954
1.931408 0.535456 -0.706463
1.930534 0.532615 -0.737632
1.914578 0.550559 -0.735230
1.948495 0.581355 -0.738818
1.964451 0.563411 -0.741219
1.963533 0.560451 -0.772396
1.946097 0.580428 -0.770102
1.914348 0.550827 -0.735105
1.930304 0.532883 -0.737507
1.929386 0.529923 -0.768683
1.911950 0.549899 -0.766389
1.946241 0.580263 -0.770128
1.963677 0.560286 -0.772422
1.962759 0.557326 -0.803599
1.943849 0.579341 -0.801412
1.911804 0.550060 -0.766426
1.929240 0.530084 -0.768720
1.928322 0.527124 -0.799897
1.909412 0.549139 -0.797710
1.943959 0.579212 -0.801431
1.962869 0.557197 -0.803618
1.961990 0.554248 -0.834787
1.941570 0.578275 -0.832720
1.909298 0.549264 -0.797753
1.928208 0.527249 -0.799940
1.927329 0.524300 -0.831110
1.906909 0.548327 -0.829042
1.913588 0.583675 -0.830661
1.906829 0.579837 -0.799682
1.910613 0.581687 -0.788130
1.915977 0.584612 -0.799372
1.934865 0.542946 -0.831077
1.928106 0.539107 -0.800098
1.931890 0.540957 -0.788546
1.937254 0.543883 -0.799788
1.906883 0.579865 -0.799686
1.900100 0.576062 -0.768710
1.909069 0.580695 -0.765333
1.910666 0.581715 -0.788134
1.928042 0.539073 -0.800046
1.921259 0.535271 -0.769071
1.930228 0.539904 -0.765694
1.931826 0.540923 -0.788494
1.900119 0.576071 -0.768649
1.893344 0.572272 -0.737670
1.907136 0.579363 -0.736334
1.909088 0.580704 -0.765272
1.921232 0.535257 -0.769076
1.914457 0.531457 -0.738097
1.928249 0.538549 -0.736761
1.930201 0.539889 -0.765699
1.893384 0.572293 -0.737939
1.886998 0.569128 -0.706848
1.905095 0.578453 -0.705916
1.907176 0.579385 -0.736603
1.914409 0.531431 -0.737767
1.908023 0.528266 -0.706676
1.926120 0.537591 -0.705744
1.928201 0.538523 -0.736431
1.887342 0.569252 -0.708174
1.883393 0.569835 -0.676480
1.903048 0.579280 -0.675957
1.905439 0.578577 -0.707242
1.907672 0.528140 -0.705288
1.903722 0.528723 -0.673593
1.923378 0.538169 -0.673071
1.925769 0.537466 -0.704356
1.883881 0.570070 -0.676462
1.879907 0.570705 -0.644777
1.901224 0.580381 -0.644484
1.903536 0.579516 -0.675940
1.903228 0.528490 -0.673548
1.899255 0.529124 -0.641863
1.920571 0.538801 -0.641570
1.922884 0.537935 -0.673025
1.880348 0.570910 -0.644693
1.876376 0.571569 -0.613008
1.899407 0.581412 -0.612939
1.901665 0.580587 -0.644399
1.898807 0.528920 -0.641885
1.894836 0.529579 -0.610200
1.917866 0.539422 -0.610131
1.920124 0.538597 -0.641591
1.910645 0.581704 -0.788121
1.909048 0.580684 -0.765321
1.918402 0.585551 -0.768079
1.916010 0.584629 -0.799363
1.931860 0.540942 -0.788507
1.930263 0.539922 -0.765706
1.939617 0.544789 -0.768465
1.937225 0.543867 -0.799749
1.909070 0.580695 -0.765266
1.907119 0.579354 -0.736329
1.920822 0.586490 -0.736741
1.918425 0.585562 -0.768025
1.930241 0.539910 -0.765703
1.928289 0.538570 -0.736765
1.941993 0.545705 -0.737178
1.939595 0.544777 -0.768462
1.907207 0.579401 -0.736542
1.905127 0.578469 -0.705855
1.922853 0.587475 -0.705678
1.920911 0.586536 -0.736955
1.928201 0.538523 -0.736491
1.926120 0.537591 -0.705804
1.943847 0.546597 -0.705626
1.941905 0.545658 -0.736903
1.905497 0.578629 -0.706849
1.903106 0.579332 -0.675564
1.922685 0.588688 -0.675303
1.923223 0.587635 -0.706672
1.925749 0.537432 -0.704748
1.923358 0.538135 -0.673463
1.942937 0.547491 -0.673201
1.943475 0.546438 -0.704570
1.903623 0.579579 -0.675551
1.901311 0.580445 -0.644095
1.922663 0.589977 -0.643923
1.923202 0.588935 -0.675289
1.922838 0.537890 -0.673413
1.920525 0.538756 -0.641958
1.941878 0.548287 -0.641786
1.942416 0.547246 -0.673152
1.901783 0.580659 -0.644028
1.899525 0.581485 -0.612568
1.922598 0.591236 -0.612490
1.923135 0.590191 -0.643856
1.920051 0.538543 -0.641962
1.917793 0.539369 -0.610502
1.940867 0.549120 -0.610424
1.941403 0.548075 -0.641790
1.775579 0.574141 -0.710970
1.779381 0.575295 -0.680013
1.798492 0.574962 -0.679830
1.796048 0.573895 -0.711148
1.774907 0.528224 -0.709265
1.778709 0.529378 -0.678307
1.797820 0.529045 -0.678125
1.795376 0.527977 -0.709443
1.779581 0.575292 -0.679993
1.783357 0.576473 -0.649046
1.801179 0.575977 -0.648484
1.798691 0.574959 -0.679810
1.778516 0.529383 -0.678265
1.782292 0.530564 -0.647318
1.800115 0.530068 -0.646756
1.797627 0.529050 -0.678082
1.783415 0.576475 -0.648957
1.787225 0.577406 -0.617995
1.803703 0.577076 -0.617083
1.801238 0.575979 -0.648395
1.782240 0.530564 -0.647344
1.786051 0.531495 -0.616382
1.802528 0.531165 -0.615470
1.800063 0.530068 -0.646783
1.799207 0.573645 -0.710594
1.801651 0.574713 -0.679275
1.820652 0.570776 -0.679153
1.819571 0.571556 -0.710818
1.792256 0.528224 -0.709998
1.794700 0.529291 -0.678679
1.813701 0.525354 -0.678558
1.812619 0.526135 -0.710222
1.800927 0.574714 -0.681097
1.803415 0.575732 -0.649771
1.821212 0.575276 -0.649225
1.819928 0.570777 -0.680975
1.795428 0.529293 -0.676795
1.797916 0.530311 -0.645469
1.815712 0.529856 -0.644923
1.814429 0.525356 -0.676673
1.801336 0.575976 -0.648413
1.803801 0.577072 -0.617100
1.820301 0.576582 -0.616171
1.819133 0.575520 -0.647867
1.799999 0.530071 -0.646764
1.802464 0.531167 -0.615451
1.818964 0.530677 -0.614522
1.817796 0.529615 -0.646217
1.817125 0.571793 -0.710019
1.818207 0.571012 -0.678355
1.837309 0.570209 -0.678178
1.837557 0.570856 -0.710215
1.815104 0.525894 -0.711021
1.816186 0.525114 -0.679357
1.835288 0.524310 -0.679180
1.835536 0.524957 -0.711217
1.818104 0.570785 -0.682128
1.819388 0.575285 -0.650377
1.837204 0.574720 -0.649821
1.837206 0.569982 -0.681951
1.816290 0.525345 -0.675520
1.817574 0.529844 -0.643769
1.835389 0.529280 -0.643213
1.835392 0.524542 -0.675344
1.819225 0.575518 -0.647842
1.820393 0.576580 -0.616146
1.836871 0.576084 -0.615229
1.837041 0.574954 -0.647286
1.817738 0.529616 -0.646241
1.818906 0.530678 -0.614545
1.835383 0.530182 -0.613627
1.835553 0.529052 -0.645684
1.837624 0.570853 -0.710248
1.837376 0.570207 -0.678211
1.856491 0.569326 -0.678031
1.858041 0.569912 -0.710452
1.835508 0.524958 -0.711185
1.835260 0.524311 -0.679148
1.854375 0.523430 -0.678968
1.855925 0.524016 -0.711389
1.837283 0.569962 -0.682062
1.837281 0.574701 -0.649931
1.855081 0.574121 -0.649379
1.856398 0.569081 -0.681882
1.835351 0.524560 -0.675232
1.835349 0.529298 -0.643102
1.853149 0.528719 -0.642550
1.854466 0.523679 -0.675052
1.837248 0.574949 -0.647197
1.837078 0.576080 -0.615140
1.853557 0.575310 -0.614201
1.855049 0.574370 -0.646645
1.835380 0.529056 -0.645772
1.835210 0.530186 -0.613714
1.851689 0.529417 -0.612776
1.853181 0.528476 -0.645220
1.853706 0.569703 -0.711182
1.852156 0.569117 -0.678761
1.871476 0.572655 -0.678505
1.874295 0.571952 -0.711320
1.860299 0.524227 -0.710659
1.858749 0.523641 -0.678238
1.878069 0.527179 -0.677983
1.880887 0.526476 -0.710797
1.853784 0.569198 -0.680596
1.852467 0.574238 -0.648093
1.870274 0.573488 -0.647525
1.873104 0.572736 -0.680340
1.857117 0.523563 -0.676338
1.855801 0.528603 -0.643835
1.873608 0.527854 -0.643266
1.876438 0.527101 -0.676082
1.855236 0.574366 -0.646480
1.853744 0.575307 -0.614036
1.870204 0.574443 -0.613101
1.873043 0.573617 -0.645911
1.853028 0.528478 -0.645383
1.851537 0.529419 -0.612940
1.867997 0.528555 -0.612005
1.870835 0.527729 -0.644815
1.878378 0.572176 -0.711434
1.875560 0.572879 -0.678619
1.894306 0.572236 -0.675416
1.898255 0.571653 -0.707111
1.876843 0.526254 -0.710680
1.874025 0.526957 -0.677865
1.892771 0.526314 -0.674662
1.896720 0.525730 -0.706356
1.875734 0.572873 -0.678604
1.872904 0.573626 -0.645788
1.890506 0.572864 -0.643716
1.894479 0.572230 -0.675401
1.873845 0.526965 -0.677816
1.871015 0.527717 -0.645000
1.888617 0.526956 -0.642928
1.892591 0.526321 -0.674613
1.873130 0.573616 -0.645766
1.870292 0.574442 -0.612956
1.886761 0.573513 -0.612009
1.890732 0.572854 -0.643694
1.870782 0.527729 -0.644958
1.867943 0.528555 -0.612148
1.884412 0.527626 -0.611201
1.888384 0.526967 -0.642885
1.924034 0.586127 -0.828183
1.894981 0.585899 -0.829206
1.890598 0.582420 -0.799028
1.917275 0.582289 -0.797204
1.924389 0.540493 -0.833579
1.895336 0.540264 -0.834602
1.890953 0.536785 -0.804423
1.917630 0.536654 -0.802599
1.917489 0.582284 -0.797159
1.890812 0.582415 -0.798984
1.886435 0.578971 -0.768800
1.910705 0.578481 -0.766184
1.917405 0.536651 -0.802582
1.890728 0.536783 -0.804406
1.886352 0.533338 -0.774223
1.910622 0.532848 -0.771607
1.910961 0.578471 -0.766111
1.886691 0.578960 -0.768727
1.882307 0.575522 -0.738544
1.904186 0.574671 -0.735132
1.910355 0.532852 -0.771619
1.886085 0.533342 -0.774236
1.881701 0.529904 -0.744053
1.903580 0.529052 -0.740640
1.904161 0.574694 -0.735324
1.882281 0.575545 -0.738736
1.877898 0.572052 -0.708557
1.897775 0.571528 -0.704233
1.903595 0.529023 -0.740387
1.881715 0.529874 -0.743799
1.877332 0.526381 -0.713620
1.897209 0.525858 -0.709296
1.894939 0.585917 -0.829369
1.865875 0.585698 -0.830402
1.863648 0.582384 -0.799918
1.890557 0.582438 -0.799190
1.895322 0.540246 -0.834441
1.866257 0.540026 -0.835474
1.864031 0.536713 -0.804990
1.890939 0.536767 -0.804263
1.890746 0.582439 -0.799192
1.863837 0.582385 -0.799919
1.861608 0.579178 -0.769424
1.886369 0.578995 -0.769009
1.890743 0.536759 -0.804200
1.863834 0.536705 -0.804927
1.861605 0.533497 -0.774432
1.886366 0.533315 -0.774017
1.886608 0.578986 -0.768943
1.861847 0.579169 -0.769358
1.859622 0.575929 -0.738865
1.882224 0.575548 -0.738760
1.886121 0.533317 -0.774023
1.861360 0.533499 -0.774437
1.859135 0.530259 -0.743944
1.881737 0.529879 -0.743840
1.880998 0.575399 -0.737779
1.858397 0.575779 -0.737883
1.856026 0.569657 -0.707462
1.876615 0.571906 -0.707600
1.882956 0.530020 -0.744760
1.860355 0.530401 -0.744865
1.857984 0.524278 -0.714443
1.878573 0.526527 -0.714581
1.865847 0.585712 -0.830537
1.836786 0.585489 -0.831573
1.836706 0.582341 -0.800778
1.863621 0.582399 -0.800052
1.866229 0.540012 -0.835341
1.837167 0.539788 -0.836378
1.837087 0.536640 -0.805582
1.864002 0.536698 -0.804857
1.863789 0.582404 -0.800101
1.836874 0.582346 -0.800827
1.836803 0.579323 -0.770024
1.861559 0.579197 -0.769606
1.863831 0.536686 -0.804747
1.836917 0.536628 -0.805472
1.836846 0.533604 -0.774670
1.861602 0.533478 -0.774251
1.861768 0.579190 -0.769546
1.837013 0.579316 -0.769965
1.836934 0.576270 -0.739168
1.859544 0.575950 -0.739053
1.861391 0.533479 -0.774249
1.836635 0.533605 -0.774668
1.836556 0.530559 -0.743871
1.859166 0.530238 -0.743756
1.860024 0.575648 -0.737059
1.837414 0.575968 -0.737174
1.837238 0.570467 -0.706433
1.857654 0.569526 -0.706638
1.858684 0.530531 -0.745689
1.836074 0.530851 -0.745804
1.835897 0.525351 -0.715062
1.856313 0.524409 -0.715267
1.836748 0.585500 -0.831687
1.807678 0.585284 -0.832711
1.809762 0.582252 -0.801624
1.836668 0.582352 -0.800891
1.837150 0.539776 -0.836266
1.808080 0.539560 -0.837290
1.810164 0.536528 -0.806203
1.837070 0.536628 -0.805471
1.836802 0.582361 -0.800972
1.809896 0.582260 -0.801705
1.811965 0.579395 -0.770597
1.836731 0.579337 -0.770170
1.836937 0.536614 -0.805328
1.810031 0.536514 -0.806061
1.812100 0.533648 -0.774953
1.836867 0.533590 -0.774526
1.836910 0.579333 -0.770130
1.812143 0.579391 -0.770557
1.814233 0.576508 -0.739448
1.836831 0.576287 -0.739333
1.836690 0.533588 -0.774504
1.811923 0.533646 -0.774931
1.814013 0.530763 -0.743822
1.836612 0.530542 -0.743707
1.837340 0.576070 -0.737735
1.814741 0.576292 -0.737850
1.816732 0.571507 -0.706797
1.837163 0.570569 -0.706994
1.836105 0.530750 -0.745243
1.813507 0.530972 -0.745358
1.815497 0.526187 -0.714305
1.835928 0.525250 -0.714501
1.807644 0.585293 -0.832807
1.778589 0.585061 -0.833850
1.782801 0.582155 -0.802448
1.809727 0.582261 -0.801720
1.808058 0.539551 -0.837196
1.779003 0.539319 -0.838238
1.783216 0.536413 -0.806836
1.810142 0.536519 -0.806109
1.809855 0.582271 -0.801824
1.782929 0.582166 -0.802552
1.787180 0.579429 -0.771140
1.811924 0.579406 -0.770716
1.810020 0.536503 -0.805942
1.783094 0.536397 -0.806670
1.787345 0.533660 -0.775258
1.812089 0.533637 -0.774834
1.812057 0.579402 -0.770675
1.787313 0.579426 -0.771099
1.791525 0.576644 -0.739696
1.814147 0.576520 -0.739566
1.811962 0.533635 -0.774812
1.787218 0.533658 -0.775236
1.791430 0.530877 -0.743833
1.814052 0.530752 -0.743704
1.815282 0.576425 -0.738946
1.792660 0.576550 -0.739076
1.796909 0.573728 -0.707669
1.817272 0.571640 -0.707893
1.812923 0.530840 -0.744261
1.790301 0.530965 -0.744391
1.794550 0.528144 -0.712985
1.814913 0.526055 -0.713209
1.778508 0.585069 -0.833946
1.749410 0.584761 -0.834974
1.755835 0.581998 -0.803279
1.782720 0.582163 -0.802544
1.779028 0.539310 -0.838144
1.749930 0.539002 -0.839173
1.756354 0.536239 -0.807478
1.783240 0.536405 -0.806742
1.782811 0.582170 -0.802612
1.755925 0.582005 -0.803347
1.762283 0.579308 -0.771637
1.787062 0.579434 -0.771200
1.783160 0.536392 -0.806611
1.756274 0.536227 -0.807347
1.762632 0.533530 -0.775636
1.787411 0.533656 -0.775199
1.787190 0.579435 -0.771211
1.762411 0.579310 -0.771648
1.768815 0.576720 -0.739932
1.791402 0.576654 -0.739808
1.787294 0.533649 -0.775125
1.762515 0.533523 -0.775562
1.768919 0.530933 -0.743846
1.791506 0.530867 -0.743722
1.791628 0.576651 -0.739781
1.769041 0.576717 -0.739905
1.775408 0.574077 -0.708196
1.795876 0.573830 -0.708374
1.791291 0.530865 -0.743686
1.768704 0.530931 -0.743810
1.775070 0.528290 -0.712101
1.795539 0.528044 -0.712280
1.727190 0.557647 -0.839413
1.732110 0.539968 -0.842397
1.728299 0.538081 -0.814685
1.725589 0.556854 -0.810235
1.772118 0.566099 -0.834741
1.777038 0.548419 -0.837724
1.773226 0.546533 -0.810012
1.770516 0.565306 -0.805562
1.725223 0.559748 -0.810134
1.727933 0.540974 -0.814584
1.724121 0.539088 -0.786875
1.723550 0.558959 -0.780960
1.770876 0.562410 -0.805606
1.773586 0.543637 -0.810056
1.769774 0.541750 -0.782348
1.769203 0.561621 -0.776432
1.723531 0.561552 -0.780803
1.724102 0.541681 -0.786718
1.720290 0.539795 -0.759009
1.721878 0.560773 -0.751621
1.769216 0.559026 -0.776532
1.769788 0.539155 -0.782448
1.765976 0.537268 -0.754739
1.767563 0.558247 -0.747351
1.722106 0.563056 -0.751473
1.720519 0.542077 -0.758862
1.716707 0.540191 -0.731150
1.720428 0.562287 -0.722291
1.767329 0.555962 -0.747442
1.765742 0.534983 -0.754830
1.761931 0.533097 -0.727118
1.765652 0.555193 -0.718259
1.720649 0.563872 -0.720795
1.716927 0.541775 -0.729654
1.714967 0.541130 -0.701683
1.720614 0.561921 -0.691632
1.765428 0.553606 -0.719697
1.761707 0.531510 -0.728557
1.759746 0.530865 -0.700586
1.765393 0.551656 -0.690535
1.721367 0.564521 -0.690857
1.715721 0.543730 -0.700908
1.713902 0.543179 -0.672938
1.722511 0.561724 -0.661772
1.764638 0.549053 -0.691253
1.758991 0.528262 -0.701304
1.757173 0.527711 -0.673334
1.765782 0.546257 -0.662168
1.724153 0.565303 -0.661490
1.715544 0.546757 -0.672656
1.713726 0.546206 -0.644687
1.725342 0.562466 -0.632407
1.764140 0.542675 -0.662392
1.755531 0.524129 -0.673559
1.753713 0.523579 -0.645589
1.765329 0.539838 -0.633310
1.785796 0.577412 -0.617163
1.781985 0.576482 -0.648125
1.762679 0.576633 -0.655179
1.765146 0.575847 -0.624991
1.787443 0.531488 -0.617223
1.783633 0.530557 -0.648185
1.764326 0.530708 -0.655239
1.766794 0.529923 -0.625052
1.764611 0.575775 -0.623547
1.762143 0.576560 -0.653735
1.742822 0.576888 -0.660450
1.744011 0.574051 -0.631368
1.767290 0.529995 -0.626510
1.764822 0.530780 -0.656698
1.745501 0.531108 -0.663413
1.746690 0.528271 -0.634331
1.784211 0.576450 -0.648551
1.780435 0.575269 -0.679498
1.762437 0.577189 -0.685932
1.764905 0.576601 -0.655605
1.781401 0.530588 -0.647820
1.777624 0.529407 -0.678767
1.759626 0.531327 -0.685201
1.762094 0.530739 -0.654874
1.764840 0.576576 -0.654024
1.762372 0.577164 -0.684351
1.744375 0.579700 -0.689824
1.745519 0.576904 -0.660739
1.762122 0.530767 -0.656468
1.759654 0.531355 -0.686795
1.741657 0.533892 -0.692269
1.742801 0.531096 -0.663183
1.783031 0.574957 -0.679680
1.779229 0.573803 -0.710637
1.762869 0.577689 -0.716351
1.765033 0.576877 -0.686114
1.775022 0.529718 -0.678646
1.771220 0.528565 -0.709603
1.754859 0.532450 -0.715317
1.757024 0.531639 -0.685080
1.764904 0.576888 -0.684690
1.762740 0.577699 -0.714927
1.746942 0.581375 -0.719326
1.746907 0.579424 -0.690164
1.757119 0.531635 -0.686515
1.754955 0.532446 -0.716752
1.739157 0.536122 -0.721152
1.739122 0.534171 -0.691989
1.780225 0.573594 -0.709300
1.773858 0.576235 -0.741009
1.761658 0.579085 -0.744713
1.763864 0.577480 -0.715014
1.770217 0.528776 -0.711002
1.763851 0.531416 -0.742710
1.751650 0.534266 -0.746414
1.753857 0.532661 -0.716716
1.763858 0.577481 -0.715011
1.761651 0.579086 -0.744710
1.749737 0.581925 -0.748593
1.748060 0.581157 -0.719411
1.753835 0.532666 -0.716728
1.751629 0.534271 -0.746426
1.739714 0.537110 -0.750309
1.738037 0.536342 -0.721127
1.773893 0.576229 -0.741054
1.767489 0.578818 -0.772770
1.759588 0.580634 -0.772822
1.761693 0.579079 -0.744759
1.763808 0.531427 -0.742725
1.757403 0.534016 -0.774441
1.749503 0.535831 -0.774493
1.751607 0.534276 -0.746429
1.761722 0.579071 -0.744724
1.759618 0.580626 -0.772788
1.751461 0.582689 -0.777789
1.749808 0.581910 -0.748607
1.751558 0.534289 -0.746470
1.749453 0.535844 -0.774534
1.741297 0.537907 -0.779535
1.739643 0.537128 -0.750354
1.767578 0.578798 -0.772761
1.761220 0.581495 -0.804471
1.757980 0.581866 -0.794931
1.759678 0.580613 -0.772813
1.757305 0.534041 -0.774508
1.750948 0.536738 -0.806218
1.747707 0.537109 -0.796678
1.749405 0.535856 -0.774560
1.759694 0.580609 -0.772800
1.757996 0.581862 -0.794919
1.753211 0.583460 -0.806975
1.751537 0.582672 -0.777801
1.749377 0.535863 -0.774576
1.747679 0.537116 -0.796694
1.742894 0.538715 -0.808751
1.741220 0.537926 -0.779577
1.761286 0.581480 -0.804474
1.754861 0.584243 -0.836169
1.753260 0.583449 -0.806991
1.758046 0.581851 -0.794934
1.750872 0.536757 -0.806264
1.744448 0.539520 -0.837959
1.742847 0.538727 -0.808781
1.747632 0.537128 -0.796724
