3.514553 0.463507 0.196139
3.522308 0.475420 0.197202
3.522504 0.486205 0.198512
3.512980 0.480133 0.198358
3.510967 0.470970 0.136774
3.518722 0.482883 0.137837
3.518919 0.493668 0.139147
3.509395 0.487596 0.138993
3.512419 0.480526 0.198433
3.521943 0.486598 0.198588
3.522278 0.500868 0.200317
3.511403 0.497289 0.200229
3.509955 0.487232 0.138921
3.519480 0.493304 0.139075
3.519815 0.507574 0.140805
3.508940 0.503995 0.140716
3.511809 0.497966 0.200278
3.522685 0.501545 0.200367
3.523048 0.517718 0.201444
3.510549 0.514284 0.202184
3.508533 0.503350 0.140670
3.519408 0.506929 0.140759
3.519772 0.523102 0.141837
3.507272 0.519668 0.142577
3.510894 0.513045 0.202025
3.523394 0.516479 0.201285
3.524655 0.531525 0.203564
3.509253 0.529355 0.203946
3.506926 0.520939 0.142740
3.519425 0.524373 0.142000
3.520687 0.539419 0.144279
3.505284 0.537249 0.144661
3.514385 0.463606 0.196161
3.527756 0.464972 0.195631
3.529649 0.476490 0.196902
3.522140 0.475520 0.197224
3.511147 0.470858 0.136750
3.524518 0.472223 0.136219
3.526411 0.483741 0.137490
3.518902 0.482771 0.137813
3.522342 0.475571 0.197219
3.529852 0.476541 0.196896
3.531802 0.488457 0.198195
3.522539 0.486356 0.198529
3.518705 0.482742 0.137820
3.526215 0.483712 0.137498
3.528165 0.495628 0.138797
3.518902 0.493527 0.139131
3.522676 0.486354 0.198520
3.531939 0.488455 0.198186
3.534229 0.502526 0.199721
3.523012 0.500625 0.200250
3.518767 0.493554 0.139143
3.528030 0.495655 0.138809
3.530319 0.509726 0.140343
3.519102 0.507825 0.140872
3.521919 0.501535 0.200398
3.533136 0.503437 0.199869
3.535600 0.518703 0.201560
3.522282 0.517708 0.201475
3.520198 0.506944 0.140727
3.531415 0.508846 0.140198
3.533879 0.524112 0.141889
3.520562 0.523117 0.141805
3.522147 0.516410 0.201332
3.535464 0.517405 0.201417
3.538813 0.533614 0.203255
3.523408 0.531456 0.203612
3.520701 0.524446 0.141951
3.534018 0.525441 0.142036
3.537366 0.541650 0.143873
3.521962 0.539492 0.144231
3.527733 0.465145 0.195653
3.541106 0.466513 0.195132
3.537047 0.477121 0.196547
3.529626 0.476664 0.196924
3.524561 0.472051 0.136196
3.537935 0.473418 0.135676
3.533875 0.484027 0.137090
3.526455 0.483569 0.137467
3.529846 0.476644 0.196909
3.537267 0.477101 0.196532
3.540636 0.488165 0.197604
3.531797 0.488559 0.198208
3.526236 0.483612 0.137485
3.533657 0.484069 0.137108
3.537026 0.495133 0.138180
3.528187 0.495527 0.138784
3.531949 0.488552 0.198197
3.540788 0.488158 0.197594
3.545153 0.502835 0.199014
3.534238 0.502623 0.199732
3.528041 0.495560 0.138797
3.536880 0.495166 0.138193
3.541245 0.509843 0.139613
3.530330 0.509631 0.140331
3.534347 0.502549 0.199715
3.545262 0.502761 0.198997
3.549943 0.518709 0.200589
3.536811 0.517815 0.201406
3.530228 0.509736 0.140350
3.541142 0.509947 0.139633
3.545823 0.525896 0.141225
3.532692 0.525002 0.142041
3.536444 0.517364 0.201371
3.549575 0.518258 0.200555
3.555188 0.535746 0.202822
3.539792 0.533573 0.203209
3.533067 0.525485 0.142080
3.546199 0.526380 0.141263
3.551811 0.543868 0.143531
3.536415 0.541694 0.143918
3.537203 0.477225 0.196550
3.541263 0.466617 0.195136
3.548381 0.484167 0.196682
3.540572 0.488289 0.197622
3.533734 0.483938 0.137088
3.537794 0.473329 0.135674
3.544912 0.490879 0.137220
3.537104 0.495002 0.138161
3.540787 0.488285 0.197609
3.548595 0.484163 0.196668
3.555716 0.501719 0.198158
3.545152 0.502962 0.199028
3.536900 0.495036 0.138177
3.544708 0.490914 0.137236
3.551829 0.508470 0.138727
3.541264 0.509713 0.139597
3.545295 0.502814 0.199002
3.555859 0.501571 0.198131
3.562980 0.519125 0.199707
3.549976 0.518763 0.200594
3.541133 0.509894 0.139627
3.551697 0.508651 0.138757
3.558818 0.526204 0.140332
3.545814 0.525843 0.141219
3.550491 0.517997 0.200451
3.563495 0.518359 0.199565
3.571392 0.538513 0.201621
3.556104 0.535485 0.202719
3.545311 0.526644 0.141365
3.558315 0.527005 0.140478
3.566212 0.547159 0.142535
3.550924 0.544132 0.143632
3.534131 0.464077 0.187225
3.532559 0.480704 0.189444
3.526955 0.478678 0.196831
3.527871 0.462626 0.191522
3.491375 0.470388 0.145694
3.489802 0.487015 0.147912
3.484199 0.484989 0.155300
3.485114 0.468937 0.149991
3.536915 0.482133 0.183941
3.535899 0.498896 0.185736
3.530333 0.496155 0.196642
3.531311 0.480107 0.191328
3.485443 0.485618 0.153422
3.484428 0.502381 0.155218
3.478862 0.499640 0.166123
3.479840 0.483592 0.160810
3.537929 0.499690 0.181719
3.536668 0.516007 0.183626
3.531756 0.512980 0.198110
3.532363 0.496948 0.192625
3.482396 0.501620 0.159242
3.481136 0.517938 0.161148
3.476224 0.514910 0.175633
3.476831 0.498879 0.170147
3.537614 0.517694 0.180950
3.535972 0.534005 0.182871
3.531419 0.530704 0.200659
3.532702 0.514666 0.195434
3.480187 0.516283 0.163831
3.478546 0.532594 0.165752
3.473993 0.529294 0.183541
3.475276 0.513256 0.178316
3.510611 0.512664 0.195770
3.526014 0.514833 0.195388
3.531151 0.525373 0.204803
3.521055 0.523308 0.204315
3.503933 0.553967 0.152848
3.519336 0.556136 0.152466
3.524474 0.566676 0.161882
3.514377 0.564611 0.161393
3.526026 0.514703 0.195259
3.541430 0.516861 0.194902
3.544208 0.527517 0.204900
3.531164 0.525242 0.204675
3.519350 0.556271 0.152595
3.534754 0.558429 0.152238
3.537532 0.569086 0.162235
3.524488 0.566811 0.162010
3.541526 0.516758 0.194787
3.556922 0.518932 0.194399
3.557918 0.529491 0.204681
3.544303 0.527414 0.204784
3.534688 0.558536 0.152353
3.550084 0.560710 0.151965
3.551080 0.571269 0.162247
3.537465 0.569193 0.162350
3.558112 0.518111 0.193323
3.573400 0.521138 0.192226
3.571624 0.530250 0.203327
3.559108 0.528670 0.203605
3.548922 0.561535 0.153040
3.564211 0.564562 0.151943
3.562434 0.573674 0.163044
3.549918 0.572094 0.163322
3.572159 0.520097 0.191300
3.578444 0.530067 0.202014
3.570383 0.529209 0.202401
3.565471 0.565609 0.152872
3.571755 0.575579 0.163586
3.563694 0.574722 0.163973
3.510526 0.512746 0.195861
3.520970 0.523391 0.204407
3.521324 0.531919 0.212534
3.509795 0.525576 0.208184
3.504005 0.553893 0.152766
3.514449 0.564538 0.161312
3.514803 0.573066 0.169439
3.503274 0.566723 0.165089
3.520851 0.523306 0.204343
3.530947 0.525370 0.204831
3.533129 0.535607 0.214388
3.521205 0.531834 0.212470
3.514590 0.564634 0.161383
3.524687 0.566698 0.161871
3.526868 0.576935 0.171428
3.514944 0.573163 0.169510
3.531006 0.525293 0.204749
3.544049 0.527568 0.204974
3.546254 0.538337 0.215131
3.533187 0.535530 0.214305
3.524653 0.566780 0.161955
3.537696 0.569055 0.162180
3.539901 0.579824 0.172337
3.526834 0.577017 0.171512
3.544094 0.527434 0.204836
3.557709 0.529510 0.204733
3.559774 0.540304 0.215111
3.546298 0.538203 0.214993
3.537678 0.569195 0.162319
3.551293 0.571271 0.162216
3.553358 0.582065 0.172595
3.539882 0.579964 0.172476
3.557646 0.529433 0.204666
3.570161 0.531013 0.204388
3.572698 0.541755 0.214629
3.559711 0.540227 0.215045
3.551382 0.571351 0.162282
3.563898 0.572932 0.162004
3.566435 0.583674 0.172245
3.553448 0.582146 0.172661
3.570120 0.530959 0.204340
3.578182 0.531817 0.203953
3.584344 0.542680 0.213918
3.572657 0.541701 0.214581
3.563962 0.572989 0.162051
3.572024 0.573847 0.161664
3.578186 0.584710 0.171629
3.566499 0.583731 0.172292
3.509573 0.525643 0.208281
3.521103 0.531986 0.212630
3.521058 0.542967 0.223098
3.508832 0.538525 0.220556
3.503495 0.566679 0.165015
3.515024 0.573022 0.169364
3.514979 0.584003 0.179832
3.502754 0.579561 0.177290
3.521101 0.531934 0.212580
3.533025 0.535706 0.214498
3.534048 0.546667 0.224812
3.521056 0.542915 0.223048
3.515050 0.573083 0.169419
3.526974 0.576856 0.171337
3.527997 0.587817 0.181651
3.515005 0.584064 0.179887
3.532985 0.535636 0.214436
3.546051 0.538443 0.215262
3.547804 0.549507 0.225700
3.534008 0.546597 0.224750
3.527040 0.576933 0.171401
3.540106 0.579740 0.172227
3.541859 0.590804 0.182665
3.528063 0.587894 0.181715
3.546107 0.538362 0.215176
3.559582 0.540463 0.215294
3.562107 0.551562 0.225695
3.547860 0.549426 0.225614
3.540078 0.579827 0.172314
3.553554 0.581928 0.172433
3.556078 0.593027 0.182834
3.541831 0.590891 0.182752
3.559555 0.540348 0.215186
3.572542 0.541876 0.214770
3.576363 0.552844 0.225061
3.562079 0.551446 0.225587
3.553609 0.582047 0.172541
3.566596 0.583575 0.172125
3.570417 0.594543 0.182416
3.556133 0.593146 0.182942
3.572518 0.541768 0.214667
3.584205 0.542747 0.214004
3.590360 0.553647 0.223932
3.576339 0.552736 0.224958
3.566647 0.583685 0.172226
3.578334 0.584665 0.171563
3.584489 0.595565 0.181491
3.570468 0.594653 0.182517
3.508734 0.538609 0.220649
3.520959 0.543051 0.223191
3.520134 0.554649 0.234207
3.507991 0.551503 0.232906
3.502851 0.579501 0.177220
3.515076 0.583943 0.179762
3.514251 0.595541 0.190778
3.502108 0.592395 0.189477
3.520883 0.542982 0.223136
3.533875 0.546734 0.224899
3.534076 0.557981 0.235610
3.520057 0.554580 0.234152
3.515179 0.584020 0.179821
3.528171 0.587773 0.181585
3.528372 0.599019 0.192295
3.514353 0.595618 0.190837
3.534129 0.546854 0.224977
3.547925 0.549764 0.225926
3.549179 0.561189 0.236293
3.534331 0.558101 0.235687
3.527944 0.587660 0.181510
3.541740 0.590570 0.182459
3.542994 0.601995 0.192825
3.528146 0.598907 0.192220
3.547738 0.549940 0.226116
3.561985 0.552076 0.226198
3.564418 0.563475 0.236406
3.548992 0.561365 0.236483
3.541957 0.590399 0.182270
3.556203 0.592535 0.182352
3.558637 0.603933 0.192559
3.543210 0.601823 0.192636
3.561774 0.551991 0.226146
3.576058 0.553389 0.225620
3.580107 0.564771 0.235783
3.564207 0.563390 0.236354
3.556445 0.592623 0.182403
3.570729 0.594020 0.181877
3.574779 0.605403 0.192040
3.558878 0.604022 0.192611
3.576085 0.553137 0.225380
3.590107 0.554049 0.224354
3.596543 0.565637 0.234734
3.580135 0.564519 0.235544
3.570732 0.594274 0.182115
3.584753 0.595186 0.181089
3.591189 0.606774 0.191469
3.574781 0.605656 0.192278
3.507482 0.554506 0.235442
3.519625 0.557652 0.236743
3.516712 0.570233 0.245840
3.500546 0.566310 0.244895
3.502611 0.589416 0.186962
3.514754 0.592563 0.188263
3.511841 0.605144 0.197360
3.495675 0.601220 0.196415
3.518659 0.557594 0.236779
3.532678 0.560996 0.238237
3.531848 0.573517 0.247479
3.515746 0.570175 0.245876
3.515749 0.592628 0.188230
3.529768 0.596029 0.189688
3.528939 0.608550 0.198930
3.512837 0.605209 0.197327
3.533108 0.560067 0.237508
3.547956 0.563155 0.238114
3.548602 0.574909 0.247908
3.532279 0.572588 0.246750
3.529369 0.596964 0.190419
3.544217 0.600052 0.191024
3.544862 0.611807 0.200819
3.528539 0.609485 0.199661
3.548301 0.561939 0.237077
3.563727 0.564049 0.237000
3.565733 0.575343 0.247087
3.548946 0.573694 0.246871
3.543904 0.601272 0.192062
3.559331 0.603383 0.191985
3.561336 0.614677 0.202072
3.544549 0.613027 0.201856
3.563664 0.563256 0.236288
3.579565 0.564637 0.235718
3.583156 0.575628 0.246008
3.565670 0.574551 0.246375
3.559427 0.604178 0.192697
3.575327 0.605559 0.192126
3.578919 0.616550 0.202416
3.561432 0.615473 0.202784
3.579702 0.564100 0.235186
3.596110 0.565217 0.234377
3.601583 0.576031 0.244665
3.583293 0.575091 0.245476
3.575224 0.606099 0.192656
3.591632 0.607217 0.191847
3.597106 0.618030 0.202135
3.578816 0.617090 0.202946
3.500861 0.564235 0.243219
3.517027 0.568158 0.244165
3.514303 0.579603 0.254892
3.494798 0.575709 0.253422
3.495351 0.603319 0.198110
3.511517 0.607242 0.199055
3.508793 0.618687 0.209783
3.489287 0.614793 0.208312
3.515602 0.566712 0.242961
3.531704 0.570053 0.244564
3.530881 0.580624 0.255701
3.512878 0.578156 0.253689
3.512977 0.608696 0.200261
3.529079 0.612037 0.201865
3.528256 0.622608 0.213001
3.510253 0.620140 0.210989
3.532148 0.569523 0.243997
3.548471 0.571845 0.245155
3.548821 0.582341 0.255878
3.531324 0.580094 0.255134
3.528670 0.612572 0.202434
3.544993 0.614894 0.203592
3.545343 0.625390 0.214315
3.527846 0.623143 0.213571
3.548547 0.571931 0.245238
3.565333 0.573581 0.245453
3.566781 0.583992 0.256060
3.548897 0.582428 0.255961
3.544951 0.614812 0.203511
3.561738 0.616461 0.203726
3.563186 0.626872 0.214333
3.545301 0.625308 0.214234
3.565457 0.573669 0.245532
3.582943 0.574746 0.245164
3.585793 0.585368 0.255614
3.566905 0.584079 0.256139
3.561650 0.616377 0.203647
3.579136 0.617454 0.203280
3.581986 0.628077 0.213729
3.563098 0.626787 0.214254
3.583085 0.574858 0.245265
3.601375 0.575799 0.244454
3.606668 0.586658 0.254906
3.585934 0.585481 0.255715
3.579033 0.617344 0.203178
3.597323 0.618284 0.202366
3.602616 0.629143 0.212818
3.581882 0.627966 0.213627
3.494919 0.573616 0.251406
3.514425 0.577511 0.252876
3.513814 0.588763 0.264728
3.494573 0.585792 0.264393
3.489161 0.616908 0.210351
3.508667 0.620802 0.211822
3.508056 0.632055 0.223673
3.488815 0.629083 0.223338
3.512319 0.577534 0.253086
3.530321 0.580001 0.255098
3.529953 0.590639 0.266112
3.511708 0.588786 0.264937
3.510810 0.620785 0.211615
3.528812 0.623253 0.213627
3.528444 0.633891 0.224642
3.510199 0.632037 0.223466
3.531620 0.580306 0.255324
3.549117 0.582553 0.256068
3.549220 0.592963 0.266492
3.531252 0.590943 0.266339
3.527550 0.622953 0.213402
3.545047 0.625200 0.214147
3.545150 0.635610 0.224570
3.527181 0.633591 0.224417
3.548969 0.582831 0.256362
3.566854 0.584395 0.256461
3.567373 0.594831 0.266625
3.549072 0.593241 0.266785
3.545230 0.624925 0.213854
3.563115 0.626489 0.213953
3.563634 0.636924 0.224117
3.545333 0.635335 0.224277
3.566938 0.584443 0.256501
3.585826 0.585732 0.255975
3.586826 0.596205 0.266294
3.567457 0.594878 0.266665
3.563068 0.626444 0.213913
3.581956 0.627734 0.213388
3.582956 0.638207 0.223707
3.563587 0.636880 0.224077
3.585977 0.585693 0.255923
3.606710 0.586870 0.255114
3.609212 0.597661 0.265518
3.586977 0.596167 0.266241
3.581846 0.627775 0.213439
3.602579 0.628952 0.212631
3.605081 0.639743 0.223034
3.582846 0.638249 0.223758
3.493218 0.590251 0.268372
3.512459 0.593222 0.268707
3.512585 0.606085 0.278285
3.494635 0.604926 0.278034
3.490170 0.624650 0.219380
3.509411 0.627621 0.219715
3.509536 0.640484 0.229293
3.491587 0.639325 0.229042
3.511478 0.592794 0.268443
3.529723 0.594648 0.269618
3.529552 0.606826 0.278260
3.511604 0.605658 0.278021
3.510429 0.628052 0.219981
3.528674 0.629906 0.221156
3.528502 0.642084 0.229798
3.510554 0.640916 0.229559
3.530529 0.594495 0.269476
3.548498 0.596514 0.269629
3.548307 0.607839 0.278358
3.530358 0.606673 0.278117
3.527903 0.630062 0.221300
3.545872 0.632081 0.221453
3.545680 0.643406 0.230183
3.527732 0.642240 0.229941
3.548578 0.595579 0.268904
3.566879 0.597168 0.268745
3.566335 0.608075 0.277871
3.548387 0.606904 0.277634
3.545827 0.633019 0.222177
3.564128 0.634608 0.222017
3.563584 0.645515 0.231144
3.545636 0.644344 0.230907
3.566911 0.596317 0.268035
3.586280 0.597644 0.267664
3.584315 0.608393 0.277401
3.566367 0.607224 0.277161
3.564133 0.635462 0.222727
3.583502 0.636789 0.222357
3.581537 0.647538 0.232093
3.563589 0.646369 0.231854
3.586370 0.596554 0.266668
3.608606 0.598049 0.265945
3.602366 0.608315 0.276810
3.584406 0.607303 0.276405
3.583450 0.637882 0.223352
3.605686 0.639376 0.222628
3.599446 0.649642 0.233494
3.581486 0.648630 0.233089
