4.340313 0.426140 -0.758173
4.347987 0.446518 -0.765035
4.344022 0.452394 -0.760054
4.335409 0.434968 -0.751291
4.309885 0.428592 -0.783959
4.317559 0.448970 -0.790821
4.313594 0.454846 -0.785840
4.304981 0.437421 -0.777077
4.347953 0.447170 -0.764949
4.355232 0.467439 -0.772447
4.351444 0.472215 -0.767884
4.343988 0.453046 -0.759968
4.317608 0.448356 -0.790922
4.324888 0.468625 -0.798420
4.321100 0.473401 -0.793858
4.313644 0.454232 -0.785941
4.355364 0.467717 -0.772592
4.361872 0.488261 -0.779877
4.357944 0.492464 -0.775018
4.351576 0.472493 -0.768029
4.324770 0.468387 -0.798290
4.331278 0.488932 -0.805574
4.327350 0.493135 -0.800716
4.320982 0.473163 -0.793727
4.361906 0.487845 -0.779934
4.366970 0.509482 -0.784793
4.362360 0.512752 -0.778976
4.357977 0.492048 -0.775076
4.331256 0.489390 -0.805528
4.336321 0.511027 -0.810386
4.331711 0.514297 -0.804569
4.327328 0.493592 -0.800670
4.367107 0.509075 -0.784990
4.370563 0.531519 -0.787239
4.365414 0.533849 -0.780552
4.362497 0.512345 -0.779173
4.336192 0.511478 -0.810195
4.339648 0.533922 -0.812443
4.334499 0.536252 -0.805757
4.331582 0.514748 -0.804378
4.370742 0.531744 -0.787441
4.372375 0.554468 -0.787663
4.366696 0.556092 -0.780378
4.365593 0.534074 -0.780755
4.339474 0.533742 -0.812242
4.341107 0.556466 -0.812464
4.335427 0.558089 -0.805179
4.334325 0.536071 -0.805556
4.372499 0.554868 -0.787794
4.373329 0.577804 -0.787791
4.365648 0.577259 -0.777861
4.366819 0.556491 -0.780510
4.340984 0.556111 -0.812331
4.341814 0.579047 -0.812328
4.334133 0.578502 -0.802398
4.335304 0.557734 -0.805047
4.335562 0.435156 -0.751457
4.344175 0.452581 -0.760220
4.340251 0.458440 -0.755208
4.330649 0.443974 -0.744583
4.304819 0.437248 -0.776899
4.313433 0.454673 -0.785662
4.309508 0.460533 -0.780650
4.299906 0.446066 -0.770025
4.344093 0.453070 -0.760090
4.351549 0.472239 -0.768006
4.347764 0.476846 -0.763391
4.340168 0.458929 -0.755078
4.313532 0.454219 -0.785810
4.320988 0.473388 -0.793726
4.317203 0.477995 -0.789110
4.309608 0.460078 -0.780798
4.351510 0.472526 -0.767951
4.357878 0.492497 -0.774939
4.353760 0.496328 -0.770039
4.347726 0.477132 -0.763335
4.321040 0.473139 -0.793796
4.327408 0.493111 -0.800785
4.323290 0.496941 -0.795884
4.317256 0.477746 -0.789181
4.357885 0.491870 -0.774979
4.362268 0.512574 -0.778878
4.357573 0.515751 -0.772842
4.353768 0.495701 -0.770078
4.327411 0.493778 -0.800756
4.331794 0.514482 -0.804656
4.327099 0.517659 -0.798619
4.323293 0.497609 -0.795855
4.362492 0.512222 -0.779180
4.365409 0.533727 -0.780558
4.360019 0.536208 -0.773615
4.357797 0.515400 -0.773143
4.331577 0.514876 -0.804359
4.334494 0.536380 -0.805737
4.329103 0.538861 -0.798794
4.326882 0.518053 -0.798322
4.365542 0.534081 -0.780690
4.366644 0.556099 -0.780314
4.360887 0.557663 -0.772985
4.360151 0.536563 -0.773746
4.334365 0.536068 -0.805606
4.335467 0.558086 -0.805230
4.329710 0.559649 -0.797902
4.328974 0.538549 -0.798663
4.366776 0.556358 -0.780462
4.365605 0.577126 -0.777814
4.357913 0.576579 -0.767899
4.361019 0.557922 -0.773134
4.335334 0.557868 -0.805077
4.334163 0.578636 -0.802428
4.326471 0.578089 -0.792514
4.329576 0.559432 -0.797749
4.330747 0.444120 -0.744691
4.340349 0.458587 -0.755317
4.336476 0.464411 -0.750263
4.325789 0.452940 -0.737851
4.299799 0.445934 -0.769905
4.309401 0.460401 -0.780530
4.305528 0.466225 -0.775477
4.294841 0.454753 -0.763065
4.340232 0.459084 -0.755148
4.347828 0.477000 -0.763460
4.343954 0.481459 -0.758872
4.336358 0.464908 -0.750095
4.309537 0.459934 -0.780719
4.317133 0.477851 -0.789031
4.313259 0.482309 -0.784443
4.305663 0.465758 -0.775666
4.347804 0.476968 -0.763433
4.353839 0.496163 -0.770136
4.349792 0.499596 -0.764969
4.343931 0.481426 -0.758845
4.317170 0.477919 -0.789073
4.323204 0.497114 -0.795777
4.319157 0.500546 -0.790609
4.313296 0.482377 -0.784485
4.353844 0.495519 -0.770183
4.357649 0.515569 -0.772947
4.352744 0.518671 -0.766801
4.349797 0.498951 -0.765016
4.323208 0.497797 -0.795739
4.327014 0.517848 -0.798503
4.322109 0.520950 -0.792356
4.319162 0.501230 -0.790571
4.357786 0.515211 -0.773150
4.360007 0.536019 -0.773622
4.354645 0.538440 -0.766487
4.352881 0.518313 -0.767004
4.326883 0.518247 -0.798302
4.329105 0.539056 -0.798774
4.323742 0.541476 -0.791639
4.321978 0.521349 -0.792155
4.360177 0.536700 -0.773768
4.360912 0.557800 -0.773007
4.355001 0.559314 -0.765703
4.354815 0.539121 -0.766633
4.328937 0.538416 -0.798627
4.329673 0.559516 -0.797866
4.323761 0.561029 -0.790562
4.323575 0.540836 -0.791492
4.360931 0.557613 -0.773045
4.357825 0.576270 -0.767810
4.350151 0.575724 -0.757879
4.355019 0.559127 -0.765741
4.329651 0.559742 -0.797821
4.326545 0.578399 -0.792586
4.318871 0.577853 -0.782654
4.323739 0.561255 -0.790517
4.343335 0.419447 -0.773085
4.340134 0.415142 -0.781442
4.347204 0.433740 -0.794254
4.351009 0.439825 -0.779946
4.306863 0.435272 -0.769065
4.303662 0.430967 -0.777423
4.310732 0.449566 -0.790235
4.314537 0.455650 -0.775927
4.351283 0.440535 -0.780113
4.347478 0.434451 -0.794421
4.354556 0.455675 -0.802619
4.358563 0.460804 -0.787611
4.314278 0.454980 -0.775778
4.310473 0.448895 -0.790085
4.317551 0.470120 -0.798284
4.321558 0.475249 -0.783276
4.358620 0.461492 -0.788917
4.354613 0.456363 -0.803925
4.360556 0.478437 -0.810601
4.365128 0.482036 -0.796201
4.321514 0.474603 -0.781985
4.317507 0.469474 -0.796993
4.323451 0.491548 -0.803669
4.328022 0.495148 -0.789269
4.365244 0.483278 -0.797475
4.360672 0.479678 -0.811875
4.365740 0.502361 -0.817030
4.370308 0.504915 -0.802334
4.327918 0.493950 -0.788007
4.323346 0.490350 -0.802406
4.328413 0.513033 -0.807562
4.332982 0.515587 -0.792865
4.370634 0.506729 -0.802723
4.366065 0.504175 -0.817419
4.369673 0.527504 -0.820674
4.374091 0.529173 -0.804971
4.332665 0.513819 -0.792484
4.328096 0.511265 -0.807180
4.331703 0.534594 -0.810435
4.336121 0.536263 -0.794732
4.374422 0.531007 -0.804670
4.370004 0.529338 -0.820373
4.372147 0.553009 -0.821712
4.376055 0.553731 -0.804892
4.335796 0.534475 -0.795037
4.331378 0.532806 -0.810740
4.333521 0.556477 -0.812080
4.337429 0.557200 -0.795259
4.376278 0.554469 -0.804143
4.372371 0.553747 -0.820963
4.374061 0.577474 -0.820557
4.377108 0.577405 -0.804139
4.337208 0.556508 -0.796008
4.333301 0.555786 -0.812829
4.334991 0.579513 -0.812423
4.338038 0.579444 -0.796005
4.330712 0.411176 -0.792871
4.314646 0.408724 -0.802270
4.323271 0.428325 -0.812925
4.337782 0.429775 -0.805683
4.313066 0.434926 -0.766013
4.297000 0.432474 -0.775412
4.305624 0.452075 -0.786067
4.320136 0.453524 -0.778825
4.337602 0.432787 -0.807940
4.323090 0.431337 -0.815182
4.330597 0.452929 -0.823212
4.344680 0.454011 -0.816138
4.320332 0.450553 -0.776588
4.305820 0.449103 -0.783830
4.313327 0.470695 -0.791861
4.327409 0.471777 -0.784787
4.344873 0.455568 -0.816821
4.330791 0.454486 -0.823896
4.336631 0.476869 -0.830840
4.350816 0.477642 -0.823497
4.327229 0.470264 -0.784118
4.313147 0.469182 -0.791192
4.318987 0.491565 -0.798137
4.333172 0.492338 -0.790794
4.351060 0.479144 -0.823965
4.336875 0.478372 -0.831308
4.342607 0.501236 -0.836230
4.356127 0.501827 -0.829120
4.332940 0.490881 -0.790338
4.318755 0.490108 -0.797681
4.324488 0.512972 -0.802603
4.338008 0.513564 -0.795493
4.356204 0.503979 -0.829684
4.342685 0.503388 -0.836793
4.346427 0.527135 -0.839807
4.359812 0.527308 -0.832939
4.337939 0.511458 -0.794938
4.324420 0.510867 -0.802048
4.328162 0.534613 -0.805061
4.341546 0.534787 -0.798193
4.359796 0.529237 -0.833253
4.346412 0.529063 -0.840121
4.348295 0.553102 -0.841656
4.361940 0.552908 -0.834593
4.341567 0.532906 -0.797883
4.328183 0.532732 -0.804751
4.330066 0.556771 -0.806286
4.343711 0.556577 -0.799223
4.362050 0.554380 -0.834628
4.348406 0.554575 -0.841691
4.349406 0.578672 -0.841739
4.363741 0.578107 -0.834222
4.343603 0.555152 -0.799189
4.329959 0.555347 -0.806253
4.330959 0.579444 -0.806300
4.345294 0.578879 -0.798783
4.314832 0.409687 -0.802946
4.298775 0.407254 -0.812349
4.308849 0.427928 -0.820894
4.323456 0.429288 -0.813602
4.296783 0.431507 -0.774752
4.280726 0.429074 -0.784154
4.290800 0.449748 -0.792699
4.305408 0.451108 -0.785407
4.323060 0.431407 -0.815237
4.308453 0.430047 -0.822529
4.316513 0.451842 -0.830278
4.330568 0.452999 -0.823268
4.305821 0.449030 -0.783789
4.291213 0.447671 -0.791081
4.299273 0.469465 -0.798830
4.313328 0.470623 -0.791820
4.330779 0.454421 -0.823873
4.316724 0.453263 -0.830883
4.322350 0.475967 -0.838215
4.336619 0.476804 -0.830817
4.313131 0.469245 -0.791230
4.299075 0.468088 -0.798240
4.304701 0.490791 -0.805572
4.318971 0.491628 -0.798174
4.336852 0.478357 -0.831315
4.322582 0.477520 -0.838713
4.329048 0.500739 -0.843345
4.342585 0.501222 -0.836237
4.318750 0.490121 -0.797688
4.304480 0.489284 -0.805087
4.310947 0.512502 -0.809719
4.324483 0.512985 -0.802610
4.342663 0.503563 -0.836841
4.329127 0.503080 -0.843950
4.333014 0.527155 -0.846726
4.346406 0.527309 -0.839855
4.324414 0.510691 -0.802014
4.310878 0.510208 -0.809122
4.314765 0.534283 -0.811898
4.328157 0.534437 -0.805027
4.346377 0.529060 -0.840140
4.332984 0.528906 -0.847011
4.334596 0.553301 -0.848710
4.348259 0.553099 -0.841674
4.328192 0.532735 -0.804747
4.314800 0.532581 -0.811618
4.316412 0.556977 -0.813317
4.330075 0.556774 -0.806282
4.348367 0.554502 -0.841710
4.334703 0.554704 -0.848745
4.335026 0.579161 -0.849269
4.349367 0.578599 -0.841758
4.329970 0.555421 -0.806248
4.316307 0.555623 -0.813284
4.316630 0.580080 -0.813808
4.330970 0.579518 -0.806296
4.314199 0.421091 -0.724709
4.313376 0.435897 -0.723154
4.297256 0.432810 -0.703604
4.298155 0.416819 -0.705457
4.283344 0.422174 -0.750079
4.282521 0.436979 -0.748524
4.266402 0.433892 -0.728974
4.267301 0.417902 -0.730828
4.298126 0.416785 -0.705424
4.297227 0.432776 -0.703571
4.281010 0.429690 -0.684067
4.282136 0.412492 -0.686165
4.267297 0.417928 -0.730822
4.266398 0.433919 -0.728969
4.250181 0.430833 -0.709465
4.251307 0.413635 -0.711563
4.282125 0.412492 -0.686152
4.280998 0.429690 -0.684053
4.264852 0.426601 -0.664539
4.266075 0.408213 -0.666884
4.251286 0.413627 -0.711538
4.250159 0.430825 -0.709439
4.234014 0.427736 -0.689925
4.235236 0.409348 -0.692271
4.266052 0.408220 -0.666857
4.264830 0.426608 -0.664511
4.248569 0.424643 -0.644920
4.249989 0.405504 -0.647428
4.235226 0.409335 -0.692260
4.234004 0.427723 -0.689914
4.217743 0.425758 -0.670323
4.219163 0.406619 -0.672831
4.249972 0.405578 -0.647405
4.248553 0.424717 -0.644897
4.232272 0.423251 -0.625264
4.233832 0.403507 -0.627842
4.219147 0.406541 -0.672815
4.217727 0.425680 -0.670307
4.201447 0.424214 -0.650674
4.203006 0.404470 -0.653252
4.233811 0.403580 -0.627814
4.232251 0.423324 -0.625236
4.215893 0.421850 -0.605514
4.217699 0.401511 -0.608297
4.202995 0.404393 -0.653241
4.201435 0.424138 -0.650662
4.185077 0.422664 -0.630941
4.186883 0.402324 -0.633724
4.313386 0.435928 -0.723166
4.312622 0.450727 -0.721582
4.296287 0.448824 -0.701799
4.297267 0.432841 -0.703616
4.282509 0.436978 -0.748509
4.281745 0.451777 -0.746926
4.265410 0.449874 -0.727142
4.266389 0.433891 -0.728959
4.297221 0.432836 -0.703561
4.296242 0.448819 -0.701744
4.279916 0.446921 -0.681990
4.281004 0.429750 -0.684057
4.266402 0.433891 -0.728975
4.265423 0.449874 -0.727158
4.249097 0.447976 -0.707404
4.250184 0.430805 -0.709471
4.281006 0.429732 -0.684060
4.279918 0.446902 -0.681993
4.263575 0.444993 -0.662205
4.264860 0.426643 -0.664546
4.250150 0.430819 -0.709428
4.249062 0.447989 -0.707362
4.232720 0.446080 -0.687573
4.234004 0.427730 -0.689914
4.264803 0.426654 -0.664476
4.263518 0.445004 -0.662135
4.247149 0.443813 -0.642430
4.248542 0.424689 -0.644885
4.234028 0.427715 -0.689944
4.232744 0.446065 -0.687604
4.216375 0.444874 -0.667898
4.217768 0.425750 -0.670353
4.248512 0.424742 -0.644847
4.247119 0.443867 -0.642392
4.230623 0.443006 -0.622602
4.232231 0.423276 -0.625213
4.217765 0.425694 -0.670353
4.216373 0.444818 -0.667898
4.199877 0.443957 -0.648107
4.201485 0.424228 -0.650719
4.232205 0.423367 -0.625178
4.230597 0.443096 -0.622566
4.214035 0.442241 -0.602747
4.215846 0.421893 -0.605456
4.201478 0.424136 -0.650715
4.199871 0.443865 -0.648103
4.183309 0.443010 -0.628284
4.185120 0.422662 -0.630993
4.312622 0.450795 -0.721580
4.311771 0.465590 -0.720038
4.295336 0.464870 -0.699997
4.296287 0.448892 -0.701796
4.281743 0.451739 -0.746925
4.280892 0.466534 -0.745384
4.264457 0.465814 -0.725342
4.265408 0.449836 -0.727142
4.296253 0.448847 -0.701756
4.295302 0.464825 -0.699956
4.278798 0.464085 -0.679931
4.279927 0.446949 -0.682002
4.265410 0.449879 -0.727142
4.264459 0.465856 -0.725342
4.247955 0.465116 -0.705317
4.249084 0.447980 -0.707388
4.279923 0.446928 -0.681998
4.278794 0.464063 -0.679927
4.262346 0.463339 -0.659906
4.263580 0.445018 -0.662210
4.249055 0.447999 -0.707353
4.247927 0.465135 -0.705281
4.231479 0.464411 -0.685261
4.232713 0.446090 -0.687564
4.263494 0.445017 -0.662105
4.262260 0.463339 -0.659802
4.245686 0.462924 -0.639915
4.247125 0.443827 -0.642400
4.232766 0.446089 -0.687629
4.231532 0.464410 -0.685326
4.214958 0.463995 -0.665439
4.216397 0.444898 -0.667924
4.247080 0.443889 -0.642344
4.245641 0.462986 -0.639859
4.229008 0.462756 -0.619991
4.230585 0.443028 -0.622554
4.216408 0.444835 -0.667940
4.214970 0.463931 -0.665455
4.198336 0.463702 -0.645587
4.199913 0.443974 -0.648150
4.230553 0.443091 -0.622515
4.228977 0.462820 -0.619952
4.212171 0.462575 -0.599920
4.213991 0.442237 -0.602695
4.199911 0.443909 -0.648150
4.198334 0.463637 -0.645587
4.181529 0.463393 -0.625555
4.183349 0.443055 -0.628330
4.307425 0.479540 -0.722980
4.299609 0.486846 -0.723877
4.283148 0.486004 -0.704237
4.290990 0.478820 -0.702939
4.285229 0.452607 -0.742442
4.277413 0.459913 -0.743338
4.260952 0.459070 -0.723698
4.268795 0.451886 -0.722400
4.290703 0.479176 -0.703115
4.282860 0.486359 -0.704413
4.266426 0.485547 -0.684784
4.274199 0.478436 -0.683090
4.269049 0.451529 -0.722183
4.261207 0.458713 -0.723481
4.244772 0.457900 -0.703852
4.252546 0.450789 -0.702158
4.273940 0.478757 -0.683272
4.266167 0.485868 -0.684966
4.249703 0.485041 -0.665308
4.257492 0.478033 -0.663252
4.252772 0.450466 -0.701936
4.244998 0.457577 -0.703630
4.228535 0.456750 -0.683971
4.236324 0.449742 -0.681915
4.257148 0.478460 -0.663528
4.249359 0.485467 -0.665584
4.232906 0.484618 -0.645943
4.240574 0.478045 -0.643641
4.236636 0.449314 -0.681599
4.228846 0.456321 -0.683655
4.212394 0.455472 -0.664014
4.220061 0.448899 -0.661713
4.240088 0.478616 -0.644052
4.232421 0.485189 -0.646354
4.215964 0.484341 -0.626689
4.223455 0.478387 -0.624184
4.220514 0.448327 -0.661262
4.212846 0.454899 -0.663564
4.196389 0.454051 -0.643898
4.203880 0.448097 -0.641394
4.222851 0.479001 -0.624632
4.215360 0.484955 -0.627136
4.199308 0.484135 -0.607960
4.206045 0.478756 -0.604600
4.204452 0.447482 -0.640907
4.196961 0.453436 -0.643411
4.180909 0.452617 -0.624235
4.187646 0.447237 -0.620875
4.310308 0.406575 -0.731100
4.294265 0.402303 -0.711848
4.288143 0.396188 -0.715300
4.304201 0.400310 -0.734820
4.287229 0.436668 -0.743694
4.271186 0.432396 -0.724442
4.265064 0.426281 -0.727893
4.281122 0.430403 -0.747413
4.294144 0.402174 -0.711940
4.278154 0.397880 -0.692681
4.271929 0.391990 -0.695852
4.288023 0.396059 -0.715391
4.271274 0.432517 -0.724312
4.255284 0.428224 -0.705053
4.249059 0.422334 -0.708223
4.265153 0.426402 -0.727763
4.278047 0.397760 -0.692782
4.261997 0.393481 -0.673515
4.255784 0.387725 -0.676437
4.271822 0.391869 -0.695953
4.255359 0.428336 -0.704913
4.239309 0.424057 -0.685646
4.233096 0.418301 -0.688567
4.249134 0.422446 -0.708083
4.261352 0.393342 -0.672741
4.245288 0.390626 -0.653312
4.238622 0.384837 -0.656265
4.255139 0.387586 -0.675662
4.239922 0.424189 -0.686381
4.223858 0.421473 -0.666953
4.217193 0.415684 -0.669906
4.233709 0.418433 -0.689303
4.244822 0.390360 -0.653203
4.228682 0.388289 -0.633640
4.221507 0.382307 -0.636848
4.238157 0.384571 -0.656156
4.224291 0.421734 -0.667023
4.208151 0.419662 -0.647460
4.200976 0.413680 -0.650668
4.217626 0.415945 -0.669976
4.228431 0.388041 -0.633842
4.212319 0.385972 -0.614325
4.204571 0.379797 -0.617694
4.221256 0.382059 -0.637050
4.208369 0.419906 -0.647219
4.192257 0.417837 -0.627702
4.184508 0.411662 -0.631071
4.201194 0.413924 -0.650427
4.296470 0.395755 -0.741879
4.280412 0.391633 -0.722359
4.266259 0.389595 -0.734768
4.282427 0.393268 -0.754646
4.288833 0.434950 -0.740371
4.272775 0.430828 -0.720851
4.258622 0.428790 -0.733260
4.274790 0.432463 -0.753138
4.279970 0.391564 -0.722629
4.263876 0.387496 -0.703089
4.249650 0.385938 -0.715178
4.265816 0.389526 -0.735038
4.273186 0.430889 -0.720541
4.257092 0.426820 -0.701001
4.242866 0.425263 -0.713091
4.259032 0.428851 -0.732950
4.263554 0.387466 -0.703460
4.247515 0.383321 -0.683944
4.233172 0.382136 -0.695663
4.249328 0.385909 -0.715550
4.257382 0.426842 -0.700591
4.241344 0.422698 -0.681075
4.227000 0.421512 -0.692794
4.243156 0.425285 -0.712680
4.246657 0.383170 -0.683330
4.230141 0.380421 -0.663933
4.216125 0.379370 -0.675147
4.232314 0.381985 -0.695049
4.242169 0.422842 -0.681650
4.225653 0.420093 -0.662253
4.211637 0.419042 -0.673467
4.227826 0.421656 -0.693369
4.229950 0.380391 -0.663684
4.213300 0.378127 -0.644376
4.199658 0.376965 -0.654880
4.215934 0.379340 -0.674898
4.225812 0.420118 -0.662462
4.209162 0.417853 -0.643154
4.195520 0.416691 -0.653658
4.211796 0.419066 -0.673676
4.213389 0.378133 -0.644255
4.196704 0.375871 -0.624899
4.183504 0.374617 -0.634794
4.199747 0.376971 -0.654758
4.209040 0.417842 -0.643236
4.192354 0.415581 -0.623880
4.179155 0.414326 -0.633775
4.195398 0.416681 -0.653739
4.282133 0.393205 -0.754382
4.265964 0.389532 -0.734503
4.251817 0.387568 -0.746934
4.268092 0.390706 -0.767133
4.275057 0.432522 -0.753428
4.258888 0.428849 -0.733549
4.244741 0.426885 -0.745980
4.261016 0.430023 -0.766179
4.265421 0.389451 -0.734811
4.249255 0.385864 -0.714951
4.234992 0.384490 -0.726993
4.251274 0.387488 -0.747241
4.259399 0.428922 -0.733202
4.243233 0.425334 -0.713343
4.228969 0.423961 -0.725384
4.245252 0.426958 -0.745632
4.249053 0.385860 -0.715443
4.232897 0.382087 -0.695556
4.218594 0.380958 -0.707313
4.234790 0.384487 -0.727484
4.243402 0.425331 -0.712811
4.227246 0.421558 -0.692925
4.212944 0.420429 -0.704681
4.229139 0.423957 -0.724852
4.232237 0.381975 -0.695021
4.216049 0.379360 -0.675120
4.202009 0.378296 -0.686220
4.217935 0.380846 -0.706778
4.227874 0.421664 -0.693419
4.211685 0.419049 -0.673517
4.197645 0.417985 -0.684617
4.213571 0.420534 -0.705176
4.215925 0.379342 -0.674986
4.199649 0.376967 -0.654967
4.186036 0.375891 -0.665487
4.201885 0.378278 -0.686086
4.211777 0.419062 -0.673611
4.195501 0.416687 -0.653592
4.181887 0.415612 -0.664112
4.197737 0.417998 -0.684711
4.199749 0.376976 -0.654903
4.183506 0.374621 -0.634938
4.170269 0.373394 -0.644779
4.186136 0.375900 -0.665423
4.195368 0.416674 -0.653615
4.179126 0.414319 -0.633651
4.165888 0.413092 -0.643491
4.181755 0.415598 -0.664136
4.336145 0.411613 -0.765640
4.323127 0.409117 -0.748727
4.318618 0.403019 -0.754837
4.332944 0.407309 -0.773998
4.314032 0.443082 -0.776482
4.301014 0.440586 -0.759568
4.296506 0.434488 -0.765679
4.310832 0.438778 -0.784839
4.323645 0.409856 -0.747792
4.310372 0.406634 -0.731078
4.304265 0.400369 -0.734798
4.319136 0.403759 -0.753902
4.300468 0.439839 -0.760467
4.287195 0.436617 -0.743753
4.281088 0.430352 -0.747473
4.295960 0.433742 -0.766578
4.325923 0.403531 -0.780929
4.311597 0.399241 -0.761768
4.296287 0.396774 -0.772975
4.309857 0.401078 -0.790327
4.317833 0.442548 -0.777926
4.303507 0.438259 -0.758766
4.288197 0.435791 -0.769973
4.301767 0.440096 -0.787324
4.310009 0.401132 -0.790588
4.296438 0.396828 -0.773236
4.281151 0.394336 -0.784505
4.293951 0.398699 -0.799991
4.301584 0.440037 -0.787084
4.288014 0.435732 -0.769732
4.272727 0.433240 -0.781001
4.285527 0.437604 -0.796487
4.296243 0.396726 -0.772326
4.282639 0.393316 -0.754781
4.268598 0.390818 -0.767532
4.280956 0.394233 -0.783594
4.288183 0.435827 -0.770610
4.274580 0.432417 -0.753066
4.260539 0.429919 -0.765817
4.272896 0.433335 -0.781879
4.314432 0.421098 -0.724998
4.327705 0.424320 -0.741712
4.323402 0.433220 -0.735781
4.313609 0.435904 -0.723443
4.283138 0.422171 -0.749824
4.296411 0.425393 -0.766538
4.292108 0.434293 -0.760607
4.282315 0.436976 -0.748269
4.327907 0.424289 -0.741973
4.340926 0.426785 -0.758886
4.336022 0.435614 -0.752004
4.323605 0.433188 -0.736042
4.296233 0.425428 -0.766308
4.309251 0.427925 -0.783222
4.304347 0.436753 -0.776340
4.291930 0.434327 -0.760378
4.313616 0.436027 -0.723447
4.323409 0.433343 -0.735785
4.320945 0.444127 -0.732417
4.312851 0.450825 -0.721863
4.282305 0.436878 -0.748260
4.292098 0.434194 -0.760598
4.289634 0.444978 -0.757230
4.281540 0.451676 -0.746676
4.323479 0.433241 -0.735878
4.335896 0.435667 -0.751840
4.330983 0.444485 -0.744966
4.321015 0.444025 -0.732510
4.292047 0.434293 -0.760530
4.304465 0.436719 -0.776493
4.299552 0.445537 -0.769618
4.289584 0.445076 -0.757163
4.312825 0.450771 -0.721832
4.320919 0.444073 -0.732386
4.318561 0.457371 -0.728780
4.311974 0.465566 -0.720291
4.281563 0.451757 -0.746702
4.289657 0.445059 -0.757256
4.287299 0.458357 -0.753650
4.280713 0.466552 -0.745161
4.320824 0.443771 -0.732283
4.330792 0.444231 -0.744739
4.325834 0.453050 -0.737899
4.318466 0.457069 -0.728677
4.289768 0.445351 -0.757380
4.299736 0.445812 -0.769835
4.294778 0.454631 -0.762995
4.287410 0.458650 -0.753773
4.217363 0.402699 -0.608631
4.215424 0.423066 -0.606335
4.215165 0.421139 -0.584061
4.217166 0.400471 -0.586448
4.177585 0.398966 -0.609388
4.175646 0.419333 -0.607092
4.175387 0.417407 -0.584818
4.177388 0.396738 -0.587205
4.217165 0.400479 -0.586449
4.215164 0.421148 -0.584063
4.214956 0.419239 -0.561824
4.216973 0.398233 -0.564229
4.177388 0.396726 -0.587158
4.175387 0.417394 -0.584772
4.175179 0.415486 -0.562533
4.177196 0.394480 -0.564938
4.216972 0.398237 -0.564198
4.214955 0.419243 -0.561793
4.214709 0.417389 -0.539530
4.216781 0.396124 -0.542009
4.177196 0.394473 -0.564925
4.175179 0.415479 -0.562519
4.174934 0.413625 -0.540256
4.177006 0.392361 -0.542735
4.216784 0.396120 -0.542119
4.214711 0.417384 -0.539640
4.214613 0.416056 -0.517346
4.216622 0.394733 -0.519836
4.177003 0.392362 -0.542580
4.174931 0.413626 -0.540102
4.174833 0.412298 -0.517807
4.176841 0.390975 -0.520298
4.216626 0.394685 -0.519806
4.214617 0.416008 -0.517315
4.214489 0.414657 -0.495007
4.216469 0.393323 -0.497539
4.176837 0.391020 -0.520283
4.174828 0.412344 -0.517793
4.174700 0.410992 -0.495484
4.176680 0.389659 -0.498017
4.216472 0.393289 -0.497539
4.214492 0.414623 -0.495006
4.214391 0.413295 -0.472686
4.216332 0.391901 -0.475262
4.176677 0.389690 -0.497973
4.174697 0.411023 -0.495440
4.174596 0.409696 -0.473120
4.176537 0.388302 -0.475696
4.215422 0.423089 -0.606348
4.213434 0.443440 -0.604010
4.213209 0.441848 -0.581724
4.215163 0.421163 -0.584073
4.175644 0.419350 -0.607075
4.173656 0.439702 -0.604738
4.173430 0.438109 -0.582452
4.175385 0.417424 -0.584801
4.215164 0.421147 -0.584054
4.213210 0.441832 -0.581705
4.212936 0.440228 -0.559382
4.214956 0.419239 -0.561815
4.175383 0.417436 -0.584776
4.173429 0.438121 -0.582427
4.173156 0.436518 -0.560104
4.175175 0.415528 -0.562537
4.214957 0.419227 -0.561808
4.212937 0.440216 -0.559375
4.212724 0.438661 -0.537085
4.214711 0.417373 -0.539545
4.175174 0.415537 -0.562500
4.173154 0.436526 -0.560067
4.172941 0.434971 -0.537777
4.174928 0.413683 -0.540237
4.214714 0.417364 -0.539668
4.212727 0.438652 -0.537208
4.212618 0.437340 -0.514867
4.214615 0.416035 -0.517373
4.174925 0.413689 -0.540069
4.172938 0.434978 -0.537609
4.172830 0.433665 -0.515269
4.174826 0.412361 -0.517775
4.214618 0.416007 -0.517358
4.212621 0.437311 -0.514852
4.212556 0.436019 -0.492528
4.214489 0.414656 -0.495050
4.174824 0.412387 -0.517745
4.172827 0.433691 -0.515240
4.172762 0.432399 -0.492915
4.174695 0.411036 -0.495437
4.214489 0.414654 -0.494989
4.212555 0.436017 -0.492468
4.212377 0.434689 -0.470089
4.214388 0.413326 -0.472669
4.174696 0.411035 -0.495452
4.172762 0.432398 -0.492931
4.172584 0.431070 -0.470552
4.174595 0.409707 -0.473132
4.213432 0.443460 -0.604023
4.211495 0.463823 -0.601727
4.211207 0.462540 -0.579350
4.213207 0.441867 -0.581737
4.173653 0.439723 -0.604720
4.171716 0.460087 -0.602425
4.171429 0.458803 -0.580048
4.173428 0.438131 -0.582435
4.213208 0.441852 -0.581714
4.211208 0.462525 -0.579327
4.210965 0.461249 -0.556988
4.212935 0.440248 -0.559391
4.173427 0.438143 -0.582413
4.171427 0.458816 -0.580026
4.171183 0.457540 -0.557688
4.173153 0.436539 -0.560090
4.212936 0.440230 -0.559392
4.210966 0.461231 -0.556989
4.210709 0.459952 -0.534622
4.212723 0.438675 -0.537102
4.173151 0.436555 -0.560045
4.171181 0.457556 -0.557642
4.170923 0.456277 -0.535274
4.172938 0.435000 -0.537755
4.212724 0.438685 -0.537213
4.210709 0.459962 -0.534733
4.210624 0.458692 -0.512385
4.212616 0.437372 -0.514873
4.172937 0.434988 -0.537599
4.170922 0.456265 -0.535119
4.170837 0.454996 -0.512771
4.172829 0.433675 -0.515259
4.212614 0.437390 -0.514846
4.210622 0.458710 -0.512358
4.210486 0.457427 -0.489992
4.212548 0.436098 -0.492522
4.172830 0.433655 -0.515241
4.170839 0.454975 -0.512753
4.170703 0.453692 -0.490387
4.172765 0.432362 -0.492916
4.212549 0.436079 -0.492473
4.210487 0.457409 -0.489943
4.210403 0.456138 -0.467518
4.212371 0.434752 -0.470094
4.172764 0.432378 -0.492921
4.170701 0.453708 -0.490391
4.170617 0.452437 -0.467966
4.172586 0.431051 -0.470542
4.204211 0.477438 -0.601139
4.197387 0.482852 -0.601391
4.197218 0.481795 -0.578949
4.203923 0.476154 -0.578762
4.178992 0.446498 -0.603011
4.172167 0.451912 -0.603263
4.171999 0.450855 -0.580821
4.178704 0.445215 -0.580634
4.204377 0.475775 -0.578789
4.197672 0.481416 -0.578977
4.197501 0.480417 -0.556490
4.204133 0.474500 -0.556451
4.178250 0.445592 -0.580562
4.171545 0.451233 -0.580749
4.171374 0.450234 -0.558262
4.178006 0.444317 -0.558223
4.204552 0.474125 -0.556423
4.197920 0.480043 -0.556462
4.197785 0.478968 -0.534033
4.204294 0.472846 -0.534055
4.177587 0.444689 -0.558206
4.170955 0.450607 -0.558245
4.170819 0.449532 -0.535816
4.177329 0.443410 -0.535838
4.204756 0.472418 -0.534206
4.198247 0.478540 -0.534184
4.198444 0.477446 -0.511711
4.204671 0.471149 -0.511858
4.176867 0.443836 -0.535643
4.170357 0.449958 -0.535621
4.170555 0.448864 -0.513148
4.176782 0.442567 -0.513295
4.205186 0.470625 -0.511821
4.198959 0.476923 -0.511673
4.199148 0.475762 -0.489220
4.205050 0.469343 -0.489454
4.176267 0.443088 -0.513288
4.170040 0.449385 -0.513140
4.170229 0.448224 -0.490688
4.176131 0.441805 -0.490922
4.205574 0.468774 -0.489518
4.199672 0.475194 -0.489284
4.199886 0.474113 -0.466775
4.205489 0.467503 -0.467093
4.175607 0.442371 -0.490813
4.169705 0.448790 -0.490579
4.169920 0.447710 -0.468070
4.175523 0.441099 -0.468388
4.186056 0.487313 -0.601690
4.162452 0.488629 -0.605774
4.163922 0.488139 -0.582639
4.185887 0.486257 -0.579248
4.183469 0.447458 -0.602969
4.159865 0.448773 -0.607053
4.161335 0.448283 -0.583918
4.183300 0.446401 -0.580527
4.186616 0.486199 -0.579356
4.164651 0.488081 -0.582747
4.166156 0.487776 -0.559648
4.186445 0.485201 -0.556869
4.182572 0.446457 -0.580373
4.160607 0.448339 -0.583764
4.162112 0.448034 -0.560666
4.182402 0.445459 -0.557886
4.187306 0.485092 -0.556797
4.167016 0.487668 -0.559576
4.168495 0.487261 -0.536446
4.187171 0.484018 -0.534368
4.181543 0.445566 -0.557913
4.161253 0.448141 -0.560692
4.162732 0.447734 -0.537562
4.181408 0.444491 -0.535484
4.187977 0.483881 -0.534270
4.169301 0.487123 -0.536349
4.171490 0.486301 -0.513309
4.188174 0.482787 -0.511797
4.180603 0.444627 -0.535536
4.161928 0.447870 -0.537614
4.164117 0.447048 -0.514575
4.180801 0.443533 -0.513063
4.188982 0.482617 -0.511775
4.172297 0.486132 -0.513286
4.174502 0.485260 -0.490234
4.189171 0.481456 -0.489322
4.179996 0.443701 -0.513040
4.163311 0.447216 -0.514552
4.165516 0.446344 -0.491500
4.180184 0.442540 -0.490587
4.190190 0.481196 -0.489430
4.175521 0.484999 -0.490343
4.177755 0.484187 -0.467306
4.190404 0.480115 -0.466921
4.179168 0.442799 -0.490433
4.164499 0.446603 -0.491346
4.166733 0.445791 -0.468309
4.179382 0.441719 -0.467924
4.212411 0.387602 -0.610172
4.212214 0.385374 -0.587989
4.204913 0.377333 -0.589742
4.204919 0.379263 -0.612306
4.182532 0.414035 -0.607851
4.182335 0.411806 -0.585668
4.175035 0.403765 -0.587420
4.175040 0.405696 -0.609985
4.212094 0.385238 -0.587973
4.211902 0.382993 -0.565753
4.204794 0.375318 -0.567196
4.204794 0.377198 -0.589726
4.182454 0.411938 -0.585639
4.182262 0.409692 -0.563419
4.175154 0.402017 -0.564862
4.175154 0.403897 -0.587391
4.211812 0.382890 -0.565709
4.211621 0.380778 -0.543519
4.204709 0.373315 -0.544618
4.204704 0.375215 -0.567152
4.182352 0.409791 -0.563418
4.182161 0.407679 -0.541228
4.175249 0.400216 -0.542327
4.175244 0.402116 -0.564861
4.211973 0.381157 -0.543309
4.211811 0.379770 -0.521027
4.205270 0.371849 -0.521871
4.205061 0.373694 -0.544408
4.181809 0.407296 -0.541393
4.181647 0.405909 -0.519111
4.175105 0.397988 -0.519955
4.174897 0.399833 -0.542492
4.212501 0.380605 -0.520932
4.212344 0.379243 -0.498665
4.206142 0.370833 -0.499221
4.205960 0.372684 -0.521776
4.180957 0.405071 -0.519161
4.180800 0.403709 -0.496894
4.174597 0.395300 -0.497450
4.174415 0.397150 -0.520005
4.212948 0.380058 -0.498595
4.212808 0.378670 -0.476318
4.206938 0.369823 -0.476582
4.206745 0.371648 -0.499150
4.180196 0.402891 -0.496920
4.180056 0.401503 -0.474643
4.174187 0.392656 -0.474907
4.173994 0.394481 -0.497475
4.191639 0.372633 -0.612794
4.191633 0.370703 -0.590229
4.180485 0.369823 -0.590240
4.179708 0.371571 -0.612776
4.188301 0.412317 -0.609500
4.188296 0.410387 -0.586935
4.177147 0.409507 -0.586946
4.176370 0.411255 -0.609483
4.191415 0.370680 -0.590158
4.191416 0.368800 -0.567628
4.180998 0.368103 -0.567590
4.180267 0.369800 -0.590169
4.188514 0.410406 -0.586961
4.188515 0.408527 -0.564431
4.178097 0.407829 -0.564393
4.177366 0.409526 -0.586972
4.191214 0.368788 -0.567648
4.191219 0.366888 -0.545114
4.181617 0.366322 -0.545079
4.180796 0.368091 -0.567610
4.188717 0.408535 -0.564366
4.188722 0.406635 -0.541832
4.179120 0.406068 -0.541796
4.178299 0.407838 -0.564328
4.191290 0.366896 -0.545154
4.191498 0.365051 -0.522617
4.182911 0.364405 -0.522597
4.181688 0.366330 -0.545119
4.188652 0.406623 -0.541747
4.188861 0.404778 -0.519210
4.180273 0.404132 -0.519190
4.179050 0.406057 -0.541711
4.191861 0.365077 -0.522605
4.192043 0.363227 -0.500050
4.184522 0.362509 -0.500081
4.183273 0.364432 -0.522585
4.188499 0.404748 -0.519176
4.188681 0.402897 -0.496621
4.181160 0.402179 -0.496652
4.179912 0.404102 -0.519156
4.192387 0.363252 -0.499974
4.192580 0.361427 -0.477406
4.186065 0.360719 -0.477466
4.184866 0.362534 -0.500005
4.188339 0.402868 -0.496652
4.188532 0.401042 -0.474084
4.182017 0.400334 -0.474143
4.180817 0.402150 -0.496682
4.179721 0.371564 -0.612672
4.180498 0.369816 -0.590135
4.169319 0.368923 -0.590109
4.167825 0.370488 -0.612702
4.176334 0.411260 -0.609587
4.177111 0.409512 -0.587051
4.165932 0.408619 -0.587024
4.164437 0.410184 -0.609617
4.180340 0.369799 -0.590088
4.181070 0.368102 -0.567509
4.170692 0.367329 -0.567507
4.169160 0.368906 -0.590062
4.177272 0.409526 -0.587052
4.178003 0.407828 -0.564473
4.167625 0.407055 -0.564471
4.166093 0.408633 -0.587026
4.180908 0.368092 -0.567528
4.181728 0.366322 -0.544997
4.172100 0.365712 -0.544941
4.170529 0.367318 -0.567526
4.178168 0.407836 -0.564409
4.178989 0.406066 -0.541878
4.169360 0.405456 -0.541823
4.167790 0.407062 -0.564407
4.181660 0.366335 -0.545205
4.182883 0.364411 -0.522683
4.174327 0.363825 -0.522676
4.172031 0.365725 -0.545149
4.179060 0.406050 -0.541625
4.180283 0.404125 -0.519104
4.171727 0.403539 -0.519096
4.169431 0.405440 -0.541570
4.183198 0.364440 -0.522752
4.184446 0.362517 -0.500248
4.176893 0.361794 -0.500266
4.174642 0.363854 -0.522745
4.179971 0.404092 -0.518990
4.181220 0.402169 -0.496485
4.173667 0.401445 -0.496504
4.171416 0.403506 -0.518982
4.184955 0.362554 -0.500125
4.186155 0.360738 -0.477585
4.179681 0.359967 -0.477658
4.177402 0.361830 -0.500143
4.180714 0.402128 -0.496563
4.181913 0.400313 -0.474024
4.175440 0.399541 -0.474096
4.173161 0.401405 -0.496582
4.289234 0.493281 -0.731951
4.262404 0.494746 -0.735362
4.247530 0.493605 -0.717236
4.272773 0.492438 -0.712311
4.287755 0.453487 -0.735269
4.260924 0.454952 -0.738681
4.246050 0.453810 -0.720554
4.271293 0.452644 -0.715629
4.272500 0.492463 -0.712518
4.247257 0.493629 -0.717444
4.232369 0.492484 -0.699294
4.256065 0.491650 -0.692889
4.271535 0.452617 -0.715384
4.246292 0.453784 -0.720309
4.231404 0.452638 -0.702159
4.255100 0.451805 -0.695754
4.255792 0.491668 -0.693094
4.232095 0.492502 -0.699499
4.217212 0.491395 -0.681416
4.239328 0.490841 -0.673435
4.255343 0.451784 -0.695511
4.231646 0.452618 -0.701916
4.216763 0.451511 -0.683834
4.238879 0.450957 -0.675853
4.239312 0.490853 -0.673657
4.217195 0.491407 -0.681638
4.202162 0.490781 -0.663573
4.222859 0.490004 -0.654016
4.238864 0.450943 -0.675593
4.216748 0.451497 -0.683574
4.201714 0.450870 -0.665510
4.222411 0.450093 -0.655952
4.222941 0.489997 -0.653903
4.202244 0.490774 -0.663460
4.187232 0.490122 -0.645443
4.206485 0.489149 -0.634237
4.222298 0.450098 -0.656028
4.201600 0.450876 -0.665585
4.186588 0.450224 -0.647569
4.205841 0.449251 -0.636362
4.206609 0.489142 -0.634153
4.187356 0.490115 -0.645359
4.172358 0.489548 -0.627317
4.190557 0.488322 -0.614976
4.205685 0.449256 -0.636409
4.186432 0.450230 -0.647616
4.171434 0.449663 -0.629574
4.189634 0.448437 -0.617233
4.220696 0.402648 -0.613279
4.218889 0.422987 -0.610496
4.213953 0.421932 -0.599015
4.215892 0.401566 -0.601310
4.183865 0.401185 -0.628711
4.182059 0.421524 -0.625928
4.177122 0.420469 -0.614447
4.179061 0.400103 -0.616742
4.218692 0.422964 -0.610039
4.216881 0.443313 -0.607330
4.211768 0.442260 -0.596221
4.213756 0.421909 -0.598558
4.182252 0.421588 -0.626379
4.180441 0.441937 -0.623670
4.175327 0.440885 -0.612561
4.177315 0.420533 -0.614898
4.216671 0.443233 -0.606870
4.214851 0.463571 -0.604095
4.209620 0.462544 -0.593466
4.211557 0.442181 -0.595761
4.180647 0.442057 -0.624125
4.178827 0.462395 -0.621349
4.173597 0.461368 -0.610720
4.175534 0.441005 -0.613015
4.197413 0.376149 -0.627142
4.192866 0.372903 -0.613939
4.180935 0.371841 -0.613921
4.184213 0.374895 -0.637037
4.191625 0.415298 -0.621599
4.187078 0.412052 -0.608396
4.175147 0.410989 -0.608378
4.178425 0.414043 -0.631494
4.183845 0.374737 -0.636131
4.180567 0.371684 -0.613015
4.168670 0.370608 -0.613045
4.170607 0.373510 -0.645971
4.178768 0.414198 -0.632410
4.175490 0.411145 -0.609294
4.163593 0.410069 -0.609324
4.165531 0.412971 -0.642250
4.215503 0.387115 -0.618627
4.210699 0.386033 -0.606658
4.203207 0.377694 -0.608793
4.207754 0.380940 -0.621996
4.189052 0.416690 -0.623368
4.184248 0.415608 -0.611400
4.176756 0.407269 -0.613534
4.181303 0.410515 -0.626737
4.190760 0.488301 -0.614726
4.172561 0.489527 -0.627067
4.161839 0.488624 -0.605073
4.185443 0.487308 -0.600989
4.189407 0.448457 -0.617447
4.171207 0.449683 -0.629788
4.160485 0.448780 -0.607794
4.184089 0.447464 -0.603710
4.207699 0.478654 -0.606721
4.200961 0.484033 -0.610081
4.195644 0.483041 -0.596344
4.202468 0.477627 -0.596092
4.185971 0.447338 -0.618722
4.179234 0.452717 -0.622082
4.173916 0.451725 -0.608345
4.180740 0.446311 -0.608093
4.216336 0.391775 -0.474921
4.214396 0.413169 -0.472346
4.214251 0.412052 -0.460968
4.216047 0.390414 -0.462616
4.176532 0.388425 -0.476002
4.174591 0.409819 -0.473427
4.174446 0.408703 -0.462049
4.176242 0.387064 -0.463697
4.214387 0.413316 -0.472503
4.212375 0.434679 -0.469923
4.212279 0.433848 -0.459475
4.214242 0.412200 -0.461126
4.174597 0.409715 -0.473265
4.172585 0.431078 -0.470685
4.172489 0.430246 -0.460236
4.174452 0.408598 -0.461887
4.212377 0.434681 -0.470007
4.210408 0.456067 -0.467431
4.210335 0.455481 -0.457911
4.212280 0.433850 -0.459558
4.172580 0.431119 -0.470597
4.170611 0.452505 -0.468021
4.170539 0.451918 -0.458502
4.172484 0.430287 -0.460149
4.215996 0.390303 -0.461517
4.214200 0.411941 -0.459870
4.212974 0.416459 -0.449747
4.214341 0.400479 -0.450600
4.176291 0.387182 -0.464773
4.174496 0.408820 -0.463126
4.173270 0.413338 -0.453003
4.174637 0.397357 -0.453856
4.214125 0.412290 -0.459393
4.212162 0.433938 -0.457742
4.211012 0.432719 -0.448489
4.212899 0.416809 -0.449270
4.174567 0.408508 -0.463599
4.172604 0.430156 -0.461948
4.171455 0.428937 -0.452696
4.173341 0.413026 -0.453477
4.212098 0.433685 -0.457043
4.210153 0.455316 -0.455396
4.209452 0.448429 -0.446939
4.210948 0.432466 -0.447790
4.172665 0.430448 -0.462645
4.170720 0.452079 -0.460998
4.170019 0.445192 -0.452541
4.171515 0.429229 -0.453392
4.213004 0.378947 -0.476187
4.212714 0.377586 -0.463882
4.207029 0.369603 -0.469181
4.207134 0.370100 -0.476452
4.179860 0.401223 -0.474741
4.179571 0.399862 -0.462436
4.173886 0.391879 -0.467735
4.173991 0.392376 -0.475006
4.192582 0.361393 -0.476930
4.192477 0.360896 -0.469659
4.186026 0.360507 -0.473350
4.186067 0.360684 -0.476990
4.188530 0.401074 -0.474532
4.188425 0.400578 -0.467261
4.181974 0.400189 -0.470951
4.182015 0.400366 -0.474592
4.205955 0.466955 -0.467112
4.200352 0.473566 -0.466794
4.200515 0.473269 -0.460355
4.205882 0.466369 -0.457593
4.175057 0.441645 -0.468339
4.169454 0.448256 -0.468021
4.169617 0.447959 -0.461582
4.174984 0.441059 -0.458820
4.355972 0.604707 -0.818065
4.361997 0.592339 -0.828827
4.347662 0.592904 -0.836344
4.342903 0.605387 -0.825780
4.341008 0.577052 -0.793405
4.347034 0.564684 -0.804167
4.332698 0.565249 -0.811684
4.327940 0.577732 -0.801121
4.340877 0.606141 -0.825974
4.345636 0.593658 -0.836538
4.331295 0.594219 -0.844050
4.327787 0.602804 -0.833681
4.329939 0.576977 -0.800942
4.334698 0.564494 -0.811506
4.320357 0.565056 -0.819017
4.316849 0.573640 -0.808649
4.369421 0.591306 -0.790406
4.360348 0.603742 -0.796063
4.352940 0.603530 -0.786460
4.361740 0.590761 -0.780477
4.345713 0.565579 -0.809717
4.336641 0.578016 -0.815373
4.329233 0.577804 -0.805770
4.338032 0.565034 -0.799787
4.359551 0.591624 -0.779297
4.350751 0.604394 -0.785280
4.343325 0.600201 -0.775677
4.351859 0.591078 -0.769383
4.340207 0.564168 -0.800947
4.331407 0.576937 -0.806931
4.323981 0.572745 -0.797327
4.332515 0.563621 -0.791033
4.352975 0.592036 -0.772017
4.344441 0.601159 -0.778311
4.336950 0.601954 -0.768677
4.345300 0.591489 -0.762085
4.331383 0.562661 -0.788380
4.322850 0.571785 -0.794674
4.315358 0.572580 -0.785040
4.323709 0.562115 -0.778448
4.371110 0.589229 -0.819522
4.365085 0.601597 -0.808761
4.374157 0.589160 -0.803104
4.337939 0.567789 -0.813456
4.331913 0.580157 -0.802694
4.340985 0.567721 -0.797038
4.346478 0.589660 -0.760752
4.338127 0.600125 -0.767344
4.328623 0.601610 -0.754408
4.335697 0.588396 -0.748412
4.322514 0.563945 -0.779759
4.314163 0.574410 -0.786351
4.304659 0.575895 -0.773415
4.311733 0.562681 -0.767420
4.347148 0.610767 -0.804265
4.334080 0.611447 -0.811980
4.327117 0.609356 -0.803378
4.339740 0.610555 -0.794662
4.349819 0.571003 -0.807185
4.336751 0.571683 -0.814901
4.329788 0.569593 -0.806299
4.342411 0.570791 -0.797582
4.331585 0.611175 -0.813513
4.318495 0.607839 -0.821221
4.311912 0.607346 -0.813590
4.324622 0.609085 -0.804911
4.339220 0.571952 -0.813384
4.326130 0.568615 -0.821091
4.319547 0.568122 -0.813461
4.332257 0.569861 -0.804782
4.337873 0.609971 -0.792052
4.325250 0.608773 -0.800769
4.318145 0.606736 -0.792199
4.330447 0.605779 -0.782449
4.344264 0.571371 -0.800174
4.331641 0.570172 -0.808890
4.324536 0.568135 -0.800320
4.336838 0.567178 -0.790570
4.327450 0.609417 -0.804175
4.314740 0.607678 -0.812854
4.308117 0.608499 -0.805212
4.320346 0.607380 -0.795606
4.329415 0.569527 -0.805502
4.316705 0.567788 -0.814181
4.310081 0.568610 -0.806539
4.322311 0.567491 -0.796932
4.323439 0.607300 -0.796628
4.311209 0.608419 -0.806234
4.304770 0.609252 -0.798638
4.316658 0.608173 -0.788092
4.319205 0.567571 -0.795894
4.306975 0.568690 -0.805500
4.300536 0.569524 -0.797904
4.312424 0.568445 -0.787358
4.328045 0.607155 -0.777398
4.316454 0.608190 -0.788246
4.311076 0.608962 -0.770871
4.318541 0.608640 -0.764463
4.324228 0.567392 -0.776312
4.312637 0.568428 -0.787160
4.307259 0.569199 -0.769784
4.314724 0.568877 -0.763376
4.315961 0.608238 -0.787824
4.304073 0.609318 -0.798370
4.302840 0.609239 -0.776709
4.310582 0.609010 -0.770449
4.313111 0.568381 -0.787599
4.301223 0.569460 -0.798144
4.299991 0.569381 -0.776484
4.307733 0.569152 -0.770223
4.335399 0.606378 -0.786771
4.325628 0.607237 -0.787093
4.327907 0.607172 -0.777138
4.331880 0.566577 -0.786223
4.322109 0.567436 -0.786545
4.324388 0.567371 -0.776590
4.328247 0.607138 -0.777218
4.325968 0.607203 -0.787173
4.316656 0.608174 -0.788066
4.324036 0.567407 -0.776511
4.321756 0.567471 -0.786466
4.312445 0.568443 -0.787359
4.316655 0.608174 -0.788078
4.325967 0.607203 -0.787186
4.323436 0.607300 -0.796613
4.312443 0.568443 -0.787359
4.321754 0.567472 -0.786467
4.319224 0.567569 -0.795895
4.323095 0.607335 -0.796519
4.325626 0.607237 -0.787092
4.335397 0.606378 -0.786770
4.319577 0.567534 -0.795988
4.322108 0.567436 -0.786560
4.331879 0.566576 -0.786238
4.311256 0.399130 -0.761009
4.296482 0.396196 -0.757450
4.295946 0.396663 -0.772216
4.303829 0.438365 -0.759500
4.289055 0.435431 -0.755942
4.288519 0.435897 -0.770708
4.296148 0.396702 -0.772220
4.296684 0.396236 -0.757455
4.282545 0.393292 -0.754676
4.288297 0.435854 -0.770699
4.288833 0.435388 -0.755933
4.274693 0.432444 -0.753155
4.282586 0.393293 -0.754455
4.296726 0.396237 -0.757234
4.296629 0.395781 -0.741688
4.274652 0.432442 -0.753356
4.288792 0.435386 -0.756134
4.288695 0.434930 -0.740588
4.296433 0.395742 -0.741692
4.296530 0.396199 -0.757238
4.311305 0.399132 -0.760797
4.288910 0.434972 -0.740588
4.289007 0.435428 -0.756134
4.303781 0.438362 -0.759692
4.191157 0.479631 -0.460247
4.190994 0.479929 -0.466686
4.178344 0.484001 -0.467070
4.178961 0.441606 -0.461694
4.178798 0.441903 -0.468133
4.166148 0.445975 -0.468517
