3.040044 0.780849 -0.890427
3.040324 0.760827 -0.892012
3.050747 0.795820 -0.933916
3.047355 0.806819 -0.913330
2.991417 0.783092 -0.901622
2.991697 0.763071 -0.903206
3.002120 0.798064 -0.945111
2.998727 0.809063 -0.924525
3.047389 0.883848 -0.902322
3.049461 0.863782 -0.900155
3.050207 0.847289 -0.912445
3.052962 0.881249 -0.933307
2.997883 0.881781 -0.908639
2.999956 0.861714 -0.906472
3.000702 0.845221 -0.918762
3.003456 0.879182 -0.939624
3.049460 0.861320 -0.900286
3.045296 0.846327 -0.871432
3.045562 0.841941 -0.877276
3.050206 0.844827 -0.912576
2.999953 0.864140 -0.906297
2.995789 0.849147 -0.877442
2.996055 0.844761 -0.883286
3.000699 0.847647 -0.918586
3.040177 0.778812 -0.892010
3.047487 0.804782 -0.914913
3.041425 0.801209 -0.881883
3.040173 0.795904 -0.877223
2.991280 0.785151 -0.900004
2.998590 0.811122 -0.922908
2.992528 0.807549 -0.889877
2.991277 0.802243 -0.885217
2.978755 0.829912 -0.825748
3.027099 0.830677 -0.846080
3.029986 0.852350 -0.851763
2.981857 0.851581 -0.831426
2.959813 0.820659 -0.871031
3.008157 0.821424 -0.891363
3.011044 0.843097 -0.897046
2.962914 0.842327 -0.876709
2.995665 0.915574 -0.831394
2.990648 0.914956 -0.823064
2.988913 0.883004 -0.824525
2.993930 0.883621 -0.832856
2.952866 0.919064 -0.856910
2.947849 0.918447 -0.848580
2.946114 0.886494 -0.850041
2.951131 0.887112 -0.858373
2.986269 0.759193 -0.834196
2.981252 0.758576 -0.825865
2.979873 0.725599 -0.832530
2.984891 0.726216 -0.840860
2.943664 0.766057 -0.859350
2.938647 0.765440 -0.851019
2.937268 0.732463 -0.857684
2.942287 0.733080 -0.866014
2.991090 0.787139 -0.842273
2.991417 0.779491 -0.842330
3.028439 0.771046 -0.877488
3.028436 0.788138 -0.862701
2.965626 0.808998 -0.879269
2.965954 0.801351 -0.879327
3.002976 0.792905 -0.914484
3.002972 0.809997 -0.899697
2.996116 0.790169 -0.842948
2.982433 0.762419 -0.828921
3.033418 0.761702 -0.879690
3.033138 0.781723 -0.878105
2.961248 0.790637 -0.878711
2.947565 0.762888 -0.864684
2.998550 0.762171 -0.915453
2.998270 0.782192 -0.913868
2.948439 0.547309 -0.851255
2.932002 0.547661 -0.851401
2.937023 0.548279 -0.859730
2.953463 0.547926 -0.859582
2.949467 0.597062 -0.846947
2.933030 0.597414 -0.847093
2.938051 0.598032 -0.855422
2.954491 0.597679 -0.855274
2.963285 0.724709 -0.828961
3.009312 0.723737 -0.828552
2.964663 0.757686 -0.822298
2.963928 0.734576 -0.877923
3.009956 0.733604 -0.877514
2.965306 0.767553 -0.871259
3.029818 0.777586 -0.883893
2.978833 0.778302 -0.833124
3.023482 0.744354 -0.839379
3.002156 0.746241 -0.911230
2.951171 0.746958 -0.860462
2.995821 0.713009 -0.866716
3.020074 0.915225 -0.818815
2.974047 0.916196 -0.819208
2.972312 0.884243 -0.820670
3.020548 0.917482 -0.868712
2.974520 0.918453 -0.869105
2.972786 0.886500 -0.870567
3.042322 0.823524 -0.865776
3.043368 0.824518 -0.873763
3.045475 0.840811 -0.877303
3.045209 0.845197 -0.871459
2.992982 0.828576 -0.871694
2.994028 0.829571 -0.879681
2.996135 0.845863 -0.883222
2.995869 0.850249 -0.877377
2.984985 0.727982 -0.840665
2.979967 0.727365 -0.832335
2.978365 0.701253 -0.833001
2.983387 0.701870 -0.841329
2.942190 0.731255 -0.866216
2.937172 0.730638 -0.857886
2.935569 0.704526 -0.858551
2.940591 0.705143 -0.866880
2.983383 0.701846 -0.841327
2.978362 0.701229 -0.832999
2.976764 0.675117 -0.833661
2.981785 0.675734 -0.841990
2.940591 0.705114 -0.866883
2.935569 0.704497 -0.858555
2.933972 0.678385 -0.859217
2.938992 0.679002 -0.867547
3.009405 0.728026 -0.828069
2.963378 0.728998 -0.828479
2.961779 0.702886 -0.829142
3.007806 0.701914 -0.828733
3.009876 0.729266 -0.878002
2.963848 0.730238 -0.878411
2.962249 0.704126 -0.879074
3.008277 0.703154 -0.878665
3.007805 0.701888 -0.828734
2.961778 0.702860 -0.829143
2.960179 0.676748 -0.829806
3.006206 0.675775 -0.829397
3.008275 0.703128 -0.878666
2.962248 0.704100 -0.879075
2.960649 0.677988 -0.879739
3.006676 0.677015 -0.879330
3.040812 0.760374 -0.895138
3.034476 0.727142 -0.850624
3.032877 0.701030 -0.851287
3.038905 0.728959 -0.894637
2.991193 0.763412 -0.900005
2.984857 0.730180 -0.855491
2.983258 0.704068 -0.856155
2.989286 0.731997 -0.899505
3.038896 0.728932 -0.894561
3.032868 0.701002 -0.851211
3.031269 0.674890 -0.851875
3.036991 0.697517 -0.894062
2.989291 0.731967 -0.899581
2.983264 0.704037 -0.856231
2.981665 0.677925 -0.856895
2.987387 0.700552 -0.899081
3.040505 0.760316 -0.893011
3.038598 0.728901 -0.892511
3.048017 0.758297 -0.933691
3.050927 0.795308 -0.934915
2.991516 0.763533 -0.902217
2.989609 0.732118 -0.901717
2.999028 0.761514 -0.942897
3.001939 0.798525 -0.944121
3.038646 0.728871 -0.892785
3.036741 0.697456 -0.892285
3.045192 0.721254 -0.932733
3.048065 0.758267 -0.933966
2.989556 0.732080 -0.901441
2.987651 0.700664 -0.900941
2.996102 0.724463 -0.941388
2.998975 0.761476 -0.942621
2.981783 0.675707 -0.841991
2.976763 0.675090 -0.833662
2.975163 0.648978 -0.834325
2.980185 0.649595 -0.842654
2.938990 0.678976 -0.867547
2.933970 0.678360 -0.859218
2.932370 0.652248 -0.859881
2.937392 0.652864 -0.868209
2.980184 0.649569 -0.842655
2.975162 0.648953 -0.834327
2.973564 0.622841 -0.834989
2.978584 0.623457 -0.843319
2.937390 0.652838 -0.868209
2.932368 0.652221 -0.859881
2.930771 0.626109 -0.860543
2.935791 0.626726 -0.868873
3.006205 0.675750 -0.829398
2.960178 0.676722 -0.829807
2.958579 0.650610 -0.830469
3.004606 0.649638 -0.830062
3.006674 0.676989 -0.879330
2.960647 0.677961 -0.879739
2.959048 0.651849 -0.880402
3.005075 0.650877 -0.879994
3.004605 0.649611 -0.830062
2.958578 0.650583 -0.830470
2.956979 0.624471 -0.831133
3.003006 0.623499 -0.830726
3.005073 0.650851 -0.879995
2.959046 0.651823 -0.880403
2.957447 0.625711 -0.881066
3.003475 0.624739 -0.880658
3.036981 0.697488 -0.893982
3.031259 0.674861 -0.851795
3.029661 0.648749 -0.852459
3.035076 0.666072 -0.893482
2.987393 0.700523 -0.899161
2.981671 0.677896 -0.856975
2.980073 0.651784 -0.857638
2.985488 0.669107 -0.898661
3.035065 0.666044 -0.893397
3.029650 0.648721 -0.852374
3.028051 0.622609 -0.853037
3.033160 0.634629 -0.892897
2.985495 0.669078 -0.898746
2.980080 0.651755 -0.857723
2.978481 0.625643 -0.858387
2.983590 0.637663 -0.898246
3.036788 0.697403 -0.892581
3.034883 0.665987 -0.892081
3.042345 0.684190 -0.931800
3.045238 0.721201 -0.933028
2.987600 0.700649 -0.900644
2.985695 0.669233 -0.900144
2.993157 0.687436 -0.939863
2.996050 0.724447 -0.941091
3.034928 0.665942 -0.892388
3.033023 0.634527 -0.891888
3.039497 0.647133 -0.930878
3.042390 0.684145 -0.932107
2.985644 0.669210 -0.899835
2.983740 0.637795 -0.899335
2.990213 0.650401 -0.938325
2.993106 0.687412 -0.939554
2.978583 0.623429 -0.843320
2.973563 0.622813 -0.834990
2.971963 0.596700 -0.835656
2.976984 0.597318 -0.843984
2.935789 0.626701 -0.868873
2.930769 0.626085 -0.860543
2.929169 0.599972 -0.861209
2.934190 0.600590 -0.869538
2.976980 0.597290 -0.843980
2.971958 0.596672 -0.835651
2.970356 0.570560 -0.836319
2.975380 0.571177 -0.844646
2.934192 0.600566 -0.869543
2.929170 0.599948 -0.861214
2.927568 0.573836 -0.861882
2.932592 0.574453 -0.870209
3.003005 0.623472 -0.830727
2.956977 0.624444 -0.831134
2.955378 0.598333 -0.831799
3.001405 0.597359 -0.831391
3.003473 0.624714 -0.880659
2.957446 0.625686 -0.881066
2.955847 0.599575 -0.881731
3.001873 0.598601 -0.881323
3.001402 0.597333 -0.831391
2.955376 0.598307 -0.831799
2.953776 0.572194 -0.832465
2.999804 0.571222 -0.832054
3.001873 0.598575 -0.881324
2.955846 0.599548 -0.881732
2.954247 0.573436 -0.882398
3.000274 0.572463 -0.881987
3.033149 0.634600 -0.892807
3.028039 0.622580 -0.852948
3.026440 0.596467 -0.853612
3.031243 0.603184 -0.892308
2.983598 0.637634 -0.898336
2.978489 0.625614 -0.858477
2.976890 0.599502 -0.859141
2.981693 0.606219 -0.897836
3.031231 0.603154 -0.892214
3.026427 0.596437 -0.853518
3.024829 0.570326 -0.854181
3.029321 0.571739 -0.891715
2.981702 0.606191 -0.897930
2.976899 0.599474 -0.859235
2.975300 0.573363 -0.859897
2.979792 0.574776 -0.897431
3.033066 0.634481 -0.892207
3.031161 0.603066 -0.891707
3.036646 0.610075 -0.929969
3.039540 0.647087 -0.931197
2.983692 0.637772 -0.899015
2.981786 0.606357 -0.898515
2.987271 0.613366 -0.936776
2.990165 0.650378 -0.938005
3.031201 0.603022 -0.892033
3.029291 0.571606 -0.891534
3.033800 0.573020 -0.929066
3.036686 0.610031 -0.930295
2.981742 0.606332 -0.898187
2.979832 0.574917 -0.897688
2.984341 0.576331 -0.935219
2.987227 0.613342 -0.936448
2.953731 0.571841 -0.832477
2.937291 0.572194 -0.832625
2.926980 0.542846 -0.833838
2.943417 0.542503 -0.833692
2.954217 0.573735 -0.882389
2.937777 0.574088 -0.882537
2.927466 0.544740 -0.883750
2.943903 0.544397 -0.883604
2.943410 0.542472 -0.833694
2.926972 0.542815 -0.833839
2.916656 0.513480 -0.835053
2.933096 0.513124 -0.834909
2.943890 0.544369 -0.883605
2.927452 0.544712 -0.883751
2.917136 0.515377 -0.884964
2.933576 0.515021 -0.884820
2.999790 0.570865 -0.832066
2.953763 0.571838 -0.832477
2.943449 0.542500 -0.833692
2.989476 0.541519 -0.833283
3.000275 0.572764 -0.881977
2.954248 0.573737 -0.882388
2.943934 0.544399 -0.883604
2.989960 0.543418 -0.883195
2.989592 0.541240 -0.833294
2.943566 0.542221 -0.833703
2.933252 0.512873 -0.834918
2.978809 0.512605 -0.834964
2.989823 0.543638 -0.883186
2.943796 0.544619 -0.883595
2.933482 0.515271 -0.884810
2.979039 0.515003 -0.884856
3.023519 0.563678 -0.854366
3.013204 0.534332 -0.855583
3.017877 0.535785 -0.889758
3.028011 0.565091 -0.891899
2.976598 0.579952 -0.859713
2.966283 0.550606 -0.860930
2.970957 0.552059 -0.895105
2.981090 0.581365 -0.897247
3.013023 0.534051 -0.854947
3.002240 0.505415 -0.856616
3.007542 0.506196 -0.886983
3.017697 0.535504 -0.889121
2.966443 0.550829 -0.861566
2.955660 0.522193 -0.863236
2.960962 0.522974 -0.893602
2.971117 0.552282 -0.895741
3.028145 0.565490 -0.891895
3.018012 0.536184 -0.889754
3.022689 0.537627 -0.923929
3.032654 0.566904 -0.929427
2.980965 0.580969 -0.897322
2.970832 0.551663 -0.895181
2.975509 0.553106 -0.929356
2.985474 0.582383 -0.934854
3.017969 0.536205 -0.889353
3.007814 0.506897 -0.887215
3.012674 0.508382 -0.918032
3.022646 0.537648 -0.923528
2.970854 0.551584 -0.895573
2.960700 0.522276 -0.893435
2.965559 0.523761 -0.924253
2.975531 0.553026 -0.929748
3.023118 0.994184 -0.813918
3.024639 1.033812 -0.811462
2.978612 1.034782 -0.811858
2.977091 0.995154 -0.814316
3.023613 0.997256 -0.863771
3.025134 1.036884 -0.861315
2.979107 1.037854 -0.861711
2.977586 0.998226 -0.864169
3.024642 1.033852 -0.811459
3.026163 1.073480 -0.809003
2.980135 1.074449 -0.809397
2.978614 1.034821 -0.811856
3.025135 1.036924 -0.861312
3.026656 1.076552 -0.858856
2.980628 1.077522 -0.859250
2.979107 1.037894 -0.861709
3.053901 0.995199 -0.877093
3.055081 1.036623 -0.868203
3.049597 1.034027 -0.832847
3.048076 0.994399 -0.835303
3.004532 0.997841 -0.884214
3.005712 1.039265 -0.875323
3.000228 1.036669 -0.839967
2.998707 0.997041 -0.842424
3.055024 1.036614 -0.867833
3.056208 1.078038 -0.858942
3.051061 1.073646 -0.830021
3.049540 1.034018 -0.832478
3.005771 1.039356 -0.875681
3.006955 1.080780 -0.866790
3.001808 1.076389 -0.837869
3.000287 1.036760 -0.840325
3.059716 0.995718 -0.918936
3.060558 1.038938 -0.903611
3.055072 1.036342 -0.868255
3.053892 0.994918 -0.877146
3.010376 0.998926 -0.926029
3.011218 1.042146 -0.910703
3.005732 1.039550 -0.875348
3.004552 0.998126 -0.884238
3.060501 1.038883 -0.903259
3.061344 1.082103 -0.887934
3.056199 1.077712 -0.859013
3.055015 1.036288 -0.867904
3.011277 1.042285 -0.911031
3.012119 1.085505 -0.895705
3.006975 1.081113 -0.866784
3.005791 1.039689 -0.875675
3.023117 0.994145 -0.813920
2.977090 0.995115 -0.814318
2.975569 0.955487 -0.816772
3.021596 0.954517 -0.816376
3.023611 0.997215 -0.863773
2.977584 0.998185 -0.864171
2.976063 0.958557 -0.866625
3.022091 0.957587 -0.866229
2.994693 0.955095 -0.824771
2.997200 0.955404 -0.828937
2.998721 0.995032 -0.826483
2.951876 0.958319 -0.850292
2.954383 0.958628 -0.854458
2.955904 0.998256 -0.852004
2.990652 0.824110 -0.835543
2.985637 0.823493 -0.827211
2.983473 0.792209 -0.826424
2.988508 0.792826 -0.834744
2.947857 0.826407 -0.861201
2.942842 0.825789 -0.852868
2.940678 0.794505 -0.852082
2.945713 0.795122 -0.860401
2.988504 0.792816 -0.834738
2.983469 0.792199 -0.826418
2.981347 0.760913 -0.825606
2.986364 0.761531 -0.833937
2.945713 0.795069 -0.860406
2.940678 0.794452 -0.852086
2.938555 0.763166 -0.851273
2.943573 0.763783 -0.859604
2.993928 0.883585 -0.832857
2.988910 0.882968 -0.824525
2.987276 0.852960 -0.825902
2.992294 0.853577 -0.834231
2.951131 0.887085 -0.858375
2.946114 0.886468 -0.850044
2.944479 0.856459 -0.851420
2.949498 0.857077 -0.859750
2.992294 0.853544 -0.834236
2.987276 0.852927 -0.825906
2.985641 0.822919 -0.827283
2.990656 0.823536 -0.835615
2.949494 0.857050 -0.859748
2.944476 0.856432 -0.851418
2.942841 0.826424 -0.852795
2.947856 0.827042 -0.861128
3.047703 0.806939 -0.915111
3.051096 0.795940 -0.935696
3.051953 0.837542 -0.934211
3.048899 0.826055 -0.913449
2.998388 0.809004 -0.922776
3.001781 0.798004 -0.943361
3.002638 0.839606 -0.941876
2.999583 0.828119 -0.921115
3.049084 0.826120 -0.914902
3.052138 0.837607 -0.935663
3.053052 0.879198 -0.934098
3.050297 0.845238 -0.913236
2.999401 0.828114 -0.919659
3.002455 0.839601 -0.940421
3.003369 0.881192 -0.938856
3.000614 0.847232 -0.917993
2.988316 0.824427 -0.832257
2.986172 0.793142 -0.831458
2.991865 0.793286 -0.838053
2.992851 0.810841 -0.838443
2.950203 0.826084 -0.864501
2.948059 0.794799 -0.863702
2.953752 0.794943 -0.870297
2.954737 0.812498 -0.870687
2.993005 0.811371 -0.838609
2.992020 0.793816 -0.838219
2.997870 0.790137 -0.844849
2.997543 0.797784 -0.844791
2.954593 0.811952 -0.870534
2.953608 0.794397 -0.870144
2.959458 0.790718 -0.876774
2.959131 0.798365 -0.876716
2.985820 0.793179 -0.831049
2.983680 0.761893 -0.830248
2.997363 0.789643 -0.844274
2.991513 0.793322 -0.837644
2.948412 0.794721 -0.864113
2.946272 0.763435 -0.863312
2.959955 0.791185 -0.877338
2.954105 0.794864 -0.870708
2.989210 0.789899 -0.839811
3.026556 0.790898 -0.860240
3.027521 0.804367 -0.854006
2.984672 0.803486 -0.833629
2.967504 0.806264 -0.881717
3.004850 0.807263 -0.902145
3.005815 0.820732 -0.895911
2.962966 0.819851 -0.875534
2.983514 0.803153 -0.833198
3.026363 0.804034 -0.853575
3.027324 0.817504 -0.847345
2.978980 0.816739 -0.827013
2.964121 0.820211 -0.875952
3.006969 0.821092 -0.896329
3.007930 0.834562 -0.890099
2.959586 0.833797 -0.869767
3.042270 0.822967 -0.865867
3.041309 0.809497 -0.872097
3.042448 0.812649 -0.878425
3.043316 0.823962 -0.873854
2.993031 0.829102 -0.871604
2.992070 0.815632 -0.877835
2.993209 0.818784 -0.884162
2.994077 0.830096 -0.879591
3.041292 0.809455 -0.872003
3.040328 0.795986 -0.878237
3.041579 0.801292 -0.882897
3.042431 0.812607 -0.878330
2.992085 0.815649 -0.877940
2.991120 0.802180 -0.884174
2.992372 0.807486 -0.888834
2.993224 0.818801 -0.884267
2.990651 0.915116 -0.823048
2.995668 0.915733 -0.831378
2.996429 0.935547 -0.830151
2.992664 0.935085 -0.823904
2.947849 0.918339 -0.848594
2.952866 0.918956 -0.856925
2.953627 0.938770 -0.855698
2.949862 0.938308 -0.849451
2.992667 0.935102 -0.823907
2.996432 0.935563 -0.830154
2.997192 0.955378 -0.828928
2.994686 0.955069 -0.824761
2.949862 0.938331 -0.849447
2.953627 0.938793 -0.855694
2.954388 0.958607 -0.854468
2.951881 0.958299 -0.850302
3.047085 0.880501 -0.900948
3.052658 0.877902 -0.931933
3.054385 0.907078 -0.926582
3.048730 0.908891 -0.894756
2.998189 0.885184 -0.910019
3.003762 0.882585 -0.941003
3.005490 0.911761 -0.935652
2.999834 0.913574 -0.903826
3.048818 0.909227 -0.895083
3.054474 0.907415 -0.926909
3.056202 0.936700 -0.924887
3.050464 0.937616 -0.888891
2.999749 0.913295 -0.903490
3.005405 0.911483 -0.935316
3.007133 0.940768 -0.933294
3.001395 0.941684 -0.897297
2.974047 0.915809 -0.819228
3.020074 0.914839 -0.818836
3.020835 0.934653 -0.817607
2.974808 0.935623 -0.818001
2.974538 0.918880 -0.869082
3.020565 0.917909 -0.868689
3.021326 0.937723 -0.867461
2.975299 0.938693 -0.867854
3.020835 0.934674 -0.817606
3.021596 0.954488 -0.816378
2.975569 0.955458 -0.816774
2.974808 0.935644 -0.818000
3.021327 0.937742 -0.867459
3.022088 0.957557 -0.866231
2.976061 0.958526 -0.866627
2.975300 0.938712 -0.867853
2.994849 0.853706 -0.840102
2.996386 0.861612 -0.843586
2.996482 0.883714 -0.838727
2.946949 0.856944 -0.853891
2.948487 0.864851 -0.857375
2.948582 0.886952 -0.852516
2.993212 0.823673 -0.841492
2.996314 0.845341 -0.847170
2.996387 0.861588 -0.843596
2.994850 0.853681 -0.840112
2.945308 0.826921 -0.855265
2.948410 0.848589 -0.860943
2.948484 0.864835 -0.857369
2.946946 0.856928 -0.853885
2.991156 0.882656 -0.829198
2.991060 0.860555 -0.834057
3.016657 0.866794 -0.860660
3.016181 0.881397 -0.859095
2.953935 0.888025 -0.862074
2.953839 0.865924 -0.866932
2.979436 0.872163 -0.893536
2.978960 0.886766 -0.891970
2.990126 0.860983 -0.832996
2.990052 0.844736 -0.836570
3.042345 0.860499 -0.885762
3.015723 0.867222 -0.859600
2.954786 0.865466 -0.868011
2.954713 0.849220 -0.871585
3.007005 0.864982 -0.920777
2.980383 0.871705 -0.894614
3.016040 0.885727 -0.858802
3.016516 0.871124 -0.860367
3.043138 0.864401 -0.886530
3.041066 0.884468 -0.888697
2.979152 0.882434 -0.892319
2.979628 0.867831 -0.893885
3.006250 0.861108 -0.920047
3.004178 0.881175 -0.922215
3.033435 0.880510 -0.863816
3.009554 0.865018 -0.864744
3.034580 0.863758 -0.894639
3.009524 0.918663 -0.885439
2.985644 0.903172 -0.886367
3.010670 0.901912 -0.916262
3.032281 0.897266 -0.832968
2.984518 0.866284 -0.834823
3.009544 0.865025 -0.864720
3.033424 0.880516 -0.863792
3.008370 0.935421 -0.854589
2.960608 0.904439 -0.856444
2.985633 0.903180 -0.886341
3.009513 0.918672 -0.885413
3.045980 0.934865 -0.840751
3.045219 0.915051 -0.841979
3.046363 0.898301 -0.872803
3.047567 0.922402 -0.869092
2.996229 0.937496 -0.844346
2.995468 0.917681 -0.845575
2.996612 0.900932 -0.876398
2.997816 0.925033 -0.872688
3.047528 0.921978 -0.868922
3.046324 0.897877 -0.872632
3.047469 0.881126 -0.903455
3.049114 0.909516 -0.897263
2.997858 0.925428 -0.872917
2.996653 0.901327 -0.876628
2.997799 0.884576 -0.907451
2.999443 0.912966 -0.901259
3.046709 0.954661 -0.839144
3.045949 0.934847 -0.840372
3.047536 0.922384 -0.868713
3.048739 0.946486 -0.865003
2.997023 0.957372 -0.843492
2.996262 0.937558 -0.844720
2.997850 0.925095 -0.873061
2.999052 0.949197 -0.869351
3.048699 0.946045 -0.864871
3.047496 0.921943 -0.868581
3.049081 0.909481 -0.896922
3.050727 0.937870 -0.890730
2.999096 0.949617 -0.869538
2.997893 0.925516 -0.873248
2.999478 0.913053 -0.901590
3.001124 0.941442 -0.895397
3.050529 0.937630 -0.889280
3.056267 0.936714 -0.925276
3.057954 0.965961 -0.921981
3.052173 0.966019 -0.883088
3.001334 0.941728 -0.896899
3.007072 0.940812 -0.932896
3.008759 0.970059 -0.929601
3.002978 0.970117 -0.890707
3.052221 0.966093 -0.883367
3.058001 0.966035 -0.922260
3.059688 0.995282 -0.918965
3.053864 0.994482 -0.877175
3.002934 0.970101 -0.890419
3.008714 0.970043 -0.929312
3.010401 0.999290 -0.926017
3.004577 0.998490 -0.884226
3.048694 0.946550 -0.864503
3.049897 0.970652 -0.860793
3.048185 0.994353 -0.836188
3.046664 0.954725 -0.838644
2.999100 0.949187 -0.869846
3.000303 0.973288 -0.866135
2.998591 0.996990 -0.841530
2.997070 0.957362 -0.843987
3.050685 0.937827 -0.890342
3.052329 0.966216 -0.884150
3.049860 0.970103 -0.860773
3.048656 0.946002 -0.864483
3.001170 0.941538 -0.895775
3.002814 0.969927 -0.889583
3.000345 0.973815 -0.866205
2.999142 0.949713 -0.869916
3.052266 0.966220 -0.883624
3.053909 0.994609 -0.877432
3.048085 0.993809 -0.835642
3.049796 0.970107 -0.860247
3.002879 0.969976 -0.890088
3.004522 0.998365 -0.883896
2.998697 0.997565 -0.842106
3.000409 0.973863 -0.866711
3.029348 0.884224 -0.891436
2.977056 0.868461 -0.842244
3.025185 0.869230 -0.862581
3.020030 0.841241 -0.915115
2.967737 0.825479 -0.865923
3.015866 0.826248 -0.886260
