3.577819 0.480694 -0.684497
3.562121 0.474393 -0.683032
3.550628 0.486741 -0.683804
3.583797 0.452410 -0.782648
3.596662 0.435320 -0.781815
3.588535 0.427714 -0.779809
3.575889 0.441584 -0.780699
3.593050 0.465520 -0.684045
3.605914 0.448430 -0.683212
3.597787 0.440823 -0.681206
3.585142 0.454693 -0.682096
3.546611 0.476891 -0.783133
3.558103 0.464543 -0.782360
3.544986 0.454811 -0.780748
3.532285 0.465849 -0.781607
3.550038 0.487364 -0.683842
3.561530 0.475016 -0.683070
3.548413 0.465283 -0.681457
3.535712 0.476321 -0.682317
3.576585 0.440667 -0.780629
3.589231 0.426797 -0.779739
3.581103 0.419191 -0.777733
3.567841 0.430966 -0.778667
3.584429 0.455592 -0.682162
3.597074 0.441722 -0.681272
3.588947 0.434116 -0.679266
3.575685 0.445891 -0.680200
3.532764 0.464735 -0.781491
3.545466 0.453697 -0.780632
3.533831 0.436257 -0.777873
3.518438 0.453692 -0.779965
3.535205 0.477411 -0.682429
3.547907 0.466373 -0.681569
3.536271 0.448933 -0.678811
3.520878 0.466368 -0.680903
3.481534 0.335711 -0.732895
3.481010 0.347667 -0.730335
3.483625 0.346487 -0.749673
3.483584 0.336380 -0.750481
3.580645 0.335969 -0.720375
3.580122 0.347925 -0.717815
3.582737 0.346746 -0.737152
3.582696 0.336638 -0.737961
3.483363 0.319977 -0.750216
3.483389 0.338126 -0.748352
3.485193 0.336731 -0.765714
3.484343 0.326408 -0.764547
3.582871 0.316716 -0.741991
3.582896 0.334865 -0.740127
3.584701 0.333470 -0.757489
3.583851 0.323147 -0.756322
3.483610 0.338561 -0.750348
3.483651 0.348669 -0.749540
3.486266 0.347489 -0.768877
3.485415 0.337166 -0.767710
3.582675 0.334455 -0.738130
3.582716 0.344563 -0.737322
3.585331 0.343383 -0.756659
3.584480 0.333060 -0.755492
3.492885 0.380375 -0.720314
3.512184 0.396321 -0.720742
3.505941 0.397783 -0.740209
3.495500 0.379195 -0.739651
3.568262 0.315246 -0.727835
3.587561 0.331192 -0.728263
3.581318 0.332654 -0.747730
3.570877 0.314066 -0.747173
3.489090 0.369412 -0.749033
3.499532 0.387999 -0.749591
3.501017 0.387618 -0.768880
3.491705 0.368232 -0.768370
3.577286 0.323849 -0.737830
3.587728 0.342437 -0.738387
3.589213 0.342055 -0.757677
3.579901 0.322669 -0.757167
3.499341 0.388221 -0.746085
3.509782 0.406809 -0.746643
3.510139 0.407226 -0.765885
3.500827 0.387840 -0.765375
3.587938 0.342252 -0.741894
3.598379 0.360840 -0.742452
3.598735 0.361257 -0.761693
3.589423 0.341871 -0.761183
3.509813 0.406917 -0.743088
3.520254 0.425504 -0.743646
3.519481 0.426720 -0.762839
3.510169 0.407334 -0.762329
3.598368 0.360770 -0.746008
3.608809 0.379358 -0.746566
3.608036 0.380573 -0.765760
3.598724 0.361187 -0.765250
3.520510 0.425495 -0.740093
3.530951 0.444083 -0.740651
3.529049 0.446097 -0.759796
3.519737 0.426711 -0.759286
3.608573 0.379404 -0.750120
3.619014 0.397992 -0.750678
3.617113 0.400006 -0.769823
3.607800 0.380620 -0.769313
3.545998 0.457908 -0.721104
3.554125 0.465514 -0.723110
3.553604 0.466804 -0.741636
3.544096 0.459923 -0.740249
3.607794 0.380160 -0.731898
3.615921 0.387766 -0.733904
3.615400 0.389056 -0.752430
3.605892 0.382174 -0.751044
3.553203 0.465094 -0.726547
3.561331 0.472700 -0.728553
3.559650 0.471437 -0.746282
3.552682 0.466383 -0.745073
3.616859 0.388200 -0.730470
3.624986 0.395807 -0.732476
3.623305 0.394544 -0.750205
3.616338 0.389490 -0.748996
3.561266 0.472656 -0.732275
3.569394 0.480263 -0.734281
3.569073 0.478266 -0.751403
3.559586 0.471394 -0.750004
3.625067 0.395864 -0.728757
3.633194 0.403470 -0.730763
3.632874 0.401474 -0.747885
3.623386 0.394601 -0.746486
3.549353 0.463648 -0.740866
3.558861 0.470530 -0.742253
3.561224 0.473061 -0.760997
3.547452 0.465663 -0.760012
3.600633 0.378453 -0.750464
3.610142 0.385334 -0.751851
3.612504 0.387866 -0.770595
3.598732 0.380467 -0.769609
3.555406 0.468492 -0.745240
3.562374 0.473546 -0.746449
3.557769 0.471024 -0.763985
3.613612 0.387381 -0.748859
3.620580 0.392435 -0.750068
3.615974 0.389913 -0.767603
3.565245 0.475460 -0.750070
3.574732 0.482332 -0.751469
3.574411 0.480336 -0.768591
3.560639 0.472937 -0.767605
3.617724 0.390531 -0.746455
3.627211 0.397404 -0.747854
3.626891 0.395407 -0.764976
3.613118 0.388009 -0.763990
3.570729 0.408384 -0.733376
3.567359 0.382597 -0.732632
3.546529 0.393126 -0.731669
3.551431 0.405267 -0.732209
3.576415 0.410520 -0.633661
3.573045 0.384733 -0.632917
3.552215 0.395262 -0.631954
3.557117 0.407403 -0.632494
3.558315 0.431265 -0.733159
3.570726 0.408401 -0.733377
3.551429 0.405285 -0.732209
3.544498 0.416132 -0.732047
3.564000 0.433401 -0.633443
3.576412 0.410538 -0.633661
3.557114 0.407421 -0.632494
3.550183 0.418268 -0.632332
3.534848 0.442485 -0.732061
3.558301 0.431278 -0.733158
3.544484 0.416145 -0.732046
3.533020 0.422687 -0.731533
3.540534 0.444621 -0.632346
3.563987 0.433414 -0.633443
3.550170 0.418281 -0.632331
3.538705 0.424823 -0.631817
3.509295 0.437758 -0.730503
3.534830 0.442487 -0.732060
3.533001 0.422688 -0.731532
3.521261 0.417365 -0.730748
3.514981 0.439894 -0.630787
3.540516 0.444624 -0.632345
3.538687 0.424825 -0.631816
3.526947 0.419501 -0.631033
3.491414 0.418888 -0.729079
3.509278 0.437748 -0.730501
3.521245 0.417355 -0.730747
3.512388 0.406914 -0.730018
3.497101 0.421025 -0.629364
3.514965 0.439884 -0.630786
3.526931 0.419491 -0.631032
3.518074 0.409050 -0.630303
3.488036 0.393085 -0.728333
3.491406 0.418872 -0.729078
3.512379 0.406897 -0.730017
3.507807 0.395446 -0.729511
3.493722 0.395222 -0.628618
3.497092 0.421008 -0.629363
3.518065 0.409033 -0.630302
3.513493 0.397583 -0.629796
3.500451 0.370204 -0.728551
3.488039 0.393068 -0.728333
3.507810 0.395429 -0.729511
3.514568 0.385370 -0.729681
3.506137 0.372341 -0.628836
3.493725 0.395204 -0.628618
3.513496 0.397565 -0.629796
3.520254 0.387507 -0.629966
3.523917 0.358984 -0.729649
3.500464 0.370192 -0.728551
3.514581 0.385358 -0.729681
3.525191 0.379890 -0.730169
3.529603 0.361121 -0.629933
3.506150 0.372328 -0.628836
3.520267 0.387494 -0.629966
3.530877 0.382026 -0.630454
3.549470 0.363712 -0.731207
3.523935 0.358983 -0.729650
3.525209 0.379888 -0.730170
3.536440 0.385362 -0.730928
3.555156 0.365848 -0.631492
3.529620 0.361119 -0.629934
3.530894 0.382024 -0.630455
3.542126 0.387498 -0.631213
3.546520 0.393109 -0.731669
3.567350 0.382581 -0.732631
3.549486 0.363721 -0.731208
3.536456 0.385371 -0.730929
3.552206 0.395246 -0.631953
3.573037 0.384717 -0.632916
3.555172 0.365857 -0.631493
3.542142 0.387507 -0.631214
3.521269 0.417350 -0.730748
3.533010 0.422674 -0.731532
3.544474 0.416132 -0.732045
3.533610 0.404985 -0.731187
3.526956 0.419487 -0.631033
3.538696 0.424810 -0.631817
3.550161 0.418268 -0.632330
3.539296 0.407122 -0.631472
3.514580 0.385380 -0.729682
3.507822 0.395438 -0.729512
3.512394 0.406889 -0.730018
3.523762 0.395568 -0.730424
3.520266 0.387517 -0.629967
3.513508 0.397575 -0.629797
3.518080 0.409026 -0.630303
3.529447 0.397704 -0.630708
3.525200 0.379903 -0.730170
3.514591 0.385371 -0.729682
3.523772 0.395559 -0.730424
3.536431 0.385377 -0.730928
3.530886 0.382039 -0.630455
3.520276 0.387507 -0.629967
3.529458 0.397695 -0.630709
3.542117 0.387513 -0.631212
3.536441 0.385384 -0.730928
3.523782 0.395566 -0.730425
3.533612 0.404965 -0.731187
3.546505 0.393123 -0.731668
3.542127 0.387521 -0.631213
3.529468 0.397703 -0.630710
3.539298 0.407102 -0.631471
3.552191 0.395260 -0.631953
3.521259 0.417341 -0.730747
3.533600 0.404976 -0.731186
3.523770 0.395578 -0.730424
3.512402 0.406899 -0.730019
3.526945 0.419478 -0.631032
3.539286 0.407113 -0.631471
3.529456 0.397715 -0.630709
3.518088 0.409036 -0.630304
3.544485 0.416121 -0.732046
3.551416 0.405274 -0.732208
3.546514 0.393133 -0.731669
3.533621 0.404975 -0.731187
3.550171 0.418258 -0.632331
3.557102 0.407411 -0.632493
3.552200 0.395270 -0.631954
3.539307 0.407112 -0.631472
3.525046 0.330115 -0.729094
3.529745 0.317073 -0.729083
3.516727 0.312383 -0.728240
3.512028 0.325426 -0.728252
3.530732 0.332251 -0.629379
3.535431 0.319209 -0.629368
3.522412 0.314520 -0.628525
3.517714 0.327562 -0.628537
3.499914 0.359415 -0.724478
3.501300 0.359871 -0.701510
3.514246 0.364598 -0.702276
3.512932 0.364104 -0.725321
3.533970 0.265499 -0.724538
3.535357 0.265955 -0.701570
3.548302 0.270682 -0.702335
3.546988 0.270188 -0.725381
3.558955 0.342946 -0.727338
3.560121 0.343102 -0.704205
3.565040 0.330360 -0.704359
3.563653 0.329904 -0.727327
3.465514 0.308060 -0.721700
3.466680 0.308216 -0.698566
3.471599 0.295474 -0.698720
3.470212 0.295018 -0.721688
3.544382 0.283562 -0.724211
3.543497 0.284641 -0.701130
3.531538 0.279139 -0.700254
3.530372 0.278984 -0.723387
3.508116 0.376619 -0.726475
3.507231 0.377698 -0.703394
3.495272 0.372196 -0.702518
3.494105 0.372041 -0.725651
3.484343 0.300590 -0.701288
3.478437 0.314106 -0.701244
3.479323 0.313027 -0.724326
3.483029 0.300096 -0.724333
3.578214 0.334708 -0.703324
3.572308 0.348224 -0.703280
3.573194 0.347146 -0.726361
3.576900 0.334215 -0.726369
3.481661 0.312720 -0.675191
3.479140 0.312700 -0.698182
3.485045 0.299184 -0.698225
3.486360 0.299678 -0.675180
3.574129 0.349650 -0.683306
3.571608 0.349630 -0.706297
3.577513 0.336114 -0.706340
3.578828 0.336608 -0.683295
3.533689 0.280238 -0.679179
3.532227 0.279406 -0.702137
3.544187 0.284908 -0.703012
3.546707 0.284928 -0.680022
3.496046 0.372762 -0.677632
3.494584 0.371930 -0.700589
3.506544 0.377431 -0.701465
3.509064 0.377451 -0.678475
3.515555 0.365089 -0.679336
3.514240 0.364596 -0.702381
3.501295 0.359869 -0.701616
3.502536 0.360400 -0.678493
3.549625 0.271179 -0.679138
3.548310 0.270685 -0.702183
3.535365 0.265958 -0.701418
3.536606 0.266489 -0.678295
3.566257 0.330884 -0.681649
3.565016 0.330353 -0.704771
3.560097 0.343095 -0.704617
3.561559 0.343927 -0.681660
3.472868 0.296013 -0.675139
3.471626 0.295482 -0.698261
3.466707 0.308223 -0.698108
3.468169 0.309055 -0.675150
3.524147 0.416173 -0.681071
3.522948 0.415039 -0.704098
3.519463 0.389893 -0.703372
3.520777 0.390386 -0.680327
3.623016 0.402726 -0.685990
3.621816 0.401592 -0.709017
3.618332 0.376445 -0.708291
3.619646 0.376939 -0.685246
3.516764 0.409555 -0.681211
3.517919 0.406416 -0.705415
3.527976 0.385557 -0.704456
3.529175 0.386691 -0.681429
3.605568 0.455118 -0.685416
3.606724 0.451979 -0.709619
3.616780 0.431121 -0.708660
3.617980 0.432255 -0.685633
3.515525 0.398956 -0.678487
3.515379 0.397581 -0.702277
3.540134 0.384610 -0.703788
3.538978 0.387749 -0.679584
3.559865 0.488166 -0.685945
3.559719 0.486791 -0.709734
3.584474 0.473819 -0.711246
3.583318 0.476958 -0.687042
3.520819 0.389695 -0.678461
3.520651 0.388864 -0.702799
3.546208 0.393050 -0.703808
3.546355 0.394425 -0.680019
3.503451 0.487976 -0.682853
3.503283 0.487145 -0.707191
3.528840 0.491330 -0.708200
3.528986 0.492705 -0.684410
3.528925 0.384037 -0.680555
3.526902 0.384524 -0.704310
3.546622 0.402066 -0.706316
3.546790 0.402897 -0.681978
3.459572 0.455892 -0.677910
3.457549 0.456378 -0.701665
3.477268 0.473920 -0.703671
3.477436 0.474751 -0.679333
3.540233 0.387761 -0.682633
3.538586 0.389327 -0.705750
3.541580 0.414033 -0.707131
3.543603 0.413547 -0.683377
3.441503 0.400552 -0.674341
3.439856 0.402118 -0.697459
3.442849 0.426825 -0.698840
3.444873 0.426339 -0.675086
3.547703 0.393899 -0.681833
3.544662 0.395118 -0.705140
3.533644 0.418329 -0.704733
3.535292 0.416763 -0.681615
3.458865 0.348638 -0.675576
3.455823 0.349858 -0.698882
3.444806 0.373068 -0.698475
3.446453 0.371502 -0.675358
3.549390 0.404520 -0.681920
3.545995 0.404313 -0.706156
3.522896 0.416947 -0.704129
3.525937 0.415728 -0.680823
3.504118 0.315568 -0.677685
3.500723 0.315361 -0.701921
3.477624 0.327994 -0.699894
3.480666 0.326775 -0.676588
3.544459 0.414092 -0.682076
3.541005 0.412517 -0.705570
3.515529 0.409157 -0.704755
3.518924 0.409363 -0.680518
3.560169 0.315446 -0.680647
3.556714 0.313870 -0.704141
3.531238 0.310510 -0.703326
3.534633 0.310716 -0.679089
3.533236 0.418070 -0.703730
3.513232 0.398129 -0.702756
3.516686 0.399704 -0.679262
3.534550 0.418564 -0.680685
3.604536 0.348223 -0.707931
3.584532 0.328282 -0.706956
3.587986 0.329857 -0.683463
3.605851 0.348717 -0.684885
3.514150 0.398666 -0.724329
3.513139 0.398097 -0.704723
3.533143 0.418039 -0.705697
3.532015 0.417526 -0.725751
3.585634 0.328881 -0.724639
3.584622 0.328312 -0.705033
3.604627 0.348253 -0.706007
3.603498 0.347741 -0.726061
3.516448 0.408368 -0.724580
3.515557 0.409162 -0.704720
3.541034 0.412522 -0.705535
3.542045 0.413091 -0.725140
3.532098 0.309710 -0.723265
3.531207 0.310504 -0.703404
3.556683 0.313864 -0.704219
3.557694 0.314433 -0.723825
3.523329 0.414713 -0.727253
3.522916 0.416919 -0.704469
3.546015 0.404286 -0.706496
3.546905 0.403492 -0.726356
3.478015 0.325814 -0.722384
3.477602 0.328021 -0.699600
3.500701 0.315387 -0.701627
3.501592 0.314594 -0.721487
3.533774 0.415621 -0.729621
3.534128 0.417504 -0.703394
3.545146 0.394293 -0.703800
3.545559 0.392086 -0.726585
3.443965 0.372010 -0.726090
3.444319 0.373893 -0.699862
3.455337 0.350682 -0.700269
3.455750 0.348475 -0.723053
3.541228 0.413254 -0.725933
3.541834 0.414728 -0.703596
3.538840 0.390022 -0.702215
3.538485 0.388139 -0.728442
3.441988 0.424656 -0.724760
3.442593 0.426130 -0.702423
3.439599 0.401423 -0.701042
3.439245 0.399540 -0.727269
3.544124 0.402092 -0.730760
3.546692 0.402131 -0.706212
3.526973 0.384588 -0.704206
3.526368 0.383114 -0.726542
3.474627 0.473816 -0.728370
3.477195 0.473855 -0.703822
3.457475 0.456313 -0.701816
3.456870 0.454839 -0.724152
3.543501 0.393365 -0.729608
3.545984 0.392978 -0.707307
3.520427 0.388792 -0.706297
3.517858 0.388754 -0.730846
3.526580 0.491789 -0.727050
3.529062 0.491401 -0.704749
3.503505 0.487216 -0.703740
3.500937 0.487177 -0.728288
3.536292 0.386686 -0.726853
3.539953 0.384547 -0.706960
3.515198 0.397518 -0.705449
3.512716 0.397906 -0.727750
3.580992 0.476020 -0.728012
3.584653 0.473881 -0.708119
3.559898 0.486852 -0.706608
3.557416 0.487240 -0.728909
3.493657 0.391895 -0.777551
3.505442 0.368360 -0.774514
3.500711 0.361871 -0.775714
3.483407 0.369848 -0.776697
3.484074 0.395720 -0.678185
3.495859 0.372186 -0.675149
3.491127 0.365697 -0.676349
3.473824 0.373674 -0.677331
3.517679 0.360397 -0.774587
3.500376 0.368375 -0.775569
3.505108 0.374864 -0.774369
3.528684 0.363643 -0.773472
3.508800 0.351190 -0.675509
3.491497 0.359168 -0.676491
3.496229 0.365657 -0.675291
3.519806 0.354436 -0.674394
3.544415 0.452769 -0.780467
3.569443 0.431184 -0.778801
3.556356 0.424109 -0.776812
3.532780 0.435329 -0.777709
3.548996 0.467270 -0.681731
3.574024 0.445686 -0.680065
3.560937 0.438610 -0.678076
3.537360 0.449831 -0.678973
3.568294 0.430053 -0.778554
3.581556 0.418278 -0.777620
3.573429 0.410672 -0.775615
3.555207 0.422978 -0.776565
3.575213 0.446788 -0.680309
3.588475 0.435013 -0.679375
3.580348 0.427407 -0.677370
3.562126 0.439713 -0.678320
3.517423 0.358712 -0.774737
3.528429 0.361958 -0.773622
3.534727 0.350735 -0.773754
3.509084 0.352860 -0.675358
3.520089 0.356106 -0.674243
3.526387 0.344882 -0.674375
3.519227 0.394671 -0.699998
3.537092 0.413530 -0.701420
3.523425 0.414720 -0.720023
3.580554 0.332884 -0.749002
3.598418 0.351743 -0.750425
3.584752 0.352933 -0.769028
3.512744 0.407492 -0.729498
3.502303 0.388904 -0.728940
3.508546 0.387442 -0.709472
3.595417 0.360150 -0.759565
3.584975 0.341562 -0.759007
3.591219 0.340100 -0.739540
3.506039 0.354465 -0.754198
3.507858 0.356139 -0.746976
3.520876 0.360829 -0.747819
3.523044 0.355584 -0.754201
3.524205 0.267096 -0.709291
3.526024 0.268770 -0.702070
3.539043 0.273460 -0.702913
3.541211 0.268214 -0.709294
3.495270 0.311844 -0.765452
3.493102 0.317089 -0.759070
3.489396 0.330020 -0.759063
3.494224 0.335757 -0.760333
3.568998 0.311975 -0.698041
3.566830 0.317220 -0.691659
3.563124 0.330152 -0.691652
3.567951 0.335888 -0.692922
3.553211 0.343329 -0.746859
3.555918 0.342502 -0.741785
3.560616 0.329460 -0.741774
3.558797 0.327786 -0.748995
3.465841 0.309330 -0.712355
3.468547 0.308503 -0.707282
3.473246 0.295461 -0.707270
3.471427 0.293787 -0.714492
3.547008 0.300364 -0.757989
3.542180 0.294628 -0.756718
3.528169 0.290050 -0.755894
3.525463 0.290877 -0.760968
3.515147 0.371291 -0.695265
3.510319 0.365555 -0.693995
3.496308 0.360977 -0.693171
3.493602 0.361804 -0.698244
3.534904 0.342631 -0.775965
3.513359 0.333143 -0.778944
3.517700 0.347576 -0.776619
3.527247 0.329035 -0.677291
3.505702 0.319547 -0.680270
3.510043 0.333980 -0.677945
3.585777 0.466922 -0.735301
3.574748 0.457916 -0.734367
3.565730 0.468973 -0.734225
3.576758 0.477980 -0.735159
3.591474 0.470284 -0.635621
3.580446 0.461278 -0.634687
3.571427 0.472335 -0.634544
3.582455 0.481342 -0.635478
3.556693 0.506995 -0.684633
3.555408 0.506617 -0.707684
3.544348 0.497211 -0.706736
3.545665 0.497989 -0.683699
3.620565 0.430200 -0.686312
3.619280 0.429821 -0.709364
3.608220 0.420416 -0.708416
3.609537 0.421193 -0.685378
3.541858 0.447141 -0.681883
3.539895 0.446409 -0.704876
3.549591 0.435706 -0.705077
3.550876 0.436084 -0.682026
3.617365 0.512188 -0.688778
3.615402 0.511456 -0.711770
3.625099 0.500753 -0.711971
3.626384 0.501131 -0.688920
3.616026 0.491309 -0.687960
3.614710 0.490532 -0.710998
3.605669 0.501384 -0.710911
3.607008 0.502366 -0.687818
3.539155 0.427874 -0.681116
3.537839 0.427097 -0.704153
3.528798 0.437949 -0.704066
3.530137 0.438931 -0.680973
3.600923 0.432610 -0.685298
3.599584 0.431628 -0.708391
3.609988 0.440885 -0.709224
3.611951 0.441617 -0.686232
3.536223 0.508707 -0.683494
3.534885 0.507725 -0.706587
3.545289 0.516982 -0.707420
3.547252 0.517714 -0.684428
3.539297 0.447985 -0.700179
3.537200 0.445136 -0.726001
3.550065 0.428046 -0.725168
3.548994 0.437282 -0.700381
3.615998 0.509874 -0.716515
3.613901 0.507024 -0.742336
3.626765 0.489934 -0.741503
3.625694 0.499170 -0.716716
3.603022 0.435983 -0.710760
3.592618 0.426725 -0.709926
3.585226 0.426832 -0.735117
3.600925 0.433133 -0.736581
3.552249 0.521883 -0.705934
3.541844 0.512625 -0.705100
3.534453 0.512732 -0.730291
3.550151 0.519033 -0.731756
3.552875 0.489929 -0.749884
3.544967 0.479102 -0.747935
3.540744 0.489759 -0.724149
3.551804 0.499165 -0.725097
3.623957 0.428027 -0.716786
3.616049 0.417201 -0.714836
3.611826 0.427858 -0.691050
3.622886 0.437263 -0.691998
3.612644 0.491720 -0.717041
3.616867 0.481063 -0.740827
3.596212 0.502679 -0.742145
3.603603 0.502572 -0.716954
3.539901 0.425903 -0.698157
3.544124 0.415246 -0.721943
3.523469 0.436862 -0.723261
3.530861 0.436755 -0.698070
3.557229 0.463589 -0.782213
3.577884 0.441974 -0.780895
3.569140 0.432272 -0.778934
3.544112 0.453857 -0.780600
3.562439 0.475936 -0.683215
3.583094 0.454320 -0.681898
3.574350 0.444619 -0.679936
3.549322 0.466204 -0.681603
3.481374 0.335416 -0.731448
3.483425 0.336084 -0.749034
3.483399 0.317935 -0.750898
3.482420 0.311503 -0.736567
3.580806 0.336232 -0.721827
3.582857 0.336901 -0.739413
3.582832 0.318752 -0.741277
3.581853 0.312320 -0.726946
3.548779 0.363735 -0.774431
3.529480 0.347789 -0.774003
3.523182 0.359013 -0.773870
3.550957 0.363779 -0.674554
3.531658 0.347833 -0.674126
3.525360 0.359056 -0.673994
3.512394 0.434650 -0.779328
3.522644 0.456697 -0.780182
3.538037 0.439262 -0.778090
3.506397 0.441294 -0.679830
3.516647 0.463340 -0.680684
3.532040 0.445905 -0.678592
3.571177 0.404582 -0.775464
3.558641 0.427458 -0.777241
3.576863 0.415152 -0.776290
3.571219 0.412338 -0.675866
3.558684 0.435214 -0.677642
3.576906 0.422908 -0.676692
3.517992 0.406561 -0.703343
3.514331 0.408700 -0.723236
3.526867 0.385824 -0.721460
3.528048 0.385702 -0.702384
3.606649 0.451833 -0.711735
3.602988 0.453972 -0.731628
3.615524 0.431096 -0.729851
3.616705 0.430974 -0.710776
3.521788 0.415173 -0.722805
3.518356 0.389393 -0.723057
3.519485 0.389905 -0.703003
3.522969 0.415051 -0.703729
3.620611 0.401699 -0.728504
3.617179 0.375919 -0.728757
3.618308 0.376432 -0.708703
3.621792 0.401578 -0.709429
3.521418 0.426640 -0.738017
3.528075 0.432642 -0.718604
3.533761 0.443213 -0.719430
3.531859 0.445227 -0.738575
3.607671 0.378261 -0.752158
3.614327 0.384264 -0.732745
3.620014 0.394834 -0.733570
3.618112 0.396848 -0.752716
3.528191 0.432810 -0.718469
3.521535 0.426807 -0.737882
3.511094 0.408220 -0.737324
3.614193 0.384067 -0.732885
3.607537 0.378064 -0.752298
3.597095 0.359477 -0.751740
3.514199 0.388862 -0.714894
3.527865 0.387672 -0.696292
3.531296 0.413452 -0.696039
3.593993 0.378821 -0.774157
3.607659 0.377631 -0.755554
3.611091 0.403412 -0.755302
3.521466 0.275514 -0.819623
3.569226 0.304144 -0.820021
3.612230 0.267870 -0.818023
3.590743 0.217285 -0.816413
3.520026 0.279303 -0.719805
3.567786 0.307933 -0.720203
3.610790 0.271660 -0.718206
3.589303 0.221074 -0.716595
3.499651 0.363395 -0.823274
3.555749 0.358827 -0.822291
3.569189 0.304203 -0.820024
3.521429 0.275573 -0.819626
3.498211 0.367184 -0.723456
3.554309 0.362616 -0.722473
3.567749 0.307992 -0.720206
3.519989 0.279362 -0.719808
3.533698 0.447335 -0.825969
3.577012 0.410999 -0.823965
3.555754 0.358897 -0.822294
3.499656 0.363465 -0.823276
3.532258 0.451124 -0.726151
3.575572 0.414789 -0.724147
3.554314 0.362686 -0.722476
3.498216 0.367254 -0.723459
3.610600 0.495272 -0.826679
3.624894 0.440737 -0.824403
3.577057 0.411053 -0.823966
3.533743 0.447389 -0.825970
3.609160 0.499061 -0.726861
3.623454 0.444526 -0.724585
3.575617 0.414842 -0.724148
3.532303 0.451178 -0.726153
3.700984 0.488894 -0.825133
3.681100 0.436676 -0.823438
3.624962 0.440754 -0.824403
3.610668 0.495288 -0.826679
3.699544 0.492683 -0.725315
3.679660 0.440465 -0.723620
3.623522 0.444543 -0.724585
3.609228 0.499077 -0.726861
3.770326 0.430639 -0.821921
3.724170 0.400373 -0.821438
3.681165 0.436650 -0.823436
3.701048 0.488868 -0.825131
3.768886 0.434428 -0.722104
3.722730 0.404162 -0.721621
3.679725 0.440439 -0.723618
3.699608 0.492657 -0.725313
3.792140 0.342757 -0.818270
3.737646 0.345689 -0.819168
3.724207 0.400314 -0.821436
3.770363 0.430579 -0.821919
3.790700 0.346546 -0.718453
3.736206 0.349478 -0.719350
3.722766 0.404103 -0.721618
3.768923 0.434369 -0.722101
3.758094 0.258817 -0.815575
3.716384 0.293517 -0.817494
3.737641 0.345619 -0.819165
3.792135 0.342688 -0.818268
3.756654 0.262606 -0.715758
3.714944 0.297306 -0.717677
3.736201 0.349408 -0.719348
3.790695 0.346477 -0.718450
3.681192 0.210881 -0.814865
3.668504 0.263784 -0.817056
3.716339 0.293464 -0.817493
3.758049 0.258764 -0.815574
3.679752 0.214670 -0.715047
3.667064 0.267573 -0.717239
3.714898 0.297253 -0.717675
3.756609 0.262553 -0.715756
3.681124 0.210864 -0.814866
3.590807 0.217259 -0.816411
3.612295 0.267844 -0.818021
3.668436 0.263767 -0.817057
3.679684 0.214653 -0.715048
3.589367 0.221048 -0.716594
3.610855 0.271633 -0.718204
3.666996 0.267556 -0.717239
3.667700 0.325218 -0.819400
3.665805 0.298896 -0.818428
3.639270 0.295131 -0.818668
3.636405 0.321377 -0.819706
3.666259 0.329007 -0.719582
3.664365 0.302685 -0.718610
3.637830 0.298920 -0.718851
3.634965 0.325166 -0.719888
3.667729 0.325223 -0.819400
3.699834 0.327130 -0.819009
3.695860 0.310117 -0.818421
3.665835 0.298901 -0.818428
3.666290 0.329012 -0.719582
3.698394 0.330919 -0.719191
3.694420 0.313905 -0.718603
3.664395 0.302690 -0.718610
3.680070 0.354253 -0.820324
3.737586 0.345647 -0.819167
3.699848 0.327153 -0.819010
3.667744 0.325246 -0.819400
3.678630 0.358042 -0.720506
3.736146 0.349436 -0.719350
3.698408 0.330942 -0.719192
3.666303 0.329035 -0.719583
3.680082 0.354286 -0.820325
3.692765 0.387358 -0.821397
3.724159 0.400306 -0.821436
3.737598 0.345681 -0.819168
3.678642 0.358075 -0.720507
3.691325 0.391147 -0.721579
3.722719 0.404095 -0.721618
3.736158 0.349470 -0.719351
3.661092 0.379458 -0.821554
3.679968 0.400806 -0.822092
3.692735 0.387366 -0.821398
3.680052 0.354295 -0.820326
3.659652 0.383246 -0.721737
3.678528 0.404595 -0.722275
3.691295 0.391155 -0.721580
3.678612 0.358084 -0.720508
3.724145 0.400340 -0.821437
3.692751 0.387392 -0.821399
3.679984 0.400832 -0.822093
3.681140 0.436617 -0.823435
3.722705 0.404129 -0.721620
3.691311 0.391181 -0.721581
3.678544 0.404621 -0.722275
3.679700 0.440406 -0.723617
3.569267 0.304175 -0.820021
3.636367 0.321364 -0.819706
3.639232 0.295118 -0.818668
3.612271 0.267901 -0.818024
3.567827 0.307964 -0.720204
3.634927 0.325153 -0.719888
3.637792 0.298907 -0.718851
3.610831 0.271690 -0.718206
3.555807 0.358834 -0.822290
3.617381 0.346559 -0.820936
3.636348 0.321399 -0.819707
3.569248 0.304210 -0.820023
3.554367 0.362624 -0.722473
3.615941 0.350348 -0.721118
3.634907 0.325189 -0.719890
3.567807 0.307999 -0.720205
3.577065 0.410977 -0.823963
3.629715 0.375603 -0.821861
3.617381 0.346599 -0.820938
3.555807 0.358875 -0.822292
3.575625 0.414766 -0.724145
3.628275 0.379392 -0.722043
3.615941 0.350388 -0.721120
3.554367 0.362664 -0.722474
3.624931 0.440690 -0.824401
3.661037 0.379479 -0.821556
3.629743 0.375631 -0.821861
3.577094 0.411006 -0.823964
3.623490 0.444479 -0.724583
3.659597 0.383268 -0.721738
3.628303 0.379421 -0.722044
3.575653 0.414795 -0.724146
3.624969 0.440702 -0.824400
3.681108 0.436625 -0.823436
3.679952 0.400840 -0.822094
3.661076 0.379491 -0.821556
3.623529 0.444492 -0.724583
3.679667 0.440414 -0.723618
3.678511 0.404629 -0.722276
3.659635 0.383281 -0.721738
3.716345 0.293526 -0.817495
3.695891 0.310120 -0.818420
3.699864 0.327134 -0.819009
3.737602 0.345628 -0.819166
3.714905 0.297315 -0.717677
3.694450 0.313909 -0.718603
3.698424 0.330923 -0.719191
3.736162 0.349417 -0.719349
3.668485 0.263819 -0.817058
3.665839 0.298877 -0.818427
3.695865 0.310092 -0.818420
3.716319 0.293499 -0.817494
3.667045 0.267608 -0.717240
3.664399 0.302666 -0.718609
3.694424 0.313882 -0.718602
3.714879 0.297288 -0.717677
3.668445 0.263808 -0.817058
3.612303 0.267886 -0.818023
3.639264 0.295102 -0.818667
3.665799 0.298867 -0.818427
3.667004 0.267598 -0.717241
3.610863 0.271675 -0.718205
3.637824 0.298892 -0.718850
3.664359 0.302656 -0.718609
3.617421 0.346589 -0.820937
3.629755 0.375592 -0.821860
3.645402 0.377516 -0.821707
3.648715 0.350433 -0.820631
3.615981 0.350378 -0.721119
3.628315 0.379381 -0.722042
3.643962 0.381305 -0.721889
3.647275 0.354222 -0.720813
3.648739 0.350436 -0.820631
3.645426 0.377519 -0.821707
3.661073 0.379443 -0.821554
3.680033 0.354280 -0.820325
3.647298 0.354225 -0.720813
3.643985 0.381308 -0.721889
3.659632 0.383231 -0.721736
3.678592 0.358069 -0.720508
3.617425 0.346562 -0.820936
3.648718 0.350406 -0.820630
3.652039 0.323323 -0.819554
3.636391 0.321402 -0.819707
3.615985 0.350351 -0.721118
3.647278 0.354195 -0.720812
3.650599 0.327112 -0.719736
3.634951 0.325191 -0.719889
3.648742 0.350409 -0.820630
3.680036 0.354253 -0.820324
3.667709 0.325246 -0.819401
3.652062 0.323326 -0.819554
3.647302 0.354198 -0.720812
3.678596 0.358042 -0.720507
3.666269 0.329035 -0.719583
3.650622 0.327115 -0.719736
3.562956 0.494236 -0.772207
3.549031 0.482891 -0.770421
3.558697 0.471442 -0.770640
3.572418 0.483064 -0.772669
3.553445 0.489186 -0.871525
3.539521 0.477841 -0.869739
3.549186 0.466392 -0.869958
3.562907 0.478014 -0.871987
3.548709 0.483473 -0.770424
3.534975 0.471842 -0.768536
3.544652 0.460402 -0.768612
3.558374 0.472023 -0.770643
3.539816 0.477236 -0.869732
3.526082 0.465606 -0.867844
3.535759 0.454165 -0.867920
3.549481 0.465787 -0.869951
3.534818 0.472636 -0.768579
3.521293 0.460854 -0.766615
3.532955 0.451862 -0.766774
3.544496 0.461196 -0.768655
3.526212 0.464790 -0.867797
3.512687 0.453008 -0.865834
3.524349 0.444015 -0.865993
3.535890 0.453349 -0.867873
3.518078 0.457320 -0.766287
3.508248 0.437283 -0.765884
3.521769 0.430831 -0.766154
3.529740 0.448327 -0.766446
3.515880 0.456513 -0.866160
3.506049 0.436476 -0.865756
3.519571 0.430025 -0.866027
3.527542 0.447520 -0.866319
3.508454 0.437370 -0.765889
3.498831 0.417181 -0.765410
3.512353 0.410729 -0.765720
3.521976 0.430918 -0.766160
3.505824 0.436351 -0.865750
3.496201 0.416162 -0.865271
3.509722 0.409710 -0.865581
3.519346 0.429899 -0.866020
3.490920 0.397619 -0.765017
3.483947 0.377149 -0.763784
3.495913 0.374134 -0.764768
3.504440 0.391167 -0.765366
3.484830 0.395268 -0.864703
3.477858 0.374798 -0.863470
3.489824 0.371782 -0.864455
3.498351 0.388816 -0.865053
3.498940 0.417105 -0.765413
3.489317 0.396916 -0.764934
3.502837 0.390464 -0.765283
3.512461 0.410653 -0.765723
3.496073 0.416198 -0.865267
3.486450 0.396010 -0.864788
3.499970 0.389557 -0.865137
3.509594 0.409746 -0.865577
3.483365 0.377756 -0.763770
3.480867 0.356188 -0.763368
3.495736 0.356196 -0.763602
3.495331 0.374740 -0.764754
3.478431 0.374152 -0.863483
3.475934 0.352584 -0.863081
3.490803 0.352592 -0.863315
3.490397 0.371137 -0.864467
3.479988 0.357133 -0.763375
3.481064 0.335347 -0.761961
3.494891 0.335275 -0.762636
3.494857 0.357140 -0.763610
3.476813 0.351598 -0.863071
3.477888 0.329811 -0.861657
3.491716 0.329740 -0.862332
3.491682 0.351605 -0.863306
3.481539 0.334515 -0.761939
3.480424 0.312578 -0.761138
3.495400 0.312578 -0.761651
3.495367 0.334443 -0.762614
3.477413 0.330599 -0.861676
3.476297 0.308663 -0.860876
3.491273 0.308662 -0.861389
3.491240 0.330528 -0.862352
3.572723 0.483533 -0.772726
3.559002 0.471910 -0.770696
3.568667 0.460461 -0.770915
3.582375 0.472076 -0.773086
3.562621 0.477523 -0.871932
3.548900 0.465900 -0.869902
3.558565 0.454451 -0.870121
3.572273 0.466066 -0.872292
3.558685 0.472266 -0.770688
3.544963 0.460645 -0.768657
3.554641 0.449204 -0.768733
3.568350 0.460817 -0.770907
3.549190 0.465521 -0.869906
3.535468 0.453899 -0.867875
3.545146 0.442459 -0.867951
3.558855 0.454072 -0.870125
3.545250 0.462162 -0.768812
3.533709 0.452827 -0.766931
3.545580 0.443683 -0.767015
3.554928 0.450721 -0.768888
3.535157 0.452363 -0.867716
3.523616 0.443029 -0.865836
3.535487 0.433884 -0.865919
3.544835 0.440922 -0.867792
3.529497 0.448155 -0.766440
3.521526 0.430659 -0.766149
3.535049 0.424207 -0.766419
3.541368 0.439010 -0.766524
3.527810 0.447677 -0.866325
3.519839 0.430181 -0.866033
3.533362 0.423730 -0.866304
3.539681 0.438532 -0.866408
3.521952 0.430832 -0.766159
3.512329 0.410643 -0.765719
3.525850 0.404191 -0.766029
3.535475 0.424380 -0.766430
3.519396 0.429972 -0.866022
3.509773 0.409783 -0.865583
3.523294 0.403331 -0.865893
3.532919 0.423521 -0.866293
3.502904 0.391337 -0.765300
3.494378 0.374304 -0.764702
3.508994 0.371007 -0.764933
3.516424 0.384885 -0.765650
3.499913 0.388635 -0.865119
3.491386 0.371602 -0.864521
3.506002 0.368305 -0.864751
3.513433 0.382183 -0.865468
3.512438 0.410568 -0.765721
3.502814 0.390379 -0.765281
3.516334 0.383926 -0.765630
3.525959 0.404115 -0.766032
3.509645 0.409818 -0.865579
3.500021 0.389629 -0.865139
3.513541 0.383177 -0.865489
3.523166 0.403366 -0.865890
3.493992 0.376414 -0.764794
3.494397 0.357869 -0.763643
3.509380 0.357884 -0.763845
3.508607 0.373116 -0.765025
3.491765 0.369460 -0.864427
3.492170 0.350915 -0.863276
3.507154 0.350931 -0.863478
3.506381 0.366163 -0.864657
3.494206 0.356424 -0.763559
3.494241 0.334559 -0.762585
3.509222 0.334566 -0.762938
3.509190 0.356439 -0.763761
3.492362 0.352322 -0.863358
3.492396 0.330456 -0.862384
3.507377 0.330464 -0.862737
3.507345 0.352337 -0.863560
3.494759 0.334503 -0.762595
3.494792 0.312637 -0.761632
3.509768 0.312636 -0.762145
3.509740 0.334510 -0.762948
3.491877 0.330469 -0.862372
3.491911 0.308603 -0.861409
3.506887 0.308602 -0.861922
3.506858 0.330476 -0.862725
3.582682 0.472317 -0.773133
3.568974 0.460702 -0.770962
3.578640 0.449252 -0.771181
3.592335 0.460860 -0.773494
3.571985 0.465802 -0.872245
3.558277 0.454187 -0.870074
3.567943 0.442738 -0.870293
3.581637 0.454346 -0.872606
3.568660 0.461060 -0.770954
3.554951 0.449447 -0.768780
3.564628 0.438007 -0.768856
3.578325 0.449611 -0.771173
3.558564 0.453805 -0.870078
3.544855 0.442193 -0.867904
3.554533 0.430752 -0.867980
3.568230 0.442356 -0.870297
3.556414 0.452258 -0.769239
3.547066 0.445220 -0.767366
3.558937 0.436075 -0.767449
3.566091 0.440817 -0.769315
3.543370 0.439365 -0.867441
3.534022 0.432326 -0.865568
3.545893 0.423181 -0.865651
3.553048 0.427924 -0.867517
3.541113 0.438567 -0.766520
3.534794 0.423764 -0.766416
3.548316 0.417313 -0.766687
3.552984 0.429422 -0.766603
3.539961 0.438960 -0.866412
3.533642 0.424157 -0.866308
3.547164 0.417706 -0.866579
3.551832 0.429815 -0.866496
3.535450 0.424295 -0.766428
3.525825 0.404105 -0.766028
3.539346 0.397653 -0.766338
3.548972 0.417843 -0.766699
3.532971 0.423593 -0.866295
3.523346 0.403404 -0.865895
3.536867 0.396951 -0.866205
3.546493 0.417141 -0.866566
3.516716 0.385684 -0.765687
3.509286 0.371806 -0.764970
3.523901 0.368509 -0.765200
3.530237 0.379232 -0.766036
3.513169 0.381374 -0.865431
3.505738 0.367496 -0.864714
3.520354 0.364198 -0.864944
3.526689 0.374921 -0.865780
3.525934 0.404031 -0.766030
3.516309 0.383841 -0.765629
3.529829 0.377389 -0.765978
3.539455 0.397578 -0.766340
3.523218 0.403438 -0.865892
3.513593 0.383249 -0.865490
3.527113 0.376796 -0.865839
3.536739 0.396986 -0.866202
3.508730 0.374096 -0.765106
3.509503 0.358864 -0.763926
3.524486 0.358880 -0.764128
3.523346 0.370799 -0.765336
3.506288 0.365180 -0.864577
3.507061 0.349948 -0.863397
3.522044 0.349963 -0.863600
3.520904 0.361883 -0.864807
3.509205 0.356096 -0.763749
3.509238 0.334223 -0.762925
3.524218 0.334230 -0.763278
3.524189 0.356111 -0.763951
3.507359 0.352680 -0.863573
3.507391 0.330807 -0.862750
3.522372 0.330815 -0.863103
3.522343 0.352696 -0.863775
3.509756 0.334144 -0.762935
3.509784 0.312270 -0.762132
3.524761 0.312269 -0.762645
3.524737 0.334152 -0.763288
3.506873 0.330843 -0.862739
3.506901 0.308969 -0.861936
3.521877 0.308968 -0.862449
3.521853 0.330850 -0.863092
3.592642 0.461101 -0.773545
3.578947 0.449493 -0.771232
3.588612 0.438044 -0.771451
3.602293 0.449644 -0.773905
3.581349 0.454082 -0.872556
3.567655 0.442475 -0.870243
3.577320 0.431026 -0.870462
3.591001 0.442626 -0.872916
3.578596 0.452027 -0.771438
3.564899 0.440423 -0.769122
3.569616 0.426536 -0.767339
3.588261 0.440578 -0.771657
3.567976 0.439915 -0.870031
3.554279 0.428311 -0.867714
3.558995 0.414424 -0.865932
3.577641 0.428466 -0.870250
3.552578 0.428733 -0.766608
3.547910 0.416624 -0.766691
3.561432 0.410172 -0.766962
3.564449 0.419588 -0.766691
3.552264 0.430488 -0.866492
3.547595 0.418379 -0.866575
3.561118 0.411927 -0.866846
3.564134 0.421343 -0.866575
3.548948 0.417758 -0.766698
3.539323 0.397568 -0.766337
3.552844 0.391116 -0.766647
3.562471 0.411306 -0.766969
3.546544 0.417214 -0.866568
3.536918 0.397024 -0.866206
3.550439 0.390572 -0.866516
3.560066 0.410762 -0.866839
3.530702 0.380537 -0.766129
3.524367 0.369814 -0.765293
3.538983 0.366517 -0.765523
3.544222 0.374084 -0.766478
3.526252 0.373606 -0.865688
3.519916 0.362884 -0.864853
3.534533 0.359586 -0.865083
3.539772 0.367154 -0.866038
3.539431 0.397493 -0.766339
3.529806 0.377304 -0.765977
3.543326 0.370851 -0.766326
3.552953 0.391041 -0.766649
3.536790 0.397058 -0.866203
3.527164 0.376869 -0.865841
3.540684 0.370416 -0.866190
3.550311 0.390606 -0.866513
3.525692 0.356790 -0.764029
3.525722 0.334909 -0.763356
3.540703 0.334917 -0.763709
3.539168 0.365412 -0.765466
3.520869 0.352021 -0.863698
3.520898 0.330141 -0.863026
3.535879 0.330148 -0.863378
3.534344 0.360644 -0.865136
3.524752 0.333785 -0.763277
3.524776 0.311903 -0.762635
3.539752 0.311903 -0.763148
3.539733 0.333793 -0.763630
3.521868 0.331216 -0.863103
3.521892 0.309334 -0.862460
3.536868 0.309334 -0.862973
3.536849 0.331224 -0.863455
3.566562 0.442984 -0.769714
3.559408 0.438241 -0.767848
3.571278 0.429096 -0.767932
3.552594 0.425739 -0.867118
3.545439 0.420996 -0.865252
3.557310 0.411852 -0.865335
3.524095 0.371556 -0.765433
3.525236 0.359637 -0.764226
3.538711 0.368259 -0.765664
3.520179 0.361126 -0.864710
3.521319 0.349206 -0.863503
3.534795 0.357828 -0.864940
3.558463 0.413951 -0.822938
3.558907 0.413612 -0.809963
3.549255 0.425069 -0.809603
3.548811 0.425408 -0.822578
3.634846 0.478330 -0.823873
3.635291 0.477991 -0.810898
3.625639 0.489448 -0.810537
3.625194 0.489787 -0.823512
3.548802 0.425418 -0.822577
3.549247 0.425079 -0.809602
3.539594 0.436536 -0.809242
3.539150 0.436875 -0.822217
3.625184 0.489800 -0.823512
3.625628 0.489461 -0.810537
3.615976 0.500917 -0.810177
3.615531 0.501256 -0.823151
3.539139 0.436887 -0.822217
3.539584 0.436548 -0.809242
3.529932 0.448005 -0.808882
3.529488 0.448344 -0.821857
3.615522 0.501267 -0.823150
3.615967 0.500928 -0.810175
3.606314 0.512385 -0.809815
3.605871 0.512724 -0.822790
3.529522 0.448304 -0.821785
3.529966 0.447965 -0.808810
3.520314 0.459421 -0.808450
3.520061 0.459476 -0.821322
3.605817 0.512786 -0.822861
3.606261 0.512447 -0.809886
3.596608 0.523904 -0.809525
3.596355 0.523958 -0.822398
3.488397 0.310612 -0.811344
3.488842 0.310273 -0.798369
3.488822 0.332164 -0.798852
3.488378 0.332503 -0.811827
3.588239 0.310624 -0.814764
3.588683 0.310285 -0.801789
3.588664 0.332175 -0.802271
3.588220 0.332514 -0.815246
3.488434 0.330120 -0.811894
3.488878 0.329781 -0.798919
3.487343 0.360276 -0.800677
3.486899 0.360615 -0.813651
3.588163 0.334950 -0.815181
3.588607 0.334611 -0.802206
3.587072 0.365106 -0.803964
3.586628 0.365445 -0.816939
3.495862 0.391638 -0.813149
3.496306 0.391299 -0.800174
3.501545 0.398866 -0.801129
3.501101 0.399205 -0.814104
3.577669 0.334460 -0.817444
3.578113 0.334121 -0.804469
3.583352 0.341688 -0.805424
3.582907 0.342028 -0.818399
3.496978 0.392137 -0.814147
3.497422 0.391798 -0.801172
3.507050 0.411988 -0.801495
3.506605 0.412327 -0.814470
3.587045 0.349123 -0.818357
3.587489 0.348784 -0.805382
3.597117 0.368974 -0.805705
3.596672 0.369313 -0.818680
3.506614 0.412347 -0.814470
3.507059 0.412008 -0.801495
3.516686 0.432198 -0.801817
3.516241 0.432537 -0.814792
3.596682 0.369334 -0.818680
3.597127 0.368995 -0.805705
3.606754 0.389185 -0.806027
3.606309 0.389524 -0.819002
3.513735 0.426220 -0.814872
3.514180 0.425880 -0.801897
3.517196 0.435296 -0.801627
3.516752 0.435635 -0.814602
3.608828 0.395872 -0.818922
3.609273 0.395532 -0.805947
3.612289 0.404948 -0.805677
3.611845 0.405287 -0.818652
3.534591 0.460568 -0.814563
3.535035 0.460229 -0.801588
3.553682 0.474272 -0.805906
3.553237 0.474611 -0.818881
3.594027 0.380379 -0.818694
3.594472 0.380040 -0.805719
3.613118 0.394082 -0.810037
3.612673 0.394421 -0.823012
3.550916 0.472779 -0.818852
3.551360 0.472440 -0.805877
3.565041 0.484040 -0.808332
3.564597 0.484379 -0.821306
3.615027 0.396279 -0.823048
3.615471 0.395940 -0.810073
3.629152 0.407540 -0.812528
3.628708 0.407879 -0.825502
3.523380 0.360541 -0.811238
3.523825 0.360201 -0.798263
3.538801 0.360201 -0.798776
3.538356 0.360540 -0.811751
3.523288 0.260675 -0.813844
3.523733 0.260336 -0.800869
3.538709 0.260335 -0.801382
3.538264 0.260674 -0.814357
3.508390 0.360541 -0.810724
3.508834 0.360202 -0.797749
3.523811 0.360201 -0.798262
3.523366 0.360541 -0.811237
3.508296 0.260675 -0.813330
3.508740 0.260336 -0.800355
3.523717 0.260336 -0.800868
3.523272 0.260675 -0.813843
3.493398 0.360542 -0.810210
3.493842 0.360203 -0.797235
3.508819 0.360202 -0.797748
3.508374 0.360541 -0.810723
3.493305 0.260676 -0.812817
3.493749 0.260337 -0.799842
3.508726 0.260336 -0.800355
3.508281 0.260675 -0.813330
3.478444 0.360543 -0.809741
3.478978 0.360226 -0.796741
3.493864 0.360204 -0.797279
3.493420 0.360543 -0.810254
3.478278 0.260675 -0.812259
3.478812 0.260358 -0.799258
3.493698 0.260336 -0.799797
3.493254 0.260675 -0.812772
3.674776 0.285880 -0.722467
3.651464 0.285761 -0.736317
3.649876 0.304957 -0.733807
3.673187 0.305076 -0.719957
3.624407 0.270612 -0.637556
3.601095 0.270493 -0.651406
3.599506 0.289689 -0.648897
3.622818 0.289808 -0.635047
3.648514 0.285523 -0.736368
3.625018 0.281875 -0.723334
3.623430 0.301071 -0.720825
3.646926 0.304719 -0.733859
3.697707 0.278269 -0.649722
3.674211 0.274621 -0.636688
3.672622 0.293817 -0.634179
3.696118 0.297465 -0.647213
3.673186 0.305094 -0.719955
3.649874 0.304976 -0.733805
3.648286 0.324172 -0.731296
3.671597 0.324291 -0.717446
3.622816 0.289828 -0.635044
3.599505 0.289709 -0.648894
3.597916 0.308906 -0.646385
3.621228 0.309024 -0.632535
3.646924 0.304739 -0.733856
3.623428 0.301091 -0.720822
3.621840 0.320287 -0.718313
3.645335 0.323935 -0.731347
3.696117 0.297484 -0.647211
3.672621 0.293836 -0.634177
3.671033 0.313032 -0.631667
3.694529 0.316680 -0.644702
3.644934 0.329666 -0.689731
3.635962 0.329811 -0.696526
3.622199 0.327481 -0.687416
3.645510 0.327600 -0.673566
3.653104 0.230940 -0.702636
3.644132 0.231086 -0.709431
3.630369 0.228756 -0.700321
3.653681 0.228875 -0.686471
3.655889 0.331118 -0.693902
3.644950 0.329667 -0.689730
3.645527 0.327602 -0.673565
3.669023 0.331250 -0.686600
3.664060 0.232392 -0.706807
3.653121 0.230941 -0.702635
3.653697 0.228876 -0.686471
3.677193 0.232524 -0.699505
3.610166 0.272850 -0.663688
3.619138 0.272705 -0.656894
3.617549 0.291901 -0.654385
3.608578 0.292046 -0.661179
3.669933 0.288068 -0.742278
3.678905 0.287922 -0.735483
3.677316 0.307119 -0.732974
3.668345 0.307264 -0.739769
3.608576 0.292065 -0.661177
3.617548 0.291919 -0.654382
3.615959 0.311115 -0.651873
3.606987 0.311261 -0.658668
3.668343 0.307284 -0.739766
3.677315 0.307138 -0.732972
3.675726 0.326334 -0.730462
3.666754 0.326480 -0.737257
3.590194 0.277553 -0.712313
3.590264 0.276360 -0.703143
3.588676 0.295556 -0.700634
3.588605 0.296749 -0.709804
3.689756 0.285752 -0.712009
3.689826 0.284559 -0.702839
3.688238 0.303755 -0.700330
3.688168 0.304948 -0.709500
3.588604 0.296767 -0.709801
3.588674 0.295575 -0.700631
3.587085 0.314770 -0.698122
3.587015 0.315963 -0.707292
3.688166 0.304968 -0.709498
3.688236 0.303776 -0.700328
3.686647 0.322972 -0.697819
3.686577 0.324165 -0.706989
3.628919 0.287250 -0.761988
3.618281 0.285715 -0.756975
3.616692 0.304911 -0.754466
3.627331 0.306447 -0.759479
3.672319 0.279129 -0.672375
3.661680 0.277593 -0.667362
3.660091 0.296789 -0.664853
3.670730 0.298325 -0.669866
3.627329 0.306466 -0.759477
3.616691 0.304930 -0.754463
3.615102 0.324126 -0.751954
3.625741 0.325662 -0.756967
3.670728 0.298344 -0.669863
3.660089 0.296808 -0.664850
3.658501 0.316004 -0.662341
3.669140 0.317540 -0.667354
3.691067 0.290653 -0.748673
3.680054 0.290806 -0.756819
3.678465 0.310003 -0.754310
3.689479 0.309849 -0.746164
3.632220 0.275421 -0.669395
3.621206 0.275574 -0.677541
3.619618 0.294770 -0.675032
3.630631 0.294617 -0.666886
3.689477 0.309869 -0.746162
3.678463 0.310022 -0.754307
3.676874 0.329218 -0.751798
3.687888 0.329065 -0.743653
3.630630 0.294636 -0.666883
3.619616 0.294790 -0.675029
3.618028 0.313986 -0.672520
3.629041 0.313832 -0.664374
3.708870 0.284526 -0.690525
3.710541 0.285796 -0.699184
3.708953 0.304992 -0.696675
3.707281 0.303722 -0.688016
3.611083 0.279007 -0.710207
3.612755 0.280277 -0.718867
3.611166 0.299473 -0.716358
3.609495 0.298203 -0.707698
3.707280 0.303742 -0.688012
3.708951 0.305012 -0.696672
3.707362 0.324208 -0.694163
3.705691 0.322938 -0.685503
3.609494 0.298221 -0.707696
3.611165 0.299492 -0.716356
3.609577 0.318688 -0.713847
3.607905 0.317417 -0.705187
3.667283 0.275776 -0.649913
3.678222 0.277227 -0.654085
3.676633 0.296423 -0.651576
3.665694 0.294972 -0.647404
3.630780 0.284852 -0.742461
3.641719 0.286303 -0.746634
3.640131 0.305499 -0.744124
3.629191 0.304048 -0.739952
3.665693 0.294992 -0.647402
3.676632 0.296442 -0.651574
3.675043 0.315639 -0.649065
3.664105 0.314188 -0.644892
3.629189 0.304067 -0.739949
3.640128 0.305518 -0.744122
3.638539 0.324714 -0.741613
3.627601 0.323263 -0.737440
3.650517 0.267307 -0.681447
3.649941 0.269372 -0.697611
3.660879 0.270823 -0.701784
3.674013 0.270955 -0.694481
3.642346 0.366032 -0.668543
3.641770 0.368097 -0.684707
3.652709 0.369548 -0.688880
3.665842 0.369680 -0.681577
3.640952 0.269516 -0.704407
3.649923 0.269370 -0.697612
3.650500 0.267305 -0.681447
3.627188 0.267187 -0.695297
3.632782 0.368242 -0.691503
3.641754 0.368096 -0.684708
3.642330 0.366031 -0.668544
3.619019 0.365912 -0.682394
3.642871 0.515962 -0.693373
3.660890 0.515615 -0.677972
3.661588 0.495227 -0.679695
3.643569 0.495574 -0.695095
3.578109 0.507359 -0.617796
3.596128 0.507012 -0.602395
3.596826 0.486624 -0.604118
3.578807 0.486971 -0.619518
3.611887 0.514714 -0.687153
3.634016 0.518601 -0.694712
3.634714 0.498213 -0.696434
3.612585 0.494326 -0.688876
3.645171 0.507917 -0.593206
3.667300 0.511804 -0.600765
3.667998 0.491416 -0.602488
3.645869 0.487529 -0.594929
3.643570 0.495553 -0.695097
3.661589 0.495206 -0.679697
3.662286 0.474818 -0.681419
3.644268 0.475164 -0.696820
3.578808 0.486951 -0.619520
3.596827 0.486604 -0.604119
3.597525 0.466216 -0.605842
3.579506 0.466563 -0.621242
3.612586 0.494306 -0.688877
3.634715 0.498193 -0.696436
3.635413 0.477805 -0.698159
3.613284 0.473917 -0.690600
3.645870 0.487508 -0.594931
3.667999 0.491395 -0.602489
3.668697 0.471007 -0.604212
3.646567 0.467120 -0.596653
3.629027 0.464666 -0.666216
3.636512 0.464530 -0.659871
3.634388 0.462367 -0.648164
3.616370 0.462714 -0.663565
3.617276 0.562580 -0.650260
3.624761 0.562445 -0.643916
3.622636 0.560282 -0.632209
3.604618 0.560629 -0.647609
3.636527 0.464531 -0.659869
3.646135 0.466559 -0.665232
3.656532 0.466256 -0.655721
3.634402 0.462369 -0.648162
3.624775 0.562446 -0.643913
3.634383 0.564473 -0.649276
3.644780 0.564171 -0.639765
3.622650 0.560284 -0.632206
3.618674 0.521763 -0.653709
3.606015 0.519812 -0.651058
3.624034 0.519465 -0.635657
3.626158 0.521628 -0.647364
3.630426 0.423848 -0.669664
3.617767 0.421897 -0.667013
3.635785 0.421550 -0.651613
3.637910 0.423713 -0.663320
3.599813 0.468374 -0.617423
3.599115 0.488762 -0.615700
3.591631 0.488897 -0.622045
3.592329 0.468509 -0.623767
3.664261 0.476989 -0.693267
3.663563 0.497377 -0.691544
3.656078 0.497513 -0.697889
3.656777 0.477125 -0.699611
3.599115 0.488783 -0.615698
3.598418 0.509171 -0.613975
3.590933 0.509307 -0.620320
3.591631 0.488918 -0.622042
3.663561 0.497397 -0.691543
3.662864 0.517785 -0.689821
3.655379 0.517921 -0.696165
3.656077 0.497533 -0.697888
3.573651 0.512476 -0.664831
3.575140 0.514539 -0.676391
3.575838 0.494151 -0.678114
3.574349 0.492088 -0.666554
3.672654 0.514753 -0.651672
3.674144 0.516816 -0.663232
3.674841 0.496428 -0.664955
3.673352 0.494365 -0.653394
3.574350 0.492066 -0.666555
3.575839 0.494129 -0.678115
3.576537 0.473740 -0.679838
3.575048 0.471678 -0.668277
3.673353 0.494346 -0.653396
3.674842 0.496409 -0.664957
3.675541 0.476021 -0.666679
3.674052 0.473958 -0.655119
3.608855 0.519132 -0.717081
3.620041 0.521061 -0.720678
3.620739 0.500672 -0.722400
3.609553 0.498744 -0.718803
3.640441 0.512227 -0.622557
3.651627 0.514155 -0.626154
3.652325 0.493767 -0.627877
3.641139 0.491839 -0.624280
3.609554 0.498723 -0.718805
3.620739 0.500652 -0.722402
3.621438 0.480263 -0.724125
3.610252 0.478335 -0.720528
3.641140 0.491819 -0.624282
3.652325 0.493747 -0.627879
3.653024 0.473359 -0.629601
3.641838 0.471431 -0.626004
3.668621 0.481149 -0.715481
3.667923 0.501537 -0.713758
3.675673 0.501443 -0.707471
3.676371 0.481055 -0.709194
3.605859 0.472475 -0.638243
3.605161 0.492863 -0.636520
3.612911 0.492769 -0.630233
3.613609 0.472381 -0.631956
3.667921 0.501558 -0.713757
3.667223 0.521946 -0.712035
3.674973 0.521852 -0.705748
3.675671 0.501464 -0.707470
3.605161 0.492883 -0.636517
3.604463 0.513271 -0.634795
3.612213 0.513177 -0.628508
3.612912 0.492789 -0.630231
3.690896 0.517777 -0.651072
3.687565 0.515772 -0.641220
3.688263 0.495384 -0.642942
3.691595 0.497389 -0.652794
3.596294 0.517250 -0.683168
3.592963 0.515245 -0.673316
3.593661 0.494856 -0.675038
3.596993 0.496862 -0.684890
3.691596 0.497368 -0.652797
3.688264 0.495363 -0.642945
3.688962 0.474975 -0.644667
3.692293 0.476980 -0.654519
3.596993 0.496842 -0.684892
3.593661 0.494836 -0.675039
3.594360 0.474448 -0.676762
3.597691 0.476453 -0.686614
3.666409 0.471899 -0.617414
3.665711 0.492287 -0.615691
3.656102 0.490260 -0.610329
3.656801 0.469872 -0.612051
3.616900 0.477519 -0.704000
3.616201 0.497907 -0.702278
3.606593 0.495881 -0.696915
3.607291 0.475492 -0.698638
3.665711 0.492307 -0.615690
3.665013 0.512696 -0.613967
3.655404 0.510669 -0.608604
3.656102 0.490280 -0.610327
3.616200 0.497928 -0.702276
3.615502 0.518317 -0.700553
3.605894 0.516290 -0.695190
3.606592 0.495901 -0.696913
3.661230 0.472748 -0.651566
3.663852 0.477940 -0.667921
3.662430 0.497070 -0.665604
3.660532 0.493137 -0.649844
3.562528 0.468984 -0.666527
3.565150 0.474175 -0.682883
3.563729 0.493306 -0.680565
3.561830 0.489372 -0.664805
3.663684 0.479680 -0.667469
3.666306 0.484871 -0.683824
3.664160 0.502744 -0.680912
3.662262 0.498810 -0.665151
3.565323 0.472445 -0.683367
3.567944 0.477637 -0.699723
3.565799 0.495509 -0.696810
