3.871274 0.340617 0.378016
3.883773 0.340705 0.378003
3.883919 0.340752 0.365505
3.871420 0.340665 0.365518
3.871186 0.353117 0.378063
3.883686 0.353204 0.378049
3.883833 0.353252 0.365550
3.871333 0.353165 0.365565
3.896273 0.340792 0.377990
3.896419 0.340839 0.365492
3.896186 0.353291 0.378036
3.896332 0.353339 0.365538
3.871100 0.365617 0.378109
3.883599 0.365704 0.378096
3.883745 0.365751 0.365598
3.871246 0.365664 0.365611
3.896099 0.365791 0.378082
3.896245 0.365838 0.365584
3.884056 0.340799 0.353006
3.871556 0.340712 0.353019
3.883969 0.353299 0.353052
3.871469 0.353212 0.353066
3.896556 0.340886 0.352993
3.896469 0.353386 0.353039
3.883882 0.365799 0.353099
3.871382 0.365711 0.353112
3.896382 0.365886 0.353085
3.870466 0.343351 -0.359519
3.882966 0.343438 -0.359532
3.883112 0.343485 -0.372032
3.870612 0.343398 -0.372018
3.870379 0.355851 -0.359473
3.882879 0.355938 -0.359486
3.883025 0.355985 -0.371985
3.870525 0.355898 -0.371972
3.895466 0.343525 -0.359546
3.895612 0.343573 -0.372045
3.895378 0.356025 -0.359499
3.895525 0.356072 -0.371998
3.870292 0.368350 -0.359426
3.882792 0.368437 -0.359440
3.882938 0.368485 -0.371939
3.870438 0.368398 -0.371925
3.895291 0.368524 -0.359453
3.895438 0.368572 -0.371952
3.883249 0.343533 -0.384530
3.870749 0.343446 -0.384516
3.883161 0.356032 -0.384483
3.870662 0.355945 -0.384470
3.895748 0.343620 -0.384543
3.895661 0.356120 -0.384497
3.883075 0.368532 -0.384437
3.870575 0.368445 -0.384423
3.895574 0.368619 -0.384450
3.870576 0.342980 -0.259520
3.883075 0.343067 -0.259533
3.883220 0.343115 -0.272025
3.870722 0.343028 -0.272019
3.870489 0.355480 -0.259473
3.882988 0.355567 -0.259487
3.883135 0.355614 -0.271986
3.870635 0.355527 -0.271973
3.895575 0.343155 -0.259547
3.895721 0.343202 -0.272046
3.895488 0.355654 -0.259500
3.895634 0.355702 -0.271999
3.870402 0.367980 -0.259427
3.882901 0.368067 -0.259440
3.883049 0.368114 -0.271945
3.870548 0.368027 -0.271926
3.895401 0.368154 -0.259454
3.895547 0.368201 -0.271953
3.883358 0.343162 -0.284530
3.870858 0.343075 -0.284517
3.883271 0.355662 -0.284484
3.870771 0.355575 -0.284471
3.895858 0.343249 -0.284544
3.895771 0.355749 -0.284497
3.883184 0.368161 -0.284438
3.870684 0.368074 -0.284424
3.895684 0.368249 -0.284451
3.871117 0.341148 0.234881
3.883617 0.341235 0.234868
3.883764 0.341283 0.222357
3.871263 0.341195 0.222383
3.871030 0.353648 0.234928
3.883530 0.353735 0.234915
3.883676 0.353782 0.222416
3.871176 0.353695 0.222430
3.896116 0.341322 0.234855
3.896262 0.341370 0.222357
3.896029 0.353822 0.234901
3.896176 0.353869 0.222403
3.870943 0.366147 0.234974
3.883443 0.366234 0.234961
3.883587 0.366282 0.222476
3.871089 0.366195 0.222476
3.895942 0.366321 0.234948
3.896088 0.366369 0.222449
3.883899 0.341330 0.209871
3.871400 0.341243 0.209884
3.883812 0.353829 0.209917
3.871313 0.353742 0.209931
3.896399 0.341417 0.209858
3.896312 0.353917 0.209904
3.883725 0.366329 0.209964
3.871226 0.366242 0.209977
3.896225 0.366416 0.209950
