0.400192 0.303937 -0.900850
0.428572 0.293808 -0.883812
0.416863 0.269472 -0.883738
0.390683 0.284378 -0.900791
0.373597 0.316950 -0.848733
0.401978 0.306821 -0.831694
0.390269 0.282485 -0.831620
0.364088 0.297391 -0.848674
0.389354 0.282148 -0.900785
0.415535 0.267243 -0.883731
0.399778 0.245311 -0.883668
0.376593 0.264537 -0.900734
0.365392 0.299578 -0.848680
0.391573 0.284673 -0.831627
0.375816 0.262741 -0.831564
0.352632 0.281967 -0.848630
0.374897 0.262572 -0.900729
0.398082 0.243346 -0.883663
0.378756 0.224483 -0.883612
0.359272 0.247444 -0.900688
0.354296 0.283895 -0.848635
0.377480 0.264668 -0.831569
0.358154 0.245805 -0.831519
0.338670 0.268766 -0.848595
0.357261 0.245804 -0.900684
0.376744 0.222843 -0.883608
0.354436 0.207622 -0.883572
0.339246 0.233619 -0.900655
0.340644 0.270376 -0.848599
0.360127 0.247415 -0.831523
0.337819 0.232195 -0.831487
0.322629 0.258191 -0.848570
0.336981 0.232353 -0.900653
0.352171 0.206356 -0.883569
0.327559 0.195240 -0.883549
0.317123 0.223481 -0.900636
0.324852 0.259434 -0.848573
0.340042 0.233437 -0.831490
0.315430 0.222322 -0.831469
0.304995 0.250562 -0.848556
0.314672 0.222627 -0.900635
0.325108 0.194387 -0.883547
0.298939 0.187714 -0.883543
0.293577 0.217339 -0.900632
0.307400 0.251400 -0.848558
0.317835 0.223159 -0.831470
0.291667 0.216486 -0.831465
0.286304 0.246111 -0.848554
0.291015 0.216924 -0.900632
0.296377 0.187299 -0.883543
0.269447 0.185271 -0.883554
0.269321 0.215379 -0.900641
0.288818 0.246518 -0.848554
0.294180 0.216894 -0.831465
0.267251 0.214866 -0.831476
0.267124 0.244973 -0.848563
0.266725 0.215415 -0.900643
0.266852 0.185308 -0.883556
0.239980 0.187987 -0.883583
0.245093 0.217660 -0.900665
0.269670 0.244938 -0.848561
0.269797 0.214831 -0.831474
0.242925 0.217510 -0.831502
0.248038 0.247183 -0.848583
0.242544 0.218146 -0.900669
0.237431 0.188474 -0.883587
0.211431 0.195779 -0.883629
0.221630 0.224114 -0.900703
0.250540 0.246706 -0.848580
0.245427 0.217033 -0.831498
0.219427 0.224339 -0.831540
0.229626 0.252674 -0.848614
0.325709 0.337014 -0.844669
0.346116 0.328537 -0.869627
0.338374 0.312390 -0.869578
0.319735 0.324281 -0.844630
0.366367 0.317825 -0.805026
0.386774 0.309348 -0.829984
0.379032 0.293202 -0.829935
0.360392 0.305092 -0.804988
0.346202 0.328661 -0.869654
0.366609 0.320184 -0.894612
0.357100 0.300625 -0.894553
0.338461 0.312515 -0.869605
0.386726 0.309203 -0.830006
0.407133 0.300726 -0.854964
0.397624 0.281167 -0.854905
0.378985 0.293057 -0.829957
0.321713 0.327652 -0.844640
0.340353 0.315762 -0.869588
0.329925 0.301205 -0.869546
0.313619 0.316150 -0.844607
0.358398 0.301692 -0.804978
0.377037 0.289802 -0.829925
0.366610 0.275245 -0.829883
0.350303 0.290190 -0.804944
0.340459 0.315870 -0.869615
0.359099 0.303979 -0.894563
0.346338 0.286368 -0.894512
0.330031 0.301312 -0.869573
0.376966 0.289668 -0.829947
0.395605 0.277778 -0.854895
0.382844 0.260166 -0.854844
0.366538 0.275111 -0.829906
0.316153 0.319127 -0.844615
0.332459 0.304182 -0.869554
0.319662 0.291657 -0.869521
0.306184 0.309205 -0.844589
0.347748 0.287188 -0.804936
0.364055 0.272243 -0.829875
0.351257 0.259718 -0.829841
0.337779 0.277266 -0.804910
0.332583 0.304269 -0.869582
0.348889 0.289325 -0.894520
0.333264 0.274197 -0.894480
0.319785 0.291744 -0.869548
0.363961 0.272124 -0.829897
0.380267 0.257179 -0.854836
0.364642 0.242051 -0.854795
0.351163 0.259599 -0.829864
0.309196 0.311696 -0.844595
0.322674 0.294149 -0.869527
0.307896 0.284036 -0.869503
0.297655 0.303656 -0.844576
0.334742 0.274754 -0.804903
0.348220 0.257206 -0.829835
0.333443 0.247094 -0.829811
0.323202 0.266713 -0.804884
0.322811 0.294213 -0.869554
0.336289 0.276666 -0.894486
0.318275 0.264481 -0.894457
0.308033 0.284101 -0.869530
0.348107 0.257105 -0.829857
0.361586 0.239557 -0.854789
0.343571 0.227372 -0.854760
0.333330 0.246992 -0.829833
0.301055 0.305587 -0.844580
0.311296 0.285967 -0.869507
0.294987 0.278574 -0.869493
0.288293 0.299672 -0.844569
0.319774 0.264767 -0.804880
0.330015 0.245147 -0.829807
0.313706 0.237754 -0.829793
0.307012 0.258853 -0.804868
0.311442 0.286007 -0.869534
0.321683 0.266387 -0.894462
0.301826 0.257515 -0.894445
0.295132 0.278614 -0.869521
0.329886 0.245067 -0.829829
0.340128 0.225447 -0.854756
0.320271 0.216575 -0.854740
0.313577 0.237674 -0.829815
0.291976 0.300984 -0.844571
0.298670 0.279885 -0.869495
0.281324 0.275437 -0.869492
0.278381 0.297375 -0.844568
0.303299 0.257531 -0.804866
0.309993 0.236432 -0.829791
0.292648 0.231984 -0.829788
0.289705 0.253922 -0.804863
0.298820 0.279899 -0.869522
0.305514 0.258801 -0.894447
0.284418 0.253512 -0.894443
0.281475 0.275450 -0.869519
0.309852 0.236375 -0.829814
0.316546 0.215277 -0.854738
0.295450 0.209988 -0.854734
0.292507 0.231927 -0.829810
0.282236 0.298027 -0.844567
0.285179 0.276088 -0.869492
0.267325 0.274719 -0.869499
0.268221 0.296834 -0.844573
0.285818 0.253265 -0.804864
0.288761 0.231327 -0.829788
0.270907 0.229958 -0.829796
0.271804 0.252072 -0.804869
0.285330 0.276076 -0.869519
0.288273 0.254137 -0.894443
0.266579 0.252592 -0.894452
0.267476 0.274707 -0.869526
0.288613 0.231295 -0.829811
0.291556 0.209357 -0.854735
0.269862 0.207812 -0.854744
0.270758 0.229926 -0.829818
0.272131 0.296806 -0.844570
0.271234 0.274692 -0.869496
0.253413 0.276444 -0.869514
0.258122 0.298065 -0.844584
0.267862 0.252100 -0.804872
0.266966 0.229985 -0.829798
0.249145 0.231738 -0.829816
0.253853 0.253359 -0.804886
0.271381 0.274653 -0.869523
0.270484 0.252539 -0.894449
0.248852 0.254784 -0.894472
0.253560 0.276405 -0.869541
0.266814 0.229980 -0.829821
0.265917 0.207866 -0.854747
0.244285 0.210111 -0.854769
0.248993 0.231732 -0.829839
0.261967 0.297359 -0.844579
0.257259 0.275738 -0.869509
0.240013 0.280558 -0.869537
0.248390 0.301032 -0.844600
0.249976 0.254071 -0.804891
0.245268 0.232449 -0.829821
0.228023 0.237270 -0.829849
0.236399 0.257743 -0.804912
0.257396 0.275675 -0.869536
0.252688 0.254053 -0.894467
0.231774 0.260021 -0.894501
0.240150 0.280495 -0.869564
0.245118 0.232471 -0.829844
0.240410 0.210849 -0.854774
0.219496 0.216817 -0.854808
0.227872 0.237291 -0.829872
0.306823 0.339982 -0.857080
0.347426 0.326603 -0.854761
0.341452 0.313869 -0.854723
0.319447 0.319225 -0.855879
0.303996 0.341635 -0.797229
0.344599 0.328256 -0.794911
0.338625 0.315523 -0.794872
0.316620 0.320879 -0.796029
0.319332 0.318997 -0.855877
0.341337 0.313641 -0.854721
0.333242 0.302139 -0.854687
0.322244 0.308027 -0.855354
0.316736 0.321078 -0.796030
0.338740 0.315723 -0.794873
0.330646 0.304220 -0.794840
0.319647 0.310108 -0.795506
0.306647 0.339777 -0.857081
0.319271 0.319020 -0.855881
0.307024 0.314652 -0.856199
0.298464 0.327419 -0.857045
0.304130 0.341841 -0.797230
0.316754 0.321084 -0.796029
0.304507 0.316716 -0.796347
0.295947 0.329483 -0.797194
0.319169 0.318859 -0.855879
0.322080 0.307889 -0.855355
0.313965 0.302867 -0.855448
0.306922 0.314491 -0.856197
0.316872 0.321217 -0.796029
0.319784 0.310247 -0.795506
0.311669 0.305225 -0.795599
0.304625 0.316849 -0.796347
0.322072 0.307821 -0.855353
0.333071 0.301932 -0.854687
0.323102 0.292010 -0.854660
0.313957 0.302799 -0.855446
0.319807 0.310296 -0.795507
0.330805 0.304407 -0.794841
0.320836 0.294485 -0.794814
0.311692 0.305274 -0.795600
0.298089 0.327083 -0.857045
0.306649 0.314316 -0.856199
0.295900 0.308831 -0.856281
0.285800 0.318797 -0.857026
0.296300 0.329804 -0.797194
0.304860 0.317037 -0.796347
0.294112 0.311552 -0.796429
0.284011 0.321519 -0.797174
0.306684 0.314285 -0.856196
0.313727 0.302661 -0.855448
0.303448 0.296881 -0.855493
0.295935 0.308800 -0.856278
0.304842 0.317045 -0.796348
0.311886 0.305421 -0.795600
0.301607 0.299641 -0.795645
0.294093 0.311560 -0.796430
0.313735 0.302632 -0.855446
0.322879 0.291844 -0.854660
0.311339 0.283803 -0.854641
0.303456 0.296852 -0.855492
0.311894 0.305426 -0.795600
0.321038 0.294637 -0.794814
0.309498 0.286597 -0.794795
0.301615 0.299646 -0.795645
0.285565 0.318591 -0.857022
0.295665 0.308624 -0.856277
0.287547 0.305028 -0.856270
0.284232 0.321713 -0.797178
0.294333 0.311746 -0.796433
0.286215 0.308150 -0.796426
0.295673 0.308632 -0.856277
0.303186 0.296713 -0.855492
0.292606 0.291962 -0.855486
0.287555 0.305036 -0.856270
0.294335 0.311718 -0.796432
0.301849 0.299799 -0.795646
0.291269 0.295048 -0.795641
0.286218 0.308121 -0.796425
0.303203 0.296708 -0.855491
0.311086 0.283659 -0.854641
0.298324 0.277745 -0.854630
0.292624 0.291957 -0.855486
0.301844 0.299778 -0.795645
0.309727 0.286728 -0.794795
0.296966 0.280814 -0.794784
0.291265 0.295027 -0.795640
0.285223 0.318550 -0.857025
0.287205 0.304988 -0.856274
0.276070 0.300830 -0.856179
0.270698 0.315598 -0.857025
0.284556 0.321752 -0.797175
0.286538 0.308189 -0.796423
0.275403 0.304031 -0.796329
0.270031 0.318799 -0.797174
0.287257 0.304951 -0.856271
0.292308 0.291877 -0.855487
0.281248 0.288025 -0.855429
0.276122 0.300793 -0.856177
0.286495 0.308199 -0.796424
0.291547 0.295125 -0.795640
0.280486 0.291273 -0.795582
0.275361 0.304041 -0.796330
0.292351 0.291860 -0.855485
0.298051 0.277647 -0.854629
0.284457 0.274039 -0.854626
0.281290 0.288008 -0.855427
0.291514 0.295115 -0.795640
0.297215 0.280903 -0.794784
0.283620 0.277294 -0.794781
0.280454 0.291263 -0.795582
0.270196 0.315549 -0.857024
0.275568 0.300781 -0.856178
0.264680 0.294631 -0.855844
0.255648 0.318379 -0.857043
0.270508 0.318843 -0.797175
0.275880 0.304075 -0.796330
0.264991 0.297926 -0.795995
0.255959 0.321674 -0.797195
0.275816 0.300750 -0.856177
0.280942 0.287981 -0.855429
0.271972 0.285155 -0.855321
0.264928 0.294600 -0.855842
0.275645 0.304076 -0.796329
0.280771 0.291308 -0.795581
0.271801 0.288482 -0.795474
0.264757 0.297927 -0.795995
0.281021 0.287947 -0.855427
0.284188 0.273978 -0.854626
0.270173 0.272785 -0.854631
0.272051 0.285121 -0.855319
0.280699 0.291318 -0.795582
0.283865 0.277349 -0.794781
0.269850 0.276156 -0.794787
0.271728 0.288492 -0.795474
0.271783 0.285125 -0.855319
0.269905 0.272789 -0.854632
0.255896 0.274048 -0.854645
0.264739 0.294569 -0.855841
0.271974 0.288492 -0.795474
0.270096 0.276156 -0.794787
0.256087 0.277415 -0.794800
0.264930 0.297936 -0.795996
0.264475 0.294642 -0.855843
0.255631 0.274121 -0.854647
0.242054 0.277793 -0.854669
0.255442 0.318390 -0.857042
0.265173 0.297883 -0.795994
0.256330 0.277361 -0.794799
0.242752 0.281034 -0.794821
0.256141 0.321631 -0.797194
0.435588 0.254179 -0.853606
0.425924 0.264504 -0.874024
0.448954 0.280353 -0.853685
0.390909 0.277095 -0.820872
0.381246 0.287420 -0.841290
0.404276 0.303268 -0.820951
0.331869 0.171835 -0.853939
0.355764 0.197065 -0.874384
0.358933 0.183293 -0.853959
0.312579 0.217457 -0.820185
0.336473 0.242686 -0.840630
0.339643 0.228915 -0.820205
0.363106 0.185310 -0.853664
0.359936 0.199081 -0.874089
0.382244 0.214302 -0.874125
0.387769 0.201293 -0.853701
0.335511 0.226926 -0.820507
0.332341 0.240698 -0.840932
0.354649 0.255918 -0.840969
0.360174 0.242910 -0.820544
0.391186 0.204020 -0.853708
0.385661 0.217029 -0.874132
0.404987 0.235891 -0.874182
0.412698 0.224043 -0.853761
0.356802 0.240218 -0.820537
0.351277 0.253226 -0.840962
0.370603 0.272089 -0.841012
0.378314 0.260241 -0.820590
0.407877 0.239170 -0.874191
0.423635 0.261102 -0.874254
0.433298 0.250777 -0.853836
0.415589 0.227322 -0.853770
0.367750 0.268853 -0.841003
0.383507 0.290785 -0.841066
0.393170 0.280460 -0.820648
0.375461 0.257005 -0.820581
0.219204 0.225035 -0.900707
0.209005 0.196700 -0.883633
0.184670 0.208409 -0.883689
0.199644 0.234544 -0.900753
0.232006 0.251770 -0.848610
0.221808 0.223435 -0.831536
0.197473 0.235143 -0.831591
0.212446 0.261278 -0.848655
0.197414 0.235873 -0.900759
0.182440 0.209738 -0.883695
0.160508 0.225495 -0.883763
0.179803 0.248634 -0.900813
0.214634 0.259974 -0.848649
0.199660 0.233839 -0.831585
0.177728 0.249596 -0.831653
0.197023 0.272735 -0.848704
0.177838 0.250330 -0.900820
0.158543 0.227191 -0.883770
0.139680 0.246517 -0.883847
0.162710 0.265955 -0.900883
0.198950 0.271071 -0.848697
0.179655 0.247932 -0.831646
0.160792 0.267258 -0.831724
0.183822 0.286696 -0.848759
0.161070 0.267966 -0.900891
0.138040 0.248528 -0.883855
0.122819 0.270836 -0.883940
0.148884 0.285980 -0.900959
0.185432 0.284723 -0.848752
0.162402 0.265285 -0.831716
0.147182 0.287593 -0.831801
0.173247 0.302737 -0.848820
0.147618 0.288246 -0.900968
0.121553 0.273101 -0.883949
0.110437 0.297713 -0.884039
0.138747 0.308103 -0.901040
0.174489 0.300514 -0.848812
0.148424 0.285370 -0.831793
0.137308 0.309982 -0.831883
0.165618 0.320371 -0.848885
0.137893 0.310554 -0.901049
0.109584 0.300164 -0.884048
0.102911 0.326332 -0.884140
0.132604 0.331650 -0.901124
0.166455 0.317966 -0.848876
0.138146 0.307577 -0.831874
0.131473 0.333745 -0.831967
0.161167 0.339062 -0.848950
0.132189 0.334212 -0.901133
0.102496 0.328895 -0.884149
0.100469 0.355824 -0.884241
0.130644 0.355905 -0.901206
0.161574 0.336548 -0.848942
0.131880 0.331231 -0.831958
0.129853 0.358161 -0.832050
0.160029 0.358242 -0.849016
0.130680 0.358500 -0.901215
0.100505 0.358419 -0.884249
0.103184 0.385291 -0.884338
0.132926 0.380133 -0.901286
0.159994 0.355696 -0.849007
0.129818 0.355614 -0.832041
0.132498 0.382487 -0.832130
0.162239 0.377328 -0.849078
0.133412 0.382682 -0.901294
0.103671 0.387841 -0.884346
0.110976 0.413840 -0.884428
0.139380 0.403596 -0.901361
0.161762 0.374826 -0.849070
0.132020 0.379985 -0.832122
0.139326 0.405984 -0.832204
0.167730 0.395740 -0.849136
0.252054 0.299669 -0.844593
0.243677 0.279195 -0.869530
0.227530 0.286937 -0.869567
0.239320 0.305643 -0.844622
0.232705 0.259117 -0.804919
0.224329 0.238644 -0.829856
0.208182 0.246385 -0.829893
0.219971 0.265092 -0.804948
0.243802 0.279109 -0.869557
0.235425 0.258635 -0.894494
0.215865 0.268144 -0.894539
0.227655 0.286850 -0.869594
0.224184 0.238691 -0.829879
0.215808 0.218217 -0.854816
0.196248 0.227726 -0.854861
0.208037 0.246432 -0.829916
0.242692 0.303665 -0.844613
0.230902 0.284958 -0.869558
0.216345 0.295386 -0.869603
0.231189 0.311759 -0.844648
0.216572 0.267086 -0.804957
0.204783 0.248380 -0.829902
0.190225 0.258807 -0.829947
0.205069 0.275181 -0.804992
0.231010 0.284851 -0.869585
0.219220 0.266145 -0.894530
0.201609 0.278906 -0.894584
0.216452 0.295279 -0.869630
0.204648 0.248451 -0.829925
0.192859 0.229745 -0.854870
0.175247 0.242505 -0.854925
0.190091 0.258879 -0.829970
0.234166 0.309225 -0.844637
0.219322 0.292852 -0.869592
0.206797 0.305649 -0.869644
0.224244 0.319194 -0.844677
0.202068 0.277736 -0.805002
0.187224 0.261362 -0.829957
0.174699 0.274159 -0.830009
0.192145 0.287705 -0.805043
0.219409 0.292728 -0.869619
0.204566 0.276355 -0.894574
0.189438 0.291980 -0.894637
0.206884 0.305525 -0.869670
0.187104 0.261456 -0.829980
0.172260 0.245082 -0.854935
0.157132 0.260708 -0.854998
0.174579 0.274253 -0.830032
0.226736 0.316182 -0.844666
0.209289 0.302636 -0.869632
0.199176 0.317414 -0.869688
0.218695 0.327722 -0.844710
0.189633 0.290742 -0.805055
0.172187 0.277196 -0.830021
0.162074 0.291974 -0.830077
0.181593 0.302283 -0.805099
0.209353 0.302500 -0.869659
0.191906 0.288954 -0.894625
0.179721 0.306969 -0.894693
0.199240 0.317277 -0.869715
0.172085 0.277309 -0.830044
0.154638 0.263764 -0.855010
0.142453 0.281779 -0.855078
0.161972 0.292087 -0.830100
0.220626 0.324323 -0.844697
0.201107 0.314015 -0.869675
0.193714 0.330324 -0.869735
0.214712 0.337085 -0.844744
0.179646 0.305710 -0.805112
0.160127 0.295401 -0.830090
0.152735 0.311710 -0.830150
0.173732 0.318471 -0.805158
0.201147 0.313868 -0.869702
0.181627 0.303560 -0.894681
0.172756 0.323417 -0.894753
0.193754 0.330178 -0.869762
0.160047 0.295530 -0.830113
0.140528 0.285222 -0.855091
0.131656 0.305079 -0.855164
0.152654 0.311840 -0.830173
0.216023 0.333401 -0.844731
0.195025 0.326641 -0.869722
0.190576 0.343986 -0.869783
0.212415 0.346996 -0.844779
0.172410 0.322184 -0.805172
0.151413 0.315424 -0.830163
0.146964 0.332769 -0.830224
0.168802 0.335779 -0.805220
0.195039 0.326490 -0.869749
0.174041 0.319730 -0.894740
0.168752 0.340825 -0.894814
0.190590 0.343836 -0.869810
0.151356 0.315564 -0.830186
0.130358 0.308803 -0.855177
0.125069 0.329899 -0.855252
0.146907 0.332909 -0.830247
0.213066 0.343142 -0.844765
0.191228 0.340131 -0.869770
0.189860 0.357986 -0.869831
0.211873 0.357156 -0.844813
0.168145 0.339665 -0.805233
0.146307 0.336655 -0.830238
0.144938 0.354509 -0.830298
0.166952 0.353680 -0.805281
0.191216 0.339980 -0.869797
0.169378 0.336970 -0.894801
0.167833 0.358664 -0.894875
0.189847 0.357834 -0.869858
0.146275 0.336804 -0.830261
0.124437 0.333794 -0.855265
0.122893 0.355488 -0.855339
0.144907 0.354658 -0.830322
0.211846 0.353246 -0.844800
0.189832 0.354076 -0.869817
0.191584 0.371897 -0.869876
0.213105 0.367255 -0.844846
0.166980 0.357621 -0.805294
0.144966 0.358451 -0.830312
0.146718 0.376271 -0.830370
0.168239 0.371630 -0.805341
0.189793 0.353930 -0.869844
0.167779 0.354759 -0.894862
0.170024 0.376392 -0.894933
0.191545 0.371751 -0.869903
0.144961 0.358602 -0.830335
0.122947 0.359431 -0.855352
0.125192 0.381064 -0.855423
0.146713 0.376423 -0.830393
0.212399 0.363411 -0.844834
0.190878 0.368052 -0.869864
0.195698 0.385298 -0.869918
0.216071 0.376988 -0.844877
0.168951 0.375506 -0.805353
0.147430 0.380147 -0.830383
0.152250 0.397393 -0.830437
0.172623 0.389084 -0.805396
0.190815 0.367914 -0.869891
0.169294 0.372555 -0.894921
0.175262 0.393469 -0.894987
0.195635 0.385160 -0.869945
0.147451 0.380298 -0.830406
0.125930 0.384939 -0.855436
0.131898 0.405853 -0.855502
0.152271 0.397544 -0.830461
0.255071 0.318522 -0.857042
0.241683 0.277925 -0.854669
0.228949 0.283899 -0.854698
0.234310 0.305900 -0.855892
0.256483 0.321510 -0.797194
0.243095 0.280912 -0.794820
0.230361 0.286887 -0.794849
0.235722 0.308888 -0.796043
0.234082 0.306015 -0.855891
0.228721 0.284014 -0.854697
0.217219 0.292108 -0.854732
0.223110 0.303105 -0.855404
0.235922 0.308772 -0.796043
0.230561 0.286771 -0.794849
0.219059 0.294866 -0.794884
0.224949 0.305862 -0.795556
0.254866 0.318698 -0.857045
0.234105 0.306076 -0.855894
0.229738 0.318322 -0.856263
0.242509 0.326880 -0.857081
0.256689 0.321375 -0.797193
0.235928 0.308754 -0.796042
0.231561 0.321000 -0.796411
0.244331 0.329558 -0.797229
0.233944 0.306179 -0.855894
0.222972 0.303269 -0.855407
0.217950 0.311384 -0.855542
0.229578 0.318425 -0.856262
0.236060 0.308636 -0.796041
0.225088 0.305725 -0.795554
0.220066 0.313840 -0.795689
0.231694 0.320882 -0.796410
0.222903 0.303276 -0.855404
0.217012 0.292280 -0.854732
0.207090 0.302249 -0.854773
0.217881 0.311391 -0.855540
0.225137 0.305703 -0.795555
0.219246 0.294706 -0.794883
0.209324 0.304675 -0.794923
0.220116 0.313817 -0.795690
0.242172 0.327255 -0.857084
0.229402 0.318697 -0.856266
0.223917 0.329446 -0.856398
0.233886 0.339544 -0.857130
0.244653 0.329205 -0.797227
0.231882 0.320647 -0.796409
0.226397 0.331395 -0.796542
0.236367 0.341494 -0.797273
0.229371 0.318663 -0.856263
0.217743 0.311621 -0.855543
0.211964 0.321901 -0.855639
0.223886 0.329412 -0.856396
0.231890 0.320664 -0.796410
0.220263 0.313623 -0.795689
0.214484 0.323902 -0.795785
0.226405 0.331413 -0.796542
0.217715 0.311614 -0.855541
0.206924 0.302471 -0.854774
0.198883 0.314012 -0.854818
0.211936 0.321893 -0.855637
0.220267 0.313615 -0.795689
0.209476 0.304473 -0.794922
0.201435 0.316013 -0.794966
0.214488 0.323894 -0.795785
0.233680 0.339779 -0.857128
0.223711 0.329681 -0.856396
0.220114 0.337798 -0.856426
0.236561 0.341273 -0.797276
0.226591 0.331175 -0.796544
0.222995 0.339292 -0.796573
0.223719 0.329673 -0.856396
0.211797 0.322162 -0.855639
0.207046 0.332742 -0.855681
0.220123 0.337791 -0.856426
0.226563 0.331172 -0.796542
0.214641 0.323660 -0.795785
0.209890 0.334240 -0.795827
0.222966 0.339290 -0.796572
0.211792 0.322145 -0.855638
0.198739 0.314264 -0.854819
0.192825 0.327026 -0.854866
0.207041 0.332724 -0.855680
0.214620 0.323665 -0.795784
0.201567 0.315784 -0.794965
0.195653 0.328545 -0.795012
0.209869 0.334244 -0.795826
0.233639 0.340121 -0.857132
0.220074 0.338141 -0.856430
0.215916 0.349276 -0.856383
0.230687 0.354646 -0.857183
0.236600 0.340949 -0.797271
0.223034 0.338969 -0.796569
0.218876 0.350103 -0.796521
0.233647 0.355473 -0.797322
0.220037 0.338090 -0.856428
0.206960 0.333040 -0.855683
0.203108 0.344100 -0.855670
0.215879 0.349224 -0.856380
0.223044 0.339012 -0.796570
0.209967 0.333962 -0.795825
0.206115 0.345022 -0.795812
0.218886 0.350146 -0.796523
0.206943 0.332997 -0.855681
0.192727 0.327299 -0.854867
0.189119 0.340893 -0.854915
0.203090 0.344058 -0.855668
0.209957 0.333995 -0.795825
0.195742 0.328296 -0.795011
0.192133 0.341891 -0.795059
0.206105 0.345055 -0.795812
0.230638 0.355148 -0.857184
0.215867 0.349778 -0.856383
0.209716 0.360667 -0.856103
0.233469 0.369696 -0.857231
0.233691 0.354997 -0.797322
0.218920 0.349627 -0.796521
0.212769 0.360517 -0.796241
0.236522 0.369546 -0.797369
0.215836 0.349530 -0.856381
0.203064 0.344406 -0.855671
0.200238 0.353377 -0.855598
0.209685 0.360420 -0.856101
0.218921 0.349861 -0.796521
0.206150 0.344737 -0.795811
0.203324 0.353708 -0.795739
0.212770 0.360751 -0.796241
0.203030 0.344327 -0.855668
0.189059 0.341163 -0.854915
0.187865 0.355177 -0.854963
0.200204 0.353298 -0.855596
0.206160 0.344810 -0.795812
0.192188 0.341646 -0.795059
0.190995 0.355660 -0.795107
0.203333 0.353781 -0.795740
0.200207 0.353565 -0.855597
0.187869 0.355445 -0.854964
0.189128 0.369454 -0.855011
0.209654 0.360608 -0.856099
0.203333 0.353535 -0.795739
0.190995 0.355415 -0.795106
0.192254 0.369424 -0.795152
0.212780 0.360578 -0.796241
0.209727 0.360873 -0.856102
0.189201 0.369718 -0.855013
0.192873 0.383296 -0.855056
0.233480 0.369902 -0.857230
0.212726 0.360335 -0.796239
0.192200 0.369181 -0.795151
0.195872 0.382758 -0.795194
0.236479 0.369364 -0.797367
0.169255 0.189766 -0.853569
0.179663 0.199374 -0.873971
0.195429 0.176399 -0.853506
0.192039 0.234532 -0.820863
0.202446 0.244141 -0.841265
0.218213 0.221166 -0.820801
0.086913 0.293482 -0.854512
0.112225 0.269533 -0.874791
0.098371 0.266418 -0.854413
0.132398 0.312863 -0.820627
0.157710 0.288914 -0.840906
0.143857 0.285799 -0.820528
0.100386 0.262246 -0.854099
0.114240 0.265361 -0.874477
0.129461 0.243053 -0.874392
0.116370 0.237583 -0.854006
0.141869 0.289930 -0.820849
0.155723 0.293046 -0.841227
0.170943 0.270738 -0.841142
0.157853 0.265268 -0.820756
0.119097 0.234167 -0.853992
0.132187 0.239637 -0.874379
0.151050 0.220311 -0.874301
0.139120 0.212654 -0.853907
0.155161 0.268640 -0.820769
0.168251 0.274110 -0.841155
0.187114 0.254784 -0.841078
0.175184 0.247127 -0.820683
0.154329 0.217420 -0.874289
0.176262 0.201663 -0.874221
0.165854 0.192055 -0.853819
0.142399 0.209763 -0.853895
0.183878 0.257638 -0.841089
0.205811 0.241881 -0.841022
0.195403 0.232272 -0.820620
0.171948 0.249981 -0.820695
0.140301 0.406022 -0.901368
0.111898 0.416266 -0.884436
0.123607 0.440601 -0.884510
0.149810 0.425582 -0.901427
0.166825 0.393359 -0.849129
0.138422 0.403603 -0.832197
0.150131 0.427939 -0.832270
0.176334 0.412919 -0.849188
0.151139 0.427811 -0.901434
0.124936 0.442831 -0.884516
0.140693 0.464763 -0.884579
0.163900 0.445423 -0.901484
0.175030 0.410732 -0.849182
0.148827 0.425751 -0.832264
0.164584 0.447683 -0.832327
0.187791 0.428343 -0.849232
0.165596 0.447387 -0.901490
0.142389 0.466728 -0.884585
0.161715 0.485591 -0.884635
0.181221 0.462516 -0.901530
0.186127 0.426415 -0.849227
0.162920 0.445756 -0.832322
0.182246 0.464619 -0.832372
0.201753 0.441544 -0.849267
0.183233 0.464156 -0.901534
0.163726 0.487231 -0.884639
0.186034 0.502452 -0.884675
0.201247 0.476341 -0.901563
0.199779 0.439934 -0.849263
0.180273 0.463009 -0.832368
0.202581 0.478229 -0.832404
0.217794 0.452119 -0.849292
0.203513 0.477607 -0.901566
0.188299 0.503718 -0.884678
0.212912 0.514834 -0.884699
0.223370 0.486479 -0.901582
0.215571 0.450876 -0.849289
0.200358 0.476987 -0.832401
0.224970 0.488102 -0.832422
0.235428 0.459748 -0.849306
0.225821 0.487333 -0.901583
0.215363 0.515687 -0.884700
0.241531 0.522360 -0.884705
0.246917 0.492621 -0.901587
0.233023 0.458910 -0.849304
0.222565 0.487265 -0.832421
0.248734 0.493938 -0.832426
0.254119 0.464199 -0.849308
0.249479 0.493036 -0.901587
0.244093 0.522775 -0.884704
0.271023 0.524803 -0.884693
0.271172 0.494582 -0.901577
0.251605 0.463792 -0.849308
0.246220 0.493530 -0.832426
0.273149 0.495558 -0.832415
0.273299 0.465337 -0.849299
0.273767 0.494545 -0.901575
0.273618 0.524766 -0.884691
0.300490 0.522087 -0.884664
0.295400 0.492300 -0.901553
0.270752 0.465372 -0.849301
0.270603 0.495593 -0.832416
0.297475 0.492914 -0.832389
0.292385 0.463127 -0.849279
0.297949 0.491813 -0.901550
0.303040 0.521600 -0.884661
0.329039 0.514295 -0.884619
0.318863 0.485846 -0.901516
0.289883 0.463604 -0.849282
0.294974 0.493391 -0.832393
0.320973 0.486086 -0.832351
0.310797 0.457636 -0.849248
0.214708 0.373323 -0.844866
0.194335 0.381633 -0.869907
0.202077 0.397780 -0.869956
0.220682 0.386057 -0.844904
0.173997 0.392778 -0.805408
0.153624 0.401088 -0.830449
0.161366 0.417234 -0.830498
0.179972 0.405512 -0.805446
0.194249 0.381509 -0.869934
0.173876 0.389818 -0.894975
0.183385 0.409378 -0.895035
0.201990 0.397655 -0.869983
0.153671 0.401232 -0.830472
0.133298 0.409541 -0.855513
0.142807 0.429101 -0.855573
0.161413 0.417379 -0.830521
0.218704 0.382685 -0.844894
0.200098 0.394408 -0.869946
0.210526 0.408965 -0.869988
0.226798 0.394188 -0.844928
0.181966 0.408911 -0.805456
0.163360 0.420634 -0.830508
0.173788 0.435191 -0.830550
0.190061 0.420414 -0.805490
0.199991 0.394300 -0.869973
0.181386 0.406023 -0.895025
0.194147 0.423634 -0.895075
0.210419 0.408857 -0.870015
0.163432 0.420768 -0.830531
0.144826 0.432490 -0.855583
0.157587 0.450102 -0.855633
0.173860 0.435325 -0.830573
0.224265 0.391211 -0.844919
0.207992 0.405988 -0.869980
0.220789 0.418513 -0.870013
0.234234 0.401133 -0.844946
0.192615 0.423415 -0.805498
0.176343 0.438192 -0.830558
0.189140 0.450717 -0.830592
0.202585 0.433337 -0.805524
0.207868 0.405900 -0.870007
0.191596 0.420677 -0.895067
0.207221 0.435805 -0.895107
0.220666 0.418426 -0.870040
0.176437 0.438312 -0.830581
0.160164 0.453088 -0.855642
0.175789 0.468217 -0.855682
0.189234 0.450837 -0.830615
0.231221 0.398641 -0.844939
0.217777 0.416021 -0.870007
0.232554 0.426134 -0.870031
0.242762 0.406682 -0.844959
0.205622 0.435850 -0.805531
0.192177 0.453229 -0.830598
0.206955 0.463342 -0.830622
0.217163 0.443890 -0.805550
0.217640 0.415957 -0.870034
0.204195 0.433336 -0.895101
0.222210 0.445521 -0.895130
0.232418 0.426069 -0.870058
0.192290 0.453331 -0.830621
0.178846 0.470711 -0.855688
0.196861 0.482895 -0.855717
0.207068 0.463444 -0.830645
0.239363 0.404751 -0.844955
0.229155 0.424203 -0.870027
0.245464 0.431596 -0.870040
0.252124 0.410666 -0.844966
0.220590 0.445837 -0.805554
0.210382 0.465289 -0.830626
0.226692 0.472681 -0.830640
0.233352 0.451751 -0.805565
0.229009 0.424163 -0.870054
0.218802 0.443615 -0.895126
0.238658 0.452487 -0.895142
0.245318 0.431556 -0.870068
0.210511 0.465369 -0.830649
0.200304 0.484821 -0.855721
0.220161 0.493693 -0.855738
0.226821 0.472762 -0.830663
0.248441 0.409354 -0.844964
0.241781 0.430285 -0.870038
0.259126 0.434733 -0.870042
0.262036 0.412963 -0.844967
0.237065 0.453073 -0.805567
0.230405 0.474003 -0.830642
0.247750 0.478452 -0.830645
0.250659 0.456681 -0.805570
0.241631 0.430271 -0.870066
0.234971 0.451202 -0.895140
0.256067 0.456490 -0.895144
0.258976 0.434719 -0.870069
0.230546 0.474060 -0.830665
0.223886 0.494991 -0.855739
0.244982 0.500279 -0.855743
0.247891 0.478509 -0.830668
0.258181 0.412311 -0.844967
0.255271 0.434082 -0.870042
0.273126 0.435451 -0.870035
0.272196 0.413504 -0.844962
0.254546 0.457338 -0.805570
0.251636 0.479109 -0.830645
0.269491 0.480478 -0.830638
0.268560 0.458531 -0.805565
0.255121 0.434094 -0.870070
0.252212 0.455865 -0.895145
0.273906 0.457410 -0.895135
0.272976 0.435463 -0.870062
0.251785 0.479140 -0.830668
0.248876 0.500911 -0.855742
0.270569 0.502456 -0.855733
0.269639 0.480509 -0.830660
0.268287 0.413531 -0.844965
0.269217 0.435478 -0.870037
0.287037 0.433726 -0.870020
0.282296 0.412273 -0.844951
0.272502 0.458503 -0.805562
0.273432 0.480450 -0.830635
0.291253 0.478698 -0.830617
0.286511 0.457244 -0.805548
0.269071 0.435517 -0.870065
0.270001 0.457464 -0.895138
0.291633 0.455218 -0.895116
0.286891 0.433765 -0.870047
0.273584 0.480455 -0.830657
0.274514 0.502402 -0.855730
0.296146 0.500157 -0.855708
0.291405 0.478703 -0.830639
0.278450 0.412979 -0.844956
0.283192 0.434432 -0.870025
0.300438 0.429612 -0.869997
0.292028 0.409306 -0.844935
0.290387 0.456533 -0.805543
0.295129 0.477986 -0.830612
0.312375 0.473166 -0.830584
0.303965 0.452860 -0.805522
0.283055 0.434495 -0.870052
0.287797 0.455949 -0.895121
0.308710 0.449981 -0.895087
0.300301 0.429675 -0.870024
0.295280 0.477965 -0.830634
0.300022 0.499418 -0.855703
0.320935 0.493451 -0.855669
0.312526 0.473145 -0.830607
0.233611 0.370273 -0.857231
0.193005 0.383667 -0.855057
0.198979 0.396401 -0.855096
0.220985 0.391037 -0.856187
0.236358 0.369021 -0.797367
0.195751 0.382415 -0.795193
0.201726 0.395149 -0.795232
0.223732 0.389786 -0.796323
0.221100 0.391265 -0.856186
0.199094 0.396628 -0.855095
0.207189 0.408131 -0.855128
0.218188 0.402238 -0.855740
0.223616 0.389586 -0.796322
0.201610 0.394949 -0.795231
0.209704 0.406452 -0.795265
0.220704 0.400559 -0.795876
0.233787 0.370477 -0.857233
0.221161 0.391242 -0.856189
0.233409 0.395608 -0.856520
0.241970 0.382835 -0.857269
0.236223 0.368815 -0.797366
0.223598 0.389580 -0.796322
0.235845 0.393946 -0.796653
0.244406 0.381173 -0.797402
0.221264 0.391403 -0.856188
0.218351 0.402376 -0.855742
0.226467 0.407398 -0.855858
0.233511 0.395769 -0.856519
0.223480 0.389447 -0.796321
0.220567 0.400420 -0.795875
0.228683 0.405442 -0.795991
0.235727 0.393813 -0.796652
0.218360 0.402445 -0.855740
0.207360 0.408338 -0.855129
0.217329 0.418260 -0.855155
0.226475 0.407466 -0.855856
0.220544 0.400372 -0.795876
0.209545 0.406264 -0.795264
0.219514 0.416186 -0.795291
0.228660 0.405393 -0.795992
0.242345 0.383172 -0.857271
0.233784 0.395944 -0.856522
0.244533 0.401429 -0.856626
0.254634 0.391457 -0.857291
0.244053 0.380852 -0.797400
0.235492 0.393625 -0.796651
0.246241 0.399109 -0.796755
0.256342 0.389138 -0.797420
0.233749 0.395975 -0.856520
0.226705 0.407604 -0.855859
0.236984 0.413384 -0.855929
0.244498 0.401460 -0.856624
0.235510 0.393616 -0.796652
0.228465 0.405245 -0.795991
0.238745 0.411025 -0.796061
0.246259 0.399101 -0.796756
0.226697 0.407633 -0.855857
0.217551 0.418426 -0.855156
0.229092 0.426467 -0.855175
0.236976 0.413412 -0.855928
0.228458 0.405241 -0.795991
0.219312 0.416035 -0.795290
0.230853 0.424075 -0.795309
0.238737 0.411021 -0.796061
0.254869 0.391664 -0.857288
0.244767 0.401635 -0.856623
0.252885 0.405232 -0.856630
0.256121 0.388944 -0.797423
0.246020 0.398915 -0.796758
0.254138 0.402511 -0.796765
0.244760 0.401627 -0.856624
0.237246 0.413551 -0.855929
0.247826 0.418302 -0.855941
0.252878 0.405223 -0.856630
0.246017 0.398944 -0.796757
0.238503 0.410868 -0.796062
0.249082 0.415619 -0.796074
0.254135 0.402540 -0.796763
0.237229 0.413556 -0.855928
0.229345 0.426611 -0.855176
0.242106 0.432525 -0.855187
0.247808 0.418307 -0.855940
0.238507 0.410889 -0.796061
0.230623 0.423943 -0.795309
0.243385 0.429858 -0.795320
0.249087 0.415640 -0.796073
0.255211 0.391705 -0.857291
0.253228 0.405272 -0.856633
0.264362 0.409430 -0.856552
0.269736 0.394657 -0.857291
0.255798 0.388905 -0.797419
0.253814 0.402472 -0.796761
0.264949 0.406630 -0.796680
0.270322 0.391857 -0.797420
0.253176 0.405309 -0.856631
0.248124 0.418387 -0.855941
0.259184 0.422240 -0.855894
0.264311 0.409467 -0.856550
0.253857 0.402463 -0.796762
0.248805 0.415541 -0.796073
0.259865 0.419394 -0.796026
0.264992 0.406621 -0.796681
0.248081 0.418405 -0.855940
0.242379 0.432623 -0.855187
0.255974 0.436231 -0.855190
0.259142 0.422257 -0.855893
0.248838 0.415551 -0.796073
0.243136 0.429769 -0.795320
0.256730 0.433377 -0.795323
0.259898 0.419403 -0.796026
0.270238 0.394706 -0.857290
0.264864 0.409479 -0.856550
0.275752 0.415631 -0.856243
0.284786 0.391875 -0.857271
0.269846 0.391813 -0.797421
0.264472 0.406587 -0.796682
0.275360 0.412738 -0.796374
0.284394 0.388983 -0.797402
0.264617 0.409511 -0.856549
0.259490 0.422283 -0.855894
0.268460 0.425110 -0.855793
0.275505 0.415662 -0.856242
0.264707 0.406586 -0.796681
0.259580 0.419359 -0.796026
0.268550 0.422185 -0.795925
0.275595 0.412738 -0.796373
0.259411 0.422318 -0.855892
0.256243 0.436292 -0.855189
0.270258 0.437484 -0.855184
0.268381 0.425144 -0.855791
0.259653 0.419349 -0.796026
0.256485 0.433323 -0.795323
0.270500 0.434515 -0.795318
0.268623 0.422175 -0.795925
0.268649 0.425141 -0.855791
0.270526 0.437481 -0.855184
0.284535 0.436222 -0.855170
0.275693 0.415693 -0.856240
0.268377 0.422175 -0.795925
0.270254 0.434516 -0.795318
0.284263 0.433257 -0.795304
0.275422 0.412728 -0.796374
0.275958 0.415620 -0.856241
0.284799 0.436149 -0.855172
0.298377 0.432477 -0.855150
0.284991 0.391865 -0.857269
0.275179 0.412781 -0.796374
0.284021 0.433310 -0.795304
0.297598 0.429638 -0.795283
0.284213 0.389026 -0.797401
0.104843 0.456097 -0.854507
0.114534 0.445635 -0.874842
0.091475 0.429923 -0.854428
0.149476 0.433401 -0.821559
0.159167 0.422939 -0.841894
0.136109 0.407227 -0.821480
0.208561 0.538437 -0.855253
0.184695 0.513071 -0.875560
0.181497 0.526979 -0.855232
0.227805 0.493043 -0.821167
0.203939 0.467676 -0.841475
0.200741 0.481585 -0.821147
0.177324 0.524964 -0.854929
0.180521 0.511056 -0.875257
0.158213 0.495836 -0.875221
0.152661 0.508981 -0.854892
0.204874 0.483572 -0.821457
0.208072 0.469663 -0.841784
0.185764 0.454443 -0.841749
0.180211 0.467588 -0.821420
0.149245 0.506254 -0.854885
0.154797 0.493109 -0.875214
0.135471 0.474246 -0.875164
0.127732 0.486230 -0.854833
0.183584 0.470280 -0.821426
0.189136 0.457134 -0.841755
0.169810 0.438272 -0.841705
0.162071 0.450256 -0.821374
0.132580 0.470967 -0.875155
0.116823 0.449035 -0.875092
0.107132 0.459497 -0.854757
0.124841 0.482952 -0.854824
0.172663 0.441508 -0.841714
0.156906 0.419575 -0.841651
0.147215 0.430038 -0.821316
0.164924 0.453493 -0.821383
0.321289 0.484924 -0.901511
0.331465 0.513373 -0.884614
0.355801 0.501664 -0.884558
0.340850 0.475415 -0.901466
0.308416 0.458541 -0.849252
0.318592 0.486990 -0.832355
0.342927 0.475281 -0.832299
0.327976 0.449032 -0.849207
0.343079 0.474087 -0.901460
0.358030 0.500336 -0.884552
0.379962 0.484579 -0.884485
0.360690 0.461326 -0.901405
0.325789 0.450336 -0.849213
0.340740 0.476585 -0.832305
0.362672 0.460828 -0.832238
0.343400 0.437575 -0.849158
0.362655 0.459630 -0.901398
0.381927 0.482883 -0.884478
0.400790 0.463557 -0.884400
0.377783 0.444005 -0.901336
0.341473 0.439239 -0.849165
0.360744 0.462492 -0.832244
0.379608 0.443166 -0.832167
0.356601 0.423614 -0.849103
0.379424 0.441994 -0.901328
0.402431 0.461546 -0.884392
0.417651 0.439238 -0.884307
0.391608 0.423979 -0.901259
0.354991 0.425587 -0.849110
0.377998 0.445139 -0.832175
0.393218 0.422832 -0.832089
0.367176 0.407573 -0.849041
0.392875 0.421714 -0.901251
0.418917 0.436972 -0.884298
0.430033 0.412360 -0.884208
0.401746 0.401857 -0.901178
0.365933 0.409795 -0.849050
0.391976 0.425054 -0.832098
0.403091 0.400442 -0.832008
0.374805 0.389938 -0.848977
0.402600 0.399406 -0.901169
0.430886 0.409909 -0.884200
0.437559 0.383741 -0.884107
0.407889 0.378310 -0.901095
0.373967 0.392343 -0.848986
0.402254 0.402847 -0.832016
0.408927 0.376679 -0.831924
0.379256 0.371248 -0.848912
0.408304 0.375748 -0.901086
0.437974 0.381179 -0.884099
0.440002 0.354250 -0.884007
0.409849 0.354054 -0.901012
0.378849 0.373762 -0.848920
0.408519 0.379193 -0.831933
0.410547 0.352263 -0.831841
0.380394 0.352068 -0.848846
0.409813 0.351459 -0.901003
0.439966 0.351655 -0.883998
0.437286 0.324782 -0.883910
0.407567 0.329827 -0.900932
0.380429 0.354614 -0.848855
0.410582 0.354810 -0.831849
0.407902 0.327937 -0.831761
0.378184 0.332982 -0.848784
0.407081 0.327277 -0.900924
0.436799 0.322233 -0.883901
0.429494 0.296234 -0.883819
0.401113 0.306364 -0.900858
0.378661 0.335484 -0.848792
0.408379 0.330439 -0.831769
0.401074 0.304440 -0.831687
0.372693 0.314570 -0.848726
0.288364 0.410669 -0.844942
0.296774 0.430975 -0.870004
0.312921 0.423234 -0.869967
0.301097 0.404695 -0.844913
0.307659 0.451486 -0.805515
0.316069 0.471792 -0.830577
0.332216 0.464051 -0.830540
0.320392 0.445512 -0.805486
0.296650 0.431061 -0.870031
0.305059 0.451367 -0.895094
0.324620 0.441858 -0.895048
0.312796 0.423320 -0.869994
0.316214 0.471745 -0.830599
0.324623 0.492051 -0.855662
0.344184 0.482542 -0.855616
0.332360 0.464003 -0.830562
0.297725 0.406673 -0.844922
0.309549 0.425212 -0.869976
0.324106 0.414784 -0.869931
0.309228 0.398579 -0.844887
0.323792 0.443517 -0.805477
0.335615 0.462056 -0.830531
0.350172 0.451628 -0.830486
0.335295 0.435422 -0.805442
0.309441 0.425319 -0.870003
0.321264 0.443857 -0.895057
0.338876 0.431096 -0.895003
0.323998 0.414891 -0.869959
0.335750 0.461984 -0.830553
0.347573 0.480523 -0.855607
0.365184 0.467762 -0.855553
0.350307 0.451556 -0.830509
0.306251 0.401113 -0.844897
0.321129 0.417318 -0.869941
0.333654 0.404521 -0.869890
0.316173 0.391144 -0.844857
0.338296 0.432868 -0.805431
0.353174 0.449073 -0.830476
0.365699 0.436276 -0.830424
0.348219 0.422899 -0.805391
0.321042 0.417442 -0.869969
0.335919 0.433647 -0.895013
0.351047 0.418022 -0.894951
0.333567 0.404645 -0.869918
0.353294 0.448980 -0.830498
0.368171 0.465185 -0.855542
0.383299 0.449560 -0.855479
0.365819 0.436182 -0.830447
0.313682 0.394156 -0.844869
0.331162 0.407534 -0.869902
0.341275 0.392756 -0.869845
0.321722 0.382616 -0.844825
0.350731 0.419862 -0.805379
0.368211 0.433239 -0.830412
0.378324 0.418461 -0.830356
0.358771 0.408321 -0.805335
0.331098 0.407670 -0.869930
0.348578 0.421048 -0.894963
0.360763 0.403033 -0.894894
0.341210 0.392893 -0.869873
0.368313 0.433126 -0.830435
0.385793 0.446504 -0.855467
0.397978 0.428489 -0.855399
0.378425 0.418348 -0.830378
0.319791 0.386015 -0.844837
0.339344 0.396155 -0.869858
0.346737 0.379846 -0.869798
0.325705 0.373253 -0.844791
0.360717 0.404894 -0.805322
0.380270 0.415034 -0.830343
0.387663 0.398725 -0.830283
0.366632 0.392132 -0.805276
0.339304 0.396301 -0.869886
0.358857 0.406442 -0.894906
0.367729 0.386585 -0.894834
0.346697 0.379992 -0.869826
0.380351 0.414905 -0.830365
0.399903 0.425046 -0.855386
0.408775 0.405189 -0.855313
0.387744 0.398596 -0.830306
0.324394 0.376936 -0.844804
0.345426 0.383529 -0.869812
0.349875 0.366184 -0.869751
0.328003 0.363342 -0.844756
0.367953 0.388419 -0.805262
0.388985 0.395012 -0.830270
0.393434 0.377667 -0.830209
0.371562 0.374824 -0.805214
0.345412 0.383680 -0.869839
0.366443 0.390273 -0.894847
0.371732 0.369177 -0.894773
0.349861 0.366334 -0.869778
0.389042 0.394871 -0.830292
0.410073 0.401464 -0.855300
0.415362 0.380368 -0.855226
0.393491 0.377526 -0.830231
0.327351 0.367196 -0.844769
0.349223 0.370039 -0.869764
0.350592 0.352185 -0.869703
0.328544 0.353182 -0.844721
0.372219 0.370938 -0.805201
0.394091 0.373780 -0.830195
0.395460 0.355926 -0.830135
0.373412 0.356923 -0.805153
0.349235 0.370190 -0.869792
0.371107 0.373032 -0.894786
0.372652 0.351338 -0.894712
0.350604 0.352335 -0.869731
0.394122 0.373631 -0.830218
0.415994 0.376474 -0.855212
0.417539 0.354780 -0.855138
0.395491 0.355777 -0.830157
0.328572 0.357091 -0.844734
0.350619 0.356094 -0.869716
0.348867 0.338273 -0.869657
0.327312 0.343082 -0.844688
0.373384 0.352982 -0.805140
0.395432 0.351985 -0.830121
0.393680 0.334164 -0.830063
0.372125 0.338973 -0.805093
0.350658 0.356240 -0.869744
0.372705 0.355243 -0.894725
0.370460 0.333610 -0.894654
0.348905 0.338419 -0.869685
0.395437 0.351833 -0.830144
0.417485 0.350836 -0.855125
0.415239 0.329204 -0.855054
0.393685 0.334012 -0.830085
0.328019 0.346927 -0.844701
0.349573 0.342119 -0.869670
0.344753 0.324873 -0.869615
0.324346 0.333350 -0.844658
0.371413 0.335097 -0.805081
0.392968 0.330288 -0.830050
0.388148 0.313042 -0.829995
0.367741 0.321519 -0.805038
0.349636 0.342256 -0.869698
0.371191 0.337447 -0.894667
0.365223 0.316533 -0.894600
0.344816 0.325010 -0.869643
0.392947 0.330137 -0.830072
0.414501 0.325328 -0.855042
0.408533 0.304414 -0.854975
0.388126 0.312891 -0.830018
0.285363 0.391733 -0.857268
0.298748 0.432345 -0.855149
0.311482 0.426371 -0.855120
0.306123 0.404362 -0.856174
0.283869 0.389147 -0.797402
0.297255 0.429760 -0.795284
0.309988 0.423785 -0.795255
0.304629 0.401776 -0.796308
0.306350 0.404247 -0.856172
0.311709 0.426256 -0.855119
0.323212 0.418161 -0.855084
0.317322 0.407160 -0.855690
0.304430 0.401892 -0.796309
0.309789 0.423901 -0.795256
0.321292 0.415806 -0.795221
0.315402 0.404805 -0.795827
0.285567 0.391557 -0.857269
0.306327 0.404186 -0.856175
0.310695 0.391938 -0.856456
0.297925 0.383374 -0.857233
0.283664 0.389281 -0.797403
0.304424 0.401910 -0.796309
0.308791 0.389662 -0.796589
0.296022 0.381099 -0.797367
0.306488 0.404084 -0.856173
0.317460 0.406997 -0.855691
0.322482 0.398882 -0.855765
0.310855 0.391835 -0.856454
0.304291 0.402028 -0.796309
0.315263 0.404941 -0.795827
0.320285 0.396826 -0.795901
0.308659 0.389780 -0.796590
0.317528 0.406989 -0.855689
0.323419 0.417990 -0.855083
0.333341 0.408021 -0.855042
0.322550 0.398873 -0.855763
0.315214 0.404965 -0.795828
0.321104 0.415966 -0.795222
0.331026 0.405997 -0.795181
0.320236 0.396849 -0.795902
0.298261 0.382999 -0.857233
0.311031 0.391562 -0.856455
0.316516 0.380813 -0.856509
0.306547 0.370710 -0.857186
0.295701 0.381452 -0.797368
0.308470 0.390015 -0.796590
0.313955 0.379266 -0.796643
0.303987 0.369163 -0.797321
0.311062 0.391597 -0.856453
0.322689 0.398643 -0.855764
0.328468 0.388364 -0.855783
0.316547 0.380848 -0.856506
0.308462 0.389997 -0.796591
0.320088 0.397044 -0.795902
0.325868 0.386764 -0.795921
0.313947 0.379248 -0.796644
0.322717 0.398651 -0.855763
0.333507 0.407799 -0.855042
0.341548 0.396258 -0.854998
0.328496 0.388372 -0.855782
0.320084 0.397051 -0.795902
0.330874 0.406199 -0.795182
0.338915 0.394658 -0.795137
0.325863 0.386772 -0.795921
0.306754 0.370476 -0.857182
0.316722 0.380579 -0.856504
0.320318 0.372461 -0.856474
0.303793 0.369384 -0.797325
0.313761 0.379487 -0.796647
0.317357 0.371369 -0.796618
0.316714 0.380586 -0.856504
0.328635 0.388102 -0.855782
0.333386 0.377523 -0.855746
0.320311 0.372468 -0.856475
0.313789 0.379490 -0.796646
0.325710 0.387006 -0.795923
0.330461 0.376426 -0.795887
0.317386 0.371372 -0.796616
0.328640 0.388119 -0.855781
0.341692 0.396006 -0.854997
0.347606 0.383244 -0.854950
0.333391 0.377540 -0.855745
0.325732 0.387002 -0.795922
0.338783 0.394888 -0.795138
0.344697 0.382126 -0.795092
0.330483 0.376422 -0.795886
0.306795 0.370133 -0.857184
0.320359 0.372118 -0.856477
0.324517 0.360984 -0.856349
0.309747 0.355609 -0.857133
0.303753 0.369707 -0.797323
0.317318 0.371693 -0.796615
0.321476 0.360558 -0.796487
0.306706 0.355183 -0.797272
0.320396 0.372170 -0.856474
0.333472 0.377224 -0.855746
0.337324 0.366164 -0.855653
0.324554 0.361036 -0.856346
0.317308 0.371650 -0.796616
0.330384 0.376704 -0.795887
0.334236 0.365644 -0.795795
0.321466 0.360515 -0.796488
0.333489 0.377267 -0.855744
0.347703 0.382971 -0.854949
0.351312 0.369376 -0.854901
0.337341 0.366207 -0.855652
0.330394 0.376671 -0.795887
0.344609 0.382375 -0.795092
0.348217 0.368781 -0.795044
0.334246 0.365611 -0.795795
0.309796 0.355107 -0.857130
0.324566 0.360482 -0.856346
0.330717 0.349595 -0.855984
0.306965 0.340558 -0.857083
0.306662 0.355660 -0.797275
0.321432 0.361035 -0.796490
0.327583 0.350147 -0.796128
0.303831 0.341111 -0.797228
0.324597 0.360730 -0.856345
0.337367 0.365858 -0.855652
0.340194 0.356888 -0.855516
0.330748 0.349842 -0.855984
0.321431 0.360800 -0.796489
0.334201 0.365929 -0.795796
0.337028 0.356959 -0.795659
0.327582 0.349913 -0.796127
0.337402 0.365938 -0.855650
0.351372 0.369107 -0.854900
0.352566 0.355092 -0.854852
0.340228 0.356968 -0.855514
0.334191 0.365856 -0.795797
0.348162 0.369026 -0.795046
0.349355 0.355011 -0.794998
0.337018 0.356886 -0.795660
0.340224 0.356700 -0.855513
0.352562 0.354825 -0.854851
0.351303 0.340816 -0.854805
0.330779 0.349654 -0.855981
0.337018 0.357132 -0.795661
0.349355 0.355257 -0.794999
0.348096 0.341248 -0.794953
0.327572 0.350086 -0.796128
0.330706 0.349390 -0.855982
0.351230 0.340551 -0.854806
0.347558 0.326974 -0.854763
0.306954 0.340353 -0.857081
0.327626 0.350329 -0.796128
0.348150 0.341491 -0.794952
0.344478 0.327913 -0.794909
0.303874 0.341292 -0.797228
0.371175 0.520510 -0.854543
0.360795 0.510764 -0.874894
0.345001 0.533876 -0.854606
0.348347 0.475964 -0.821568
0.337967 0.466218 -0.841919
0.322173 0.489331 -0.821631
0.453518 0.416790 -0.854679
0.428233 0.440602 -0.875153
0.442059 0.443854 -0.854778
0.407987 0.397637 -0.820726
0.382702 0.421449 -0.841199
0.396528 0.424701 -0.820824
0.440044 0.448028 -0.854494
0.426218 0.444776 -0.874869
0.410997 0.467084 -0.874954
0.424060 0.472691 -0.854587
0.398516 0.420567 -0.821115
0.384690 0.417315 -0.841490
0.369469 0.439623 -0.841575
0.382532 0.445230 -0.821208
0.421333 0.476107 -0.854601
0.408270 0.470500 -0.874968
0.389407 0.489826 -0.875045
0.401310 0.497620 -0.854687
0.385224 0.441858 -0.821195
0.372161 0.436251 -0.841562
0.353298 0.455577 -0.841640
0.365201 0.463370 -0.821281
0.386128 0.492717 -0.875057
0.364196 0.508474 -0.875125
0.374576 0.518219 -0.854774
0.398031 0.500510 -0.854698
0.356534 0.452723 -0.841628
0.334602 0.468480 -0.841695
0.344982 0.478226 -0.821344
0.368437 0.460517 -0.821269
