4.270222 1.026676 0.442905
4.273497 1.002635 0.420368
4.251585 1.001269 0.418758
4.246366 1.000395 0.442954
4.271701 1.001815 0.442216
4.250084 1.026131 0.419344
4.228173 1.024769 0.417728
4.219529 1.023833 0.444285
4.244865 1.025258 0.443540
4.251560 1.001265 0.418861
4.229649 0.999902 0.417244
4.221005 0.998966 0.443801
4.246341 1.000391 0.443057
4.297433 1.012817 0.422675
4.299584 1.011855 0.443936
4.311022 1.011078 0.443402
4.312858 1.012463 0.423357
4.296394 0.987964 0.421271
4.298545 0.987001 0.442532
4.309983 0.986224 0.441998
4.311819 0.987609 0.421953
4.309181 1.002235 0.420912
4.306978 1.018313 0.421271
4.308606 1.017553 0.440757
4.311332 1.001272 0.442173
4.284630 0.998563 0.423034
4.282426 1.014642 0.423392
4.284054 1.013882 0.442879
4.286780 0.997601 0.444295
4.297016 1.017282 0.031819
4.297433 1.017037 0.059220
4.311487 1.017132 0.059198
4.311885 1.017612 0.032297
4.297388 0.992371 0.031486
4.297805 0.992127 0.058888
4.311859 0.992222 0.058866
4.312257 0.992702 0.031964
4.297591 1.017039 0.059221
4.298010 1.016795 0.086622
4.311249 1.016768 0.086102
4.311645 1.017133 0.059199
4.297647 0.992125 0.058942
4.298067 0.991882 0.086343
4.311305 0.991855 0.085823
4.311701 0.992220 0.058920
4.306553 1.021811 0.031417
4.307384 1.021358 0.058619
4.309861 1.006836 0.058803
4.309444 1.007080 0.031401
4.282051 1.017317 0.031920
4.282883 1.016864 0.059122
4.285360 1.002343 0.059305
4.284942 1.002587 0.031904
4.307438 1.021045 0.058641
4.308266 1.020590 0.085843
4.310334 1.006280 0.086226
4.309915 1.006524 0.058825
4.282830 1.017176 0.059154
4.283659 1.016721 0.086356
4.285727 1.002411 0.086739
4.285307 1.002655 0.059338
4.295963 1.031917 0.031795
4.262521 1.036356 0.036110
4.263150 1.036087 0.060923
4.296794 1.031464 0.058996
4.292605 1.007231 0.031546
4.259163 1.011670 0.035861
4.259792 1.011401 0.060674
4.293436 1.006777 0.058748
4.296844 1.031456 0.059019
4.263200 1.036080 0.060946
4.263831 1.035820 0.085759
4.297673 1.031002 0.086221
4.293387 1.006784 0.058777
4.259743 1.011407 0.060703
4.260373 1.011147 0.085516
4.294216 1.006329 0.085979
4.296438 1.030393 0.090284
4.262595 1.035211 0.089822
4.261355 1.028393 0.100069
4.296897 1.030128 0.100070
4.295451 1.006933 0.081951
4.261609 1.011751 0.081489
4.260368 1.004933 0.091736
4.295911 1.006669 0.091737
4.298150 1.016785 0.087013
4.298597 1.016414 0.097637
4.312143 1.016270 0.096470
4.311389 1.016758 0.086493
4.297927 0.991892 0.085988
4.298374 0.991521 0.096612
4.311921 0.991377 0.095445
4.311166 0.991865 0.085468
4.308288 1.020397 0.085626
4.308748 1.020132 0.095411
4.310803 1.005716 0.096632
4.310356 1.006087 0.086008
4.283638 1.016914 0.086611
4.284097 1.016649 0.096396
4.286152 1.002233 0.097617
4.285706 1.002604 0.086994
4.242983 1.037692 0.075309
4.242802 1.037779 0.059578
4.236683 1.038086 0.059615
4.241734 1.012809 0.075186
4.241553 1.012895 0.059456
4.235434 1.013202 0.059492
4.242802 1.037779 0.059569
4.242622 1.037867 0.043839
4.236683 1.038086 0.059605
4.241553 1.012895 0.059444
4.241373 1.012983 0.043714
4.235434 1.013202 0.059480
4.263118 1.035900 0.085720
4.262487 1.036161 0.060907
4.243232 1.037750 0.059608
4.243412 1.037663 0.075338
4.261033 1.011073 0.085549
4.260403 1.011334 0.060736
4.241147 1.012922 0.059437
4.241328 1.012836 0.075167
4.262438 1.036165 0.060891
4.261809 1.036434 0.036078
4.243002 1.037842 0.043861
4.243182 1.037754 0.059592
4.260452 1.011330 0.060712
4.259823 1.011599 0.035899
4.241016 1.013007 0.043683
4.241196 1.012919 0.059413
4.219300 1.026136 0.054816
4.228029 1.034677 0.056516
4.233968 1.034458 0.040750
4.227943 1.027520 0.035344
4.235349 1.008063 0.060860
4.244078 1.016604 0.062560
4.250018 1.016385 0.046794
4.243992 1.009447 0.041389
4.220580 1.027050 0.027831
4.219796 1.027582 0.057811
4.223938 1.029077 0.057396
4.232581 1.030461 0.037925
4.227337 1.003085 0.028706
4.226554 1.003617 0.058686
4.230695 1.005112 0.058272
4.239339 1.006496 0.038800
4.257931 1.034002 0.029113
4.252441 1.026982 0.019035
4.233099 1.028473 0.031490
4.239124 1.035410 0.036896
4.263695 1.014023 0.042837
4.258204 1.007003 0.032759
4.238863 1.008493 0.045215
4.244888 1.015431 0.050620
4.294169 1.031208 0.027204
4.294281 1.031004 0.018524
4.255237 1.028627 0.021441
4.260728 1.035647 0.031519
4.294395 1.007937 0.036101
4.294506 1.007733 0.027422
4.255463 1.005356 0.030339
4.260953 1.012376 0.040417
4.257633 1.026494 0.102849
4.258874 1.033312 0.092602
4.239169 1.035075 0.082220
4.232737 1.026713 0.089902
4.264033 1.006835 0.088944
4.265273 1.013653 0.078697
4.245568 1.015416 0.068315
4.239137 1.007055 0.075996
4.260227 1.029028 0.097272
4.235331 1.029248 0.084324
4.243105 1.028194 0.097269
4.261432 1.004293 0.094535
4.236536 1.004513 0.081587
4.244310 1.003459 0.094532
4.243092 1.028193 0.097270
4.235318 1.029247 0.084325
4.225970 1.027356 0.097269
4.244301 1.003459 0.094531
4.236527 1.004512 0.081586
4.227179 1.002622 0.094529
4.224127 1.027190 0.096508
4.233475 1.029080 0.083565
4.224877 1.029294 0.058489
4.220735 1.027800 0.058904
4.229007 1.002789 0.095254
4.238355 1.004680 0.082311
4.229757 1.004894 0.057235
4.225616 1.003399 0.057650
4.227673 1.034286 0.062749
4.218944 1.025745 0.061049
4.227541 1.025532 0.086124
4.233972 1.033893 0.078443
4.244435 1.016993 0.056366
4.235705 1.008452 0.054666
4.244303 1.008238 0.079741
4.250734 1.016599 0.072060
4.296980 1.017059 0.023319
4.296809 1.017277 0.031511
4.311679 1.017608 0.031989
4.311245 1.017657 0.023914
4.297765 0.992157 0.023566
4.297594 0.992376 0.031758
4.312464 0.992707 0.032236
4.312029 0.992755 0.024161
4.306632 1.021784 0.023115
4.306520 1.021988 0.031795
4.309411 1.007258 0.031778
4.309583 1.007039 0.023586
4.282194 1.016936 0.022828
4.282083 1.017140 0.031507
4.284974 1.002410 0.031491
4.285146 1.002191 0.023298
4.223008 1.027136 0.025317
4.235010 1.030547 0.035411
4.254351 1.029057 0.022956
4.224930 1.002999 0.031189
4.236932 1.006410 0.041284
4.256273 1.004920 0.028828
4.226610 1.022860 0.620712
4.201678 1.020735 0.620117
4.187614 1.019158 0.634746
4.201439 1.020045 0.638474
4.228640 0.998045 0.619806
4.203709 0.995919 0.619211
4.189644 0.994342 0.633840
4.203469 0.995230 0.637568
4.201568 1.020046 0.638680
4.187742 1.019158 0.634952
4.176865 1.017939 0.646003
4.176399 1.017251 0.656449
4.203303 0.995225 0.637393
4.189478 0.994337 0.633665
4.178600 0.993118 0.644716
4.178135 0.992429 0.655162
4.201657 1.020738 0.619972
4.176726 1.018651 0.619385
4.170590 1.017825 0.634744
4.187592 1.019160 0.634602
4.203690 0.995914 0.619352
4.178759 0.993826 0.618765
4.172623 0.993001 0.634124
4.189625 0.994336 0.633982
4.187683 1.019165 0.634687
4.170681 1.017829 0.634829
4.166416 1.017232 0.646448
4.176805 1.017946 0.645739
4.189517 0.994329 0.633922
4.172514 0.992994 0.634064
4.168250 0.992397 0.645683
4.178639 0.993110 0.644974
4.177116 1.017957 0.645947
4.166726 1.017243 0.646656
4.152051 1.016141 0.658982
4.176650 1.017268 0.656392
4.178314 0.993097 0.644789
4.167924 0.992384 0.645498
4.153249 0.991282 0.657824
4.177848 0.992409 0.655234
4.176717 1.018652 0.619269
4.151782 1.016553 0.618674
4.151714 1.016328 0.638626
4.170580 1.017826 0.634628
4.178726 0.993821 0.618883
4.153792 0.991722 0.618288
4.153723 0.991497 0.638240
4.172590 0.992995 0.634241
4.170713 1.017836 0.634646
4.151847 1.016337 0.638644
4.151774 1.016137 0.658590
4.166449 1.017239 0.646264
4.172451 0.992985 0.634257
4.153585 0.991486 0.638255
4.153512 0.991286 0.658201
4.168186 0.992388 0.645875
4.176510 1.017273 0.655914
4.151911 1.016147 0.658504
4.152452 1.015693 0.679259
4.174359 1.017339 0.678335
4.177980 0.992402 0.655745
4.153381 0.991276 0.658335
4.153922 0.990822 0.679090
4.175829 0.992468 0.678166
4.173941 1.017307 0.678347
4.152034 1.015661 0.679271
4.152575 1.015191 0.700025
4.171791 1.017367 0.700769
4.176246 0.992499 0.678197
4.154339 0.990854 0.679121
4.154880 0.990383 0.699875
4.174096 0.992559 0.700619
4.171620 1.017349 0.700843
4.152404 1.015173 0.700099
4.152902 1.015137 0.721476
4.172233 1.017065 0.722093
4.174267 0.992577 0.700588
4.155051 0.990400 0.699844
4.155549 0.990364 0.721221
4.174879 0.992293 0.721839
4.172394 1.017081 0.722117
4.153064 1.015153 0.721499
4.153566 1.015100 0.742882
4.173009 1.016793 0.743362
4.174719 0.992276 0.721858
4.155388 0.990348 0.721240
4.155890 0.990295 0.742622
4.175334 0.991988 0.743103
4.173281 1.016816 0.743340
4.153837 1.015123 0.742860
4.155670 1.015356 0.773274
4.175220 1.016450 0.774330
4.175064 0.991965 0.743177
4.155620 0.990272 0.742697
4.157453 0.990505 0.773111
4.177003 0.991599 0.774167
4.289535 0.973074 0.600089
4.288349 1.013045 0.588449
4.285779 0.997331 0.619785
4.286713 0.973162 0.625105
4.264826 0.971518 0.597294
4.263640 1.011489 0.585654
4.261070 0.995775 0.616990
4.262004 0.971606 0.622310
4.286653 0.973607 0.625306
4.285719 0.997775 0.619986
4.282913 0.979554 0.649913
4.284311 0.973147 0.650295
4.262060 0.971145 0.622164
4.261125 0.995314 0.616844
4.258320 0.977092 0.646771
4.259718 0.970685 0.647153
4.284298 0.973907 0.649285
4.282900 0.980314 0.648903
4.282308 0.979904 0.672632
4.282770 0.974281 0.674407
4.259728 0.969916 0.648215
4.258330 0.976322 0.647834
4.257738 0.975913 0.671563
4.258200 0.970289 0.673338
4.282927 0.972296 0.674491
4.282465 0.977920 0.672717
4.281874 0.977503 0.696442
4.281185 0.972522 0.699592
4.258041 0.972274 0.673302
4.257578 0.977898 0.671528
4.256987 0.977481 0.695253
4.256299 0.972500 0.698402
4.281015 0.972808 0.701123
4.281703 0.977789 0.697974
4.277219 0.978793 0.722448
4.277062 0.971599 0.725953
4.256464 0.972214 0.696920
4.257152 0.977195 0.693770
4.252668 0.978199 0.718245
4.252512 0.971005 0.721750
4.277014 0.972388 0.725973
4.277171 0.979582 0.722468
4.272692 0.980588 0.746937
4.273058 0.971180 0.750810
4.252551 0.970215 0.721779
4.252708 0.977410 0.718274
4.248229 0.978415 0.742743
4.248595 0.969007 0.746616
4.273002 0.971652 0.750835
4.272637 0.981060 0.746961
4.267306 0.982255 0.776056
4.269057 0.970444 0.775664
4.248641 0.968535 0.746643
4.248275 0.977943 0.742770
4.242945 0.979138 0.771865
4.244695 0.967327 0.771472
4.277243 0.984737 0.598727
4.274422 0.984826 0.623743
4.288827 0.984591 0.645188
4.289722 0.984804 0.600876
4.277132 0.959822 0.598676
4.274310 0.959911 0.623692
4.288715 0.959676 0.645137
4.289611 0.959889 0.600825
4.265074 0.983734 0.724543
4.261118 0.982525 0.749381
4.264653 0.982209 0.753347
4.272131 0.983169 0.732492
4.264496 0.958861 0.723219
4.260540 0.957652 0.748056
4.264075 0.957336 0.752022
4.271553 0.958296 0.731167
4.288630 0.984589 0.645323
4.274225 0.984824 0.623878
4.271883 0.984365 0.648867
4.285860 0.984497 0.667250
4.288908 0.959677 0.645061
4.274503 0.959912 0.623615
4.272162 0.959452 0.648604
4.286139 0.959585 0.666987
4.286169 0.984498 0.667093
4.272192 0.984365 0.648710
4.270664 0.984738 0.673833
4.283332 0.984368 0.689093
4.285825 0.959585 0.667191
4.271848 0.959452 0.648808
4.270320 0.959826 0.673930
4.282988 0.959456 0.689190
4.283730 0.984356 0.689250
4.271062 0.984726 0.673990
4.269320 0.984952 0.699090
4.279912 0.984067 0.711006
4.282585 0.959468 0.689080
4.269917 0.959838 0.673820
4.268175 0.960064 0.698920
4.278767 0.959179 0.710837
4.279631 0.984060 0.711590
4.269039 0.984945 0.699673
4.265087 0.983736 0.724503
4.272143 0.983171 0.732452
4.279040 0.959185 0.710300
4.268448 0.960070 0.698383
4.264495 0.958861 0.723213
4.271552 0.958296 0.731162
4.234800 0.999043 0.652989
4.216255 1.005092 0.654440
4.214852 1.003323 0.660242
4.224378 1.001916 0.663464
4.228615 0.975078 0.650121
4.210070 0.981128 0.651573
4.208667 0.979359 0.657375
4.218193 0.977952 0.660596
4.216223 1.003380 0.659358
4.197675 1.009435 0.660811
4.205343 1.000855 0.668707
4.214820 1.001611 0.665160
4.210074 0.982846 0.646657
4.191526 0.988901 0.648110
4.199195 0.980321 0.656006
4.208671 0.981077 0.652458
4.216864 1.002872 0.659801
4.215915 1.010529 0.649345
4.206170 1.017381 0.644843
4.198316 1.008927 0.661254
4.209433 0.983368 0.646194
4.208484 0.991026 0.635738
4.198739 0.997877 0.631237
4.190885 0.989423 0.647647
4.198307 1.008928 0.661256
4.206161 1.017383 0.644846
4.180993 1.014587 0.662615
4.190866 0.989429 0.647649
4.198720 0.997883 0.631239
4.173551 0.995088 0.649008
4.298965 1.016837 -0.101496
4.312598 1.016723 -0.100788
4.313136 1.016609 -0.131991
4.299418 1.016701 -0.132264
4.298773 0.991923 -0.101398
4.312406 0.991809 -0.100690
4.312944 0.991694 -0.131893
4.299226 0.991787 -0.132167
4.299395 1.016702 -0.132294
4.313113 1.016609 -0.132020
4.313652 1.016502 -0.163224
4.299850 1.016569 -0.163061
4.299250 0.991787 -0.132200
4.312968 0.991694 -0.131926
4.313507 0.991587 -0.163130
4.299705 0.991654 -0.162967
4.299822 1.016569 -0.163091
4.313625 1.016502 -0.163255
4.314164 1.016401 -0.194458
4.300276 1.016435 -0.193859
4.299733 0.991654 -0.162999
4.313536 0.991587 -0.163162
4.314075 0.991486 -0.194366
4.300187 0.991520 -0.193767
4.300249 1.016435 -0.193892
4.314137 1.016400 -0.194491
4.314675 1.016292 -0.225696
4.300702 1.016302 -0.224659
4.300215 0.991520 -0.193796
4.314103 0.991486 -0.194395
4.314641 0.991377 -0.225599
4.300668 0.991387 -0.224563
4.300676 1.016302 -0.224689
4.314649 1.016292 -0.225726
4.315188 1.016190 -0.256928
4.301130 1.016168 -0.255458
4.300696 0.991387 -0.224594
4.314668 0.991377 -0.225631
4.315207 0.991275 -0.256833
4.301150 0.991253 -0.255363
4.301099 1.016168 -0.255488
4.315157 1.016190 -0.256958
4.315698 1.016095 -0.288162
4.301556 1.016036 -0.286255
4.301182 0.991253 -0.255395
4.315240 0.991275 -0.256866
4.315781 0.991180 -0.288069
4.301638 0.991122 -0.286162
4.301525 1.016036 -0.286288
4.315667 1.016095 -0.288195
4.316209 1.015993 -0.319398
4.301981 1.015902 -0.317056
4.301670 0.991122 -0.286191
4.315813 0.991180 -0.288098
4.316355 0.991078 -0.319301
4.302127 0.990988 -0.316959
4.309101 1.020590 -0.100014
4.311189 1.006168 -0.101278
4.311643 1.006032 -0.132047
4.309529 1.020471 -0.130831
4.284444 1.017029 -0.100351
4.286533 1.002606 -0.101615
4.286986 1.002471 -0.132384
4.284872 1.016909 -0.131169
4.309526 1.020491 -0.130861
4.311640 1.006053 -0.132077
4.312095 1.005920 -0.162844
4.309953 1.020373 -0.161681
4.284875 1.016888 -0.131200
4.286989 1.002450 -0.132415
4.287444 1.002317 -0.163183
4.285302 1.016770 -0.162019
4.309951 1.020394 -0.161712
4.312092 1.005941 -0.162875
4.312546 1.005808 -0.193643
4.310378 1.020277 -0.192530
4.285306 1.016749 -0.162050
4.287447 1.002296 -0.163213
4.287901 1.002162 -0.193981
4.285733 1.016632 -0.192868
4.310375 1.020298 -0.192561
4.312543 1.005829 -0.193675
4.312997 1.005695 -0.224441
4.310802 1.020180 -0.223380
4.285737 1.016611 -0.192898
4.287905 1.002141 -0.194012
4.288358 1.002008 -0.224778
4.286164 1.016492 -0.223717
4.310799 1.020201 -0.223411
4.312994 1.005717 -0.224472
4.313448 1.005583 -0.255241
4.311225 1.020083 -0.254229
4.286167 1.016471 -0.223748
4.288362 1.001987 -0.224809
4.288816 1.001853 -0.255578
4.286593 1.016353 -0.254566
4.311222 1.020106 -0.254260
4.313445 1.005606 -0.255271
4.313901 1.005474 -0.286038
4.311648 1.019988 -0.285079
4.286597 1.016330 -0.254597
4.288820 1.001830 -0.255609
4.289276 1.001698 -0.286376
4.287023 1.016213 -0.285417
4.311645 1.020012 -0.285110
4.313898 1.005498 -0.286070
4.314355 1.005364 -0.316837
4.312071 1.019895 -0.315928
4.287028 1.016189 -0.285447
4.289281 1.001674 -0.286407
4.289737 1.001541 -0.317174
4.287453 1.016071 -0.316266
4.296165 1.031259 -0.100234
4.296592 1.031140 -0.131051
4.273221 1.030035 -0.130550
4.272849 1.030134 -0.099973
4.297355 1.006373 -0.100130
4.297783 1.006253 -0.130947
4.274412 1.005149 -0.130446
4.274039 1.005247 -0.099870
4.296604 1.031140 -0.131081
4.297031 1.031022 -0.161900
4.273607 1.029937 -0.161155
4.273233 1.030036 -0.130580
4.297771 1.006253 -0.130978
4.298199 1.006135 -0.161797
4.274774 1.005050 -0.161052
4.274401 1.005148 -0.130477
4.297043 1.031023 -0.161931
4.297470 1.030905 -0.192749
4.273990 1.029838 -0.191763
4.273618 1.029938 -0.161186
4.298188 1.006134 -0.161828
4.298616 1.006017 -0.192646
4.275136 1.004950 -0.191660
4.274764 1.005049 -0.161083
4.297481 1.030906 -0.192779
4.297908 1.030787 -0.223599
4.274373 1.029742 -0.222368
4.274002 1.029839 -0.191793
4.298605 1.006016 -0.192677
4.299032 1.005898 -0.223497
4.275497 1.004852 -0.222266
4.275125 1.004949 -0.191691
4.297921 1.030788 -0.223629
4.298347 1.030670 -0.254447
4.274757 1.029647 -0.252975
4.274386 1.029742 -0.222398
4.299020 1.005897 -0.223528
4.299446 1.005780 -0.254346
4.275856 1.004756 -0.252874
4.275485 1.004852 -0.222298
4.298360 1.030671 -0.254477
4.298786 1.030553 -0.285297
4.275142 1.029552 -0.283581
4.274770 1.029647 -0.253006
4.299434 1.005779 -0.254377
4.299860 1.005661 -0.285196
4.276216 1.004660 -0.283480
4.275844 1.004756 -0.252905
4.298796 1.030554 -0.285329
4.299222 1.030436 -0.316148
4.275523 1.029447 -0.314190
4.275152 1.029552 -0.283613
4.299851 1.005661 -0.285225
4.300276 1.005543 -0.316044
4.276577 1.004555 -0.314086
4.276206 1.004660 -0.283509
4.272840 1.030133 -0.099965
4.273213 1.030035 -0.130541
4.249840 1.028954 -0.130039
4.249522 1.029038 -0.099706
4.274001 1.005245 -0.099877
4.274374 1.005147 -0.130454
4.251002 1.004066 -0.129951
4.250683 1.004150 -0.099619
4.273221 1.030035 -0.130572
4.273594 1.029937 -0.161148
4.250167 1.028867 -0.160404
4.249848 1.028954 -0.130070
4.274367 1.005146 -0.130484
4.274740 1.005048 -0.161059
4.251313 1.003978 -0.160315
4.250995 1.004065 -0.129981
4.273603 1.029937 -0.161176
4.273976 1.029838 -0.191753
4.250495 1.028788 -0.190765
4.250177 1.028867 -0.160433
4.274731 1.005048 -0.161091
4.275103 1.004948 -0.191668
4.251622 1.003899 -0.190680
4.251304 1.003978 -0.160348
4.273985 1.029838 -0.191785
4.274357 1.029741 -0.222360
4.250822 1.028703 -0.221131
4.250504 1.028789 -0.190797
4.275094 1.004948 -0.191697
4.275466 1.004851 -0.222272
4.251931 1.003813 -0.221043
4.251613 1.003899 -0.190709
4.274365 1.029741 -0.222388
4.274737 1.029646 -0.252965
4.251147 1.028625 -0.251492
4.250830 1.028703 -0.221159
4.275458 1.004850 -0.222305
4.275829 1.004755 -0.252882
4.252240 1.003734 -0.251408
4.251923 1.003812 -0.221076
4.274750 1.029646 -0.252993
4.275121 1.029551 -0.283568
4.251476 1.028557 -0.281854
4.251160 1.028625 -0.251520
4.275817 1.004754 -0.252914
4.276189 1.004659 -0.283490
4.252543 1.003665 -0.281775
4.252228 1.003733 -0.251441
4.275137 1.029552 -0.283603
4.275508 1.029447 -0.314179
4.251808 1.028481 -0.312220
4.251491 1.028558 -0.281888
4.276174 1.004658 -0.283516
4.276545 1.004553 -0.314093
4.252845 1.003587 -0.312134
4.252529 1.003664 -0.281802
4.249499 1.029037 -0.099696
4.249818 1.028953 -0.130029
4.226446 1.027880 -0.129528
4.226182 1.027936 -0.099437
4.250659 1.004149 -0.099628
4.250978 1.004065 -0.129961
4.227606 1.002992 -0.129459
4.227342 1.003048 -0.099369
4.249830 1.028953 -0.130064
4.250149 1.028866 -0.160398
4.226721 1.027807 -0.159653
4.226458 1.027881 -0.129563
4.250966 1.004064 -0.129987
4.251285 1.003977 -0.160321
4.227857 1.002918 -0.159575
4.227594 1.002991 -0.129486
4.250156 1.028866 -0.160426
4.250474 1.028788 -0.190758
4.226993 1.027736 -0.189772
4.226728 1.027807 -0.159680
4.251278 1.003977 -0.160353
4.251596 1.003898 -0.190686
4.228115 1.002847 -0.189700
4.227851 1.002917 -0.159608
4.250483 1.028788 -0.190788
4.250801 1.028702 -0.221122
4.227265 1.027674 -0.219891
4.227002 1.027737 -0.189802
4.251587 1.003897 -0.190716
4.251905 1.003812 -0.221050
4.228369 1.002784 -0.219820
4.228106 1.002846 -0.189730
4.250809 1.028702 -0.221153
4.251127 1.028624 -0.251485
4.227536 1.027601 -0.250013
4.227274 1.027675 -0.219922
4.251897 1.003811 -0.221080
4.252214 1.003733 -0.251412
4.228624 1.002710 -0.249940
4.228361 1.002783 -0.219849
4.251133 1.028624 -0.251509
4.251449 1.028556 -0.281843
4.227805 1.027547 -0.280127
4.227543 1.027601 -0.250037
4.252208 1.003732 -0.251449
4.252523 1.003664 -0.281783
4.228880 1.002655 -0.280066
4.228618 1.002709 -0.249977
4.251465 1.028557 -0.281871
4.251781 1.028480 -0.312204
4.228080 1.027513 -0.310246
4.227821 1.027548 -0.280155
4.252508 1.003664 -0.281815
4.252824 1.003586 -0.312148
4.229124 1.002620 -0.310190
4.228864 1.002655 -0.280099
4.278721 1.027134 -0.596045
4.276090 1.011655 -0.627492
4.260588 1.013246 -0.633380
4.262606 1.026624 -0.607089
4.272020 1.005889 -0.584888
4.269388 0.990410 -0.616334
4.253886 0.992001 -0.622222
4.255904 1.005379 -0.595932
4.275931 1.011134 -0.628471
4.273062 0.993140 -0.658526
4.260113 0.996071 -0.659551
4.260429 1.012725 -0.634359
4.269543 0.990900 -0.615413
4.266673 0.972906 -0.645468
4.253724 0.975837 -0.646493
4.254041 0.992490 -0.621301
4.262497 1.026505 -0.607373
4.260479 1.013127 -0.633663
4.245940 1.013900 -0.639202
4.246382 1.025996 -0.618417
4.255982 1.005499 -0.595665
4.253964 0.992121 -0.621956
4.239425 0.992894 -0.627495
4.239867 1.004990 -0.606710
4.260186 1.012648 -0.634589
4.259869 0.995994 -0.659781
4.246919 0.998923 -0.660804
4.245646 1.013421 -0.640127
4.254256 0.992572 -0.621077
4.253940 0.975918 -0.646270
4.240989 0.978847 -0.647293
4.239717 0.993345 -0.626616
4.246593 1.025593 -0.618979
4.246150 1.013497 -0.639764
4.232515 1.013264 -0.646067
4.230477 1.025082 -0.630024
4.239626 1.005393 -0.606165
4.239184 0.993297 -0.626950
4.225549 0.993065 -0.633252
4.223511 1.004882 -0.617209
4.245577 1.013356 -0.640254
4.246849 0.998858 -0.660931
4.233900 1.001790 -0.661956
4.231942 1.013123 -0.646557
4.239760 0.993414 -0.626497
4.241032 0.978916 -0.647173
4.228083 0.981849 -0.648198
4.226125 0.993181 -0.632799
4.216412 1.026793 -0.506078
4.217446 1.027206 -0.535672
4.197841 1.025357 -0.535442
4.201657 1.025515 -0.508108
4.218681 1.001983 -0.506300
4.219716 1.002396 -0.535894
4.200111 1.000547 -0.535664
4.203927 1.000705 -0.508330
4.217436 1.027206 -0.535880
4.220241 1.027263 -0.565220
4.198854 1.025331 -0.564830
4.197831 1.025357 -0.535650
4.219726 1.002397 -0.535744
4.222532 1.002454 -0.565084
4.201144 1.000522 -0.564693
4.200121 1.000548 -0.535514
4.220291 1.027268 -0.565241
4.223097 1.027330 -0.594582
4.199925 1.025329 -0.594030
4.198904 1.025336 -0.564851
4.222485 1.002450 -0.565122
4.225291 1.002512 -0.594462
4.202119 1.000510 -0.593910
4.201098 1.000518 -0.564731
4.223140 1.027334 -0.594610
4.225916 1.027399 -0.623657
4.200983 1.025314 -0.623048
4.199968 1.025332 -0.594058
4.225252 1.002509 -0.594493
4.228028 1.002574 -0.623539
4.203095 1.000489 -0.622930
4.202080 1.000507 -0.593941
4.201644 1.025514 -0.508164
4.197827 1.025356 -0.535498
4.178188 1.023501 -0.535950
4.186894 1.024248 -0.510783
4.203906 1.000703 -0.508276
4.200090 1.000545 -0.535611
4.180451 0.998690 -0.536062
4.189156 0.999436 -0.510896
4.197813 1.025355 -0.535614
4.198836 1.025330 -0.564793
4.177429 1.023403 -0.564860
4.178174 1.023500 -0.536065
4.200098 1.000545 -0.535550
4.201121 1.000520 -0.564730
4.179714 0.998593 -0.564796
4.180459 0.998690 -0.536002
4.198885 1.025334 -0.564815
4.199906 1.025327 -0.593995
4.176731 1.023324 -0.593676
4.177478 1.023408 -0.564882
4.201072 1.000515 -0.564766
4.202093 1.000508 -0.593946
4.178919 0.998506 -0.593627
4.179666 0.998589 -0.564833
4.199948 1.025331 -0.594026
4.200964 1.025313 -0.623016
4.176030 1.023243 -0.622407
4.176774 1.023328 -0.593707
4.202051 1.000504 -0.593972
4.203066 1.000487 -0.622961
4.178132 0.998417 -0.622353
4.178876 0.998502 -0.593653
4.186889 1.024247 -0.510861
4.178184 1.023501 -0.536027
4.158445 1.021642 -0.536474
4.172138 1.022991 -0.513480
4.189126 0.999433 -0.510822
4.180421 0.998687 -0.535988
4.160682 0.996828 -0.536435
4.174375 0.998177 -0.513441
4.178155 1.023498 -0.536027
4.177410 1.023402 -0.564822
4.155940 1.021470 -0.564885
4.158416 1.021640 -0.536474
4.180437 0.998688 -0.536040
4.179692 0.998591 -0.564835
4.158222 0.996659 -0.564898
4.160699 0.996830 -0.536487
4.177458 1.023406 -0.564845
4.176712 1.023323 -0.593640
4.153511 1.021327 -0.593320
4.155988 1.021474 -0.564909
4.179641 0.998587 -0.564868
4.178894 0.998503 -0.593663
4.155693 0.996508 -0.593343
4.158170 0.996655 -0.564932
4.176751 1.023326 -0.593675
4.176007 1.023241 -0.622375
4.151074 1.021164 -0.621766
4.153550 1.021330 -0.593356
4.178851 0.998500 -0.593684
4.178107 0.998415 -0.622385
4.153174 0.996338 -0.621775
4.155651 0.996504 -0.593365
4.295188 1.031271 -0.445299
4.291014 1.030942 -0.469403
4.266522 1.029580 -0.471918
4.269853 1.029845 -0.446021
4.296574 1.006394 -0.445212
4.292400 1.006065 -0.469315
4.267908 1.004704 -0.471831
4.271239 1.004968 -0.445934
4.291023 1.030942 -0.469429
4.286848 1.030613 -0.493535
4.263163 1.029314 -0.498120
4.266531 1.029580 -0.471945
4.292384 1.006064 -0.469339
4.288209 1.005736 -0.493445
4.264524 1.004436 -0.498030
4.267892 1.004703 -0.471854
4.286868 1.030614 -0.493472
4.283329 1.030445 -0.517499
4.260987 1.029342 -0.521184
4.263184 1.029315 -0.498057
4.288182 1.005734 -0.493557
4.284643 1.005565 -0.517584
4.262301 1.004462 -0.521268
4.264498 1.004434 -0.498142
4.283409 1.030448 -0.517681
4.280493 1.030052 -0.541915
4.260102 1.029084 -0.548738
4.261067 1.029345 -0.521366
4.284558 1.005561 -0.517451
4.281642 1.005164 -0.541685
4.261251 1.004197 -0.548507
4.262216 1.004458 -0.521135
4.280588 1.030055 -0.542004
4.277742 1.029511 -0.566298
4.259488 1.028767 -0.575270
4.260197 1.029087 -0.548827
4.281544 1.005161 -0.541647
4.278698 1.004617 -0.565941
4.260444 1.003873 -0.574913
4.261153 1.004193 -0.548470
4.277873 1.029515 -0.566331
4.275027 1.028970 -0.590625
4.258911 1.028460 -0.601670
4.259619 1.028771 -0.575303
4.278564 1.004612 -0.565958
4.275718 1.004068 -0.590253
4.259603 1.003557 -0.601297
4.260310 1.003869 -0.574931
4.269834 1.029843 -0.446012
4.266503 1.029579 -0.471909
4.242177 1.028240 -0.474413
4.244498 1.028429 -0.446736
4.271209 1.004966 -0.445947
4.267878 1.004702 -0.471844
4.243552 1.003363 -0.474348
4.245873 1.003552 -0.446671
4.266514 1.029580 -0.471936
4.263146 1.029313 -0.498112
4.239819 1.028053 -0.502678
4.242188 1.028241 -0.474440
4.267861 1.004701 -0.471870
4.264493 1.004434 -0.498045
4.241166 1.003174 -0.502612
4.243535 1.003362 -0.474374
4.263161 1.029313 -0.497989
4.260964 1.029340 -0.521115
4.238899 1.028280 -0.524815
4.239833 1.028053 -0.502555
4.264474 1.004434 -0.498219
4.262278 1.004461 -0.521345
4.240213 1.003401 -0.525045
4.241147 1.003174 -0.502785
4.261056 1.029345 -0.521339
4.260091 1.029084 -0.548711
4.240219 1.028166 -0.556490
4.238991 1.028285 -0.525039
4.262185 1.004456 -0.521173
4.261220 1.004195 -0.548545
4.241347 1.003277 -0.556324
4.240120 1.003396 -0.524874
4.260167 1.029087 -0.548760
4.259458 1.028767 -0.575203
4.241469 1.028056 -0.584663
4.240294 1.028169 -0.556538
4.261144 1.004192 -0.548554
4.260436 1.003872 -0.574997
4.242446 1.003161 -0.584457
4.241272 1.003274 -0.556332
4.259562 1.028771 -0.575227
4.258854 1.028459 -0.601593
4.242739 1.027951 -0.612638
4.241572 1.028059 -0.584687
4.260333 1.003868 -0.575028
4.259625 1.003557 -0.601394
4.243511 1.003048 -0.612439
4.242343 1.003157 -0.584488
4.244477 1.028428 -0.446724
4.242155 1.028239 -0.474401
4.217995 1.026926 -0.476897
4.219140 1.027014 -0.447446
4.245845 1.003550 -0.446686
4.243523 1.003362 -0.474363
4.219363 1.002049 -0.476860
4.220508 1.002137 -0.447408
4.242170 1.028240 -0.474432
4.239801 1.028052 -0.502670
4.216900 1.026829 -0.506179
4.218010 1.026927 -0.476929
4.243505 1.003361 -0.474389
4.241136 1.003172 -0.502627
4.218235 1.001950 -0.506136
4.219345 1.002048 -0.476886
4.239777 1.028049 -0.502524
4.238843 1.028277 -0.524784
4.217909 1.027240 -0.535627
4.216875 1.026827 -0.506033
4.241158 1.003175 -0.502828
4.240225 1.003402 -0.525088
4.219291 1.002365 -0.535931
4.218257 1.001952 -0.506337
4.238973 1.028284 -0.525014
4.240200 1.028166 -0.556464
4.220845 1.027305 -0.565197
4.218039 1.027247 -0.535857
4.240097 1.003395 -0.524914
4.241324 1.003276 -0.556365
4.221969 1.002415 -0.565098
4.219163 1.002358 -0.535757
4.240268 1.028168 -0.556490
4.241443 1.028055 -0.584615
4.223718 1.027370 -0.594563
4.220913 1.027308 -0.565222
4.241260 1.003273 -0.556399
4.242435 1.003160 -0.584524
4.224710 1.002475 -0.594472
4.221905 1.002412 -0.565132
4.241525 1.028058 -0.584636
4.242692 1.027949 -0.612587
4.226576 1.027438 -0.623631
4.223800 1.027373 -0.594585
4.242357 1.003157 -0.584560
4.243524 1.003048 -0.612511
4.227409 1.002537 -0.623555
4.224633 1.002472 -0.594508
4.192649 1.006465 -0.705279
4.192863 1.011170 -0.724911
4.181035 1.019286 -0.724096
4.180448 1.019406 -0.702845
4.176122 0.987975 -0.707677
4.176336 0.992680 -0.727309
4.164508 1.000797 -0.726494
4.163921 1.000916 -0.705243
4.190045 1.013049 -0.724773
4.190265 1.017764 -0.744403
4.178804 1.021047 -0.745208
4.178216 1.021166 -0.723958
4.179156 0.990805 -0.727488
4.179375 0.995519 -0.747118
4.167914 0.998802 -0.747923
4.167327 0.998922 -0.726673
4.230879 1.003242 -0.697368
4.227508 1.004550 -0.720050
4.207134 1.009346 -0.722597
4.208711 1.006344 -0.701439
4.226635 0.978767 -0.699295
4.223264 0.980075 -0.721978
4.202890 0.984871 -0.724524
4.204467 0.981868 -0.703366
4.228776 1.004275 -0.720241
4.225409 1.005586 -0.742924
4.206824 1.012078 -0.743944
4.208402 1.009071 -0.722787
4.221991 0.980355 -0.721831
4.218624 0.981665 -0.744514
4.200039 0.988157 -0.745535
4.201617 0.985151 -0.724378
4.208472 1.006218 -0.700181
4.206895 1.009221 -0.721339
4.186521 1.014026 -0.723885
4.186307 1.009321 -0.704253
4.204663 0.982002 -0.704630
4.203086 0.985004 -0.725788
4.182712 0.989809 -0.728333
4.182497 0.985104 -0.708702
4.208234 1.008954 -0.721452
4.206656 1.011960 -0.742609
4.188080 1.018473 -0.743627
4.187860 1.013759 -0.723997
4.201746 0.985279 -0.725717
4.200168 0.988286 -0.746874
4.181591 0.994799 -0.747893
4.181372 0.990084 -0.728262
4.185684 1.009410 -0.708639
4.199035 1.008942 -0.694976
4.212484 1.008166 -0.699884
4.207850 1.006308 -0.704568
4.183129 0.985012 -0.704286
4.196480 0.984544 -0.690622
4.209929 0.983768 -0.695531
4.205295 0.981909 -0.700214
4.209237 1.004289 -0.709059
4.213871 1.006148 -0.704376
4.226758 1.007196 -0.697670
4.231406 1.001188 -0.704988
4.203943 0.983924 -0.695718
4.208577 0.985783 -0.691034
4.221464 0.986831 -0.684328
4.226111 0.980823 -0.691647
4.235538 1.003406 -0.654792
4.234432 1.003003 -0.676384
4.232532 1.005190 -0.677441
4.225106 1.006372 -0.665233
4.226426 0.980225 -0.655408
4.225320 0.979822 -0.677001
4.223420 0.982009 -0.678057
4.215994 0.983191 -0.665849
4.239347 0.999479 -0.677364
4.238239 0.999070 -0.698960
4.233592 1.005078 -0.691642
4.237447 1.001666 -0.678420
4.220405 0.983347 -0.676056
4.219297 0.982938 -0.697652
4.214650 0.988946 -0.690334
4.218505 0.985534 -0.677112
4.272577 0.995171 -0.652229
4.271962 0.994966 -0.675959
4.258847 0.997824 -0.676271
4.259628 0.998103 -0.653255
4.267156 0.970857 -0.651816
4.266541 0.970652 -0.675545
4.253426 0.973509 -0.675857
4.254207 0.973788 -0.652841
4.271860 0.994988 -0.675980
4.271241 0.994774 -0.699708
4.257965 0.997574 -0.699310
4.258746 0.997845 -0.676292
4.266640 0.970630 -0.675571
4.266021 0.970416 -0.699299
4.252745 0.973215 -0.698900
4.253526 0.973487 -0.675883
4.259622 0.998103 -0.653318
4.258841 0.997824 -0.676334
4.245728 1.000692 -0.676647
4.246671 1.001032 -0.654341
4.254187 0.973794 -0.652779
4.253406 0.973515 -0.675795
4.240293 0.976383 -0.676109
4.241236 0.976723 -0.653802
4.258736 0.997846 -0.676352
4.257956 0.997575 -0.699369
4.244679 1.000372 -0.698970
4.245623 1.000715 -0.676665
4.253509 0.973491 -0.675823
4.252728 0.973220 -0.698841
4.239452 0.976018 -0.698441
4.240396 0.976360 -0.676136
4.246663 1.001032 -0.654405
4.245720 1.000692 -0.676711
4.232608 1.003561 -0.677022
4.233714 1.003965 -0.655430
4.241218 0.976728 -0.653739
4.240275 0.976389 -0.676046
4.227163 0.979258 -0.676357
4.228269 0.979661 -0.654764
4.245612 1.000715 -0.676731
4.244668 1.000373 -0.699036
4.231393 1.003176 -0.698638
4.232500 1.003584 -0.677042
4.240380 0.976365 -0.676070
4.239436 0.976023 -0.698375
4.226161 0.978825 -0.697977
4.227268 0.979234 -0.676381
4.226257 1.005339 -0.743817
4.224612 1.005491 -0.779779
4.207915 1.011770 -0.780251
4.207672 1.011831 -0.744837
4.217772 0.981914 -0.743679
4.216126 0.982065 -0.779642
4.199430 0.988344 -0.780113
4.199187 0.988406 -0.744700
4.207667 1.011833 -0.744679
4.207909 1.011772 -0.780093
4.191225 1.018083 -0.780566
4.189090 1.018346 -0.745698
4.199158 0.988417 -0.744859
4.199401 0.988355 -0.780273
4.182716 0.994667 -0.780746
4.180581 0.994929 -0.745878
4.262319 0.997208 -0.748417
4.256968 0.998667 -0.777492
4.245684 1.001094 -0.778207
4.249800 1.000068 -0.746835
4.256911 0.972888 -0.748569
4.251559 0.974346 -0.777645
4.240276 0.976774 -0.778359
4.244391 0.975748 -0.746988
4.249775 1.000074 -0.746898
4.245659 1.001100 -0.778269
4.234373 1.003516 -0.778983
4.237252 1.002925 -0.745317
4.244392 0.975747 -0.746924
4.240277 0.976773 -0.778295
4.228990 0.979189 -0.779009
4.231870 0.978598 -0.745343
4.237243 1.002927 -0.745375
4.234364 1.003518 -0.779041
4.223078 1.005936 -0.779756
4.224723 1.005785 -0.743793
4.231855 0.978602 -0.745284
4.228976 0.979193 -0.778950
4.217690 0.981611 -0.779665
4.219336 0.981460 -0.743702
4.264220 0.997117 -0.705236
4.262254 0.997279 -0.720942
4.254664 0.999734 -0.720835
4.256530 0.999626 -0.705312
4.256527 0.973431 -0.704498
4.254561 0.973593 -0.720204
4.246971 0.976048 -0.720096
4.248837 0.975940 -0.704573
4.256507 0.999632 -0.705336
4.254641 0.999741 -0.720859
4.245148 1.002797 -0.720678
4.246916 1.002755 -0.705337
4.248843 0.975938 -0.704549
4.246977 0.976047 -0.720072
4.237484 0.979103 -0.719891
4.239253 0.979061 -0.704550
4.246915 1.002755 -0.705364
4.245146 1.002796 -0.720706
4.236606 1.005557 -0.720561
4.238275 1.005568 -0.705403
4.239236 0.979068 -0.704522
4.237467 0.979109 -0.719864
4.228927 0.981870 -0.719720
4.230595 0.981881 -0.704561
4.262205 0.997295 -0.720948
4.259994 0.997489 -0.738637
4.252501 0.999878 -0.738347
4.254615 0.999750 -0.720841
4.254606 0.973577 -0.720231
4.252396 0.973771 -0.737920
4.244902 0.976160 -0.737630
4.247016 0.976033 -0.720124
4.254600 0.999754 -0.720863
4.252486 0.999882 -0.738369
4.243093 1.002884 -0.738006
4.245107 1.002810 -0.720682
4.247014 0.976034 -0.720101
4.244900 0.976162 -0.737607
4.235507 0.979164 -0.737244
4.237521 0.979090 -0.719920
4.245099 1.002812 -0.720707
4.243085 1.002885 -0.738031
4.234640 1.005575 -0.737704
4.236559 1.005572 -0.720563
4.237511 0.979094 -0.719894
4.235497 0.979168 -0.737218
4.227052 0.981858 -0.736891
4.228970 0.981854 -0.719750
4.262765 0.997100 -0.748611
4.250246 0.999960 -0.747030
4.251849 1.000071 -0.738140
4.259343 0.997682 -0.738430
4.256469 0.972995 -0.748335
4.243949 0.975855 -0.746754
4.245553 0.975967 -0.737864
4.253046 0.973578 -0.738154
4.250160 0.999896 -0.748337
4.237637 1.002747 -0.746756
4.242370 1.003009 -0.739084
4.251763 1.000007 -0.739447
4.244014 0.975925 -0.745445
4.231492 0.978776 -0.743864
4.236224 0.979038 -0.736192
4.245618 0.976036 -0.736555
4.237388 1.002513 -0.748330
4.224868 1.005371 -0.746748
4.233676 1.005465 -0.740331
4.242120 1.002775 -0.740658
4.231720 0.979016 -0.742288
4.219200 0.981873 -0.740706
4.228008 0.981968 -0.734289
4.236452 0.979278 -0.734616
4.272313 0.994495 -0.699710
4.267811 0.995719 -0.724167
4.262096 0.997333 -0.720755
4.264062 0.997171 -0.705049
4.264951 0.970695 -0.699346
4.260448 0.971919 -0.723803
4.254733 0.973534 -0.720390
4.256700 0.973372 -0.704684
4.266975 0.995947 -0.724051
4.262472 0.997173 -0.748508
4.259050 0.997756 -0.738327
4.261260 0.997562 -0.720638
4.261278 0.971692 -0.723961
4.256775 0.972919 -0.748418
4.253353 0.973501 -0.738237
4.255563 0.973307 -0.720548
4.225368 1.002956 -0.697468
4.231024 1.005677 -0.704117
4.229355 1.005666 -0.719276
4.221996 1.004264 -0.720151
4.232175 0.979051 -0.699194
4.237831 0.981772 -0.705843
4.236162 0.981761 -0.721002
4.228803 0.980359 -0.721877
4.223985 1.004675 -0.720438
4.231343 1.006077 -0.719563
4.229425 1.006080 -0.736704
4.220617 1.005986 -0.743121
4.226810 0.979950 -0.721629
4.234169 0.981351 -0.720754
4.232250 0.981355 -0.737895
4.223443 0.981260 -0.744312
4.188289 1.018607 -0.745649
4.190424 1.018344 -0.780517
4.178726 1.021748 -0.777445
4.176828 1.021890 -0.746454
4.181353 0.994678 -0.745926
4.183488 0.994416 -0.780794
4.171790 0.997819 -0.777723
4.169892 0.997961 -0.746731
4.271663 0.994437 -0.697114
4.263412 0.997113 -0.702452
4.255722 0.999622 -0.702527
4.258387 0.997236 -0.696715
4.265593 0.970755 -0.701922
4.257342 0.973432 -0.707261
4.249652 0.975941 -0.707336
4.252317 0.973555 -0.701524
4.258336 0.996674 -0.694750
4.255671 0.999059 -0.700562
4.246081 1.002182 -0.700564
4.245059 0.999471 -0.694351
4.252346 0.974123 -0.703488
4.249681 0.976509 -0.709300
4.240091 0.979632 -0.709302
4.239069 0.976921 -0.703089
4.244864 0.998787 -0.692789
4.245885 1.001498 -0.699001
4.237245 1.004311 -0.699040
4.231589 1.001590 -0.692391
4.239242 0.977611 -0.704651
4.240264 0.980321 -0.710864
4.231623 0.983135 -0.710902
4.225967 0.980414 -0.704253
4.199128 1.015191 -0.659408
4.194392 1.011795 -0.683689
4.179638 1.021114 -0.683119
4.181818 1.020879 -0.660702
4.188589 0.992824 -0.656333
4.183854 0.989428 -0.680614
4.169100 0.998748 -0.680045
4.171279 0.998513 -0.657627
4.196850 1.010213 -0.683969
4.192117 1.006822 -0.708250
4.179916 1.019763 -0.705816
4.182096 1.019532 -0.683399
4.181389 0.991007 -0.680381
4.176656 0.987617 -0.704663
4.164456 1.000558 -0.702229
4.166635 1.000326 -0.679812
4.201539 1.013391 -0.660735
4.209184 1.004858 -0.668703
4.202770 1.006076 -0.681425
4.196803 1.009995 -0.685016
4.186201 0.994610 -0.655008
4.193846 0.986077 -0.662977
4.187432 0.987296 -0.675698
4.181465 0.991214 -0.679289
4.192907 1.012411 -0.683397
4.198874 1.008493 -0.679806
4.201525 1.008553 -0.694015
4.188174 1.009021 -0.707679
4.185355 0.988795 -0.680946
4.191321 0.984877 -0.677355
4.193973 0.984937 -0.691564
4.180622 0.985405 -0.705227
4.230698 1.024775 -0.630367
4.232736 1.012957 -0.646410
4.215231 1.015296 -0.652682
4.205501 1.022132 -0.648119
4.223254 1.005188 -0.616887
4.225291 0.993371 -0.632930
4.207787 0.995709 -0.639202
4.198057 1.002545 -0.634639
4.232738 1.012950 -0.646419
4.234696 1.001618 -0.661818
4.216157 1.007706 -0.663202
4.215234 1.015289 -0.652691
4.225296 0.993359 -0.632944
4.227254 0.982027 -0.648343
4.208715 0.988115 -0.649727
4.207792 0.995697 -0.639216
4.299168 1.014317 -0.450794
4.310604 1.013498 -0.450277
4.308433 1.005923 -0.474146
4.295451 1.006235 -0.473858
4.298003 0.990753 -0.442786
4.309439 0.989934 -0.442270
4.307268 0.982359 -0.466139
4.294285 0.982671 -0.465851
4.294729 1.006265 -0.473811
4.307712 1.005953 -0.474099
4.305541 0.998354 -0.497963
4.291015 0.998184 -0.496873
4.295001 0.982625 -0.465946
4.307983 0.982314 -0.466234
4.305813 0.974714 -0.490098
4.291286 0.974545 -0.489008
4.290435 0.998320 -0.496366
4.304962 0.998490 -0.497455
4.302985 0.991905 -0.521557
4.287920 0.991109 -0.519843
4.291860 0.974394 -0.489563
4.306387 0.974564 -0.490653
4.304410 0.967979 -0.514754
4.289345 0.967183 -0.513041
4.287887 0.991549 -0.517309
4.302952 0.992345 -0.519023
4.299242 0.990432 -0.543729
4.284960 0.989733 -0.541620
4.289372 0.966735 -0.515623
4.304437 0.967531 -0.517336
4.300726 0.965619 -0.542042
4.286444 0.964919 -0.539933
4.285269 0.989772 -0.541058
4.299551 0.990472 -0.543167
4.295366 0.989566 -0.567937
4.281993 0.989404 -0.565556
4.286129 0.964877 -0.540545
4.300411 0.965577 -0.542653
4.296226 0.964672 -0.567423
4.282853 0.964509 -0.565043
4.282452 0.989409 -0.565648
4.295825 0.989572 -0.568028
4.291638 0.988679 -0.592798
4.279176 0.989041 -0.590146
4.282386 0.964502 -0.565001
4.295759 0.964665 -0.567381
4.291573 0.963772 -0.592151
4.279110 0.964134 -0.589499
4.310668 1.004410 -0.449145
4.306950 0.996328 -0.472210
4.303811 1.020359 -0.471714
4.307985 1.020688 -0.447611
4.286488 1.000681 -0.444434
4.282770 0.992599 -0.467499
4.279631 1.016629 -0.467004
4.283805 1.016958 -0.442900
4.307013 0.995924 -0.472173
4.303298 0.987844 -0.495235
4.299699 1.019627 -0.495783
4.303874 1.019955 -0.471677
4.282700 0.992993 -0.467583
4.278985 0.984913 -0.490646
4.275386 1.016696 -0.491194
4.279561 1.017024 -0.467088
4.303390 0.987760 -0.494741
4.300875 0.980549 -0.518219
4.296252 1.019373 -0.519316
4.299791 1.019543 -0.495289
4.278886 0.984989 -0.491187
4.276371 0.977778 -0.514665
4.271748 1.016602 -0.515762
4.275287 1.016772 -0.491735
4.300903 0.980555 -0.518008
4.297976 0.978738 -0.542318
4.293364 1.018982 -0.543339
4.296280 1.019378 -0.519105
4.276337 0.977768 -0.514924
4.273410 0.975952 -0.539234
4.268798 1.016196 -0.540255
4.271714 1.016592 -0.516021
4.297979 0.978654 -0.542367
4.294703 0.978286 -0.566865
4.290521 1.018354 -0.567681
4.293367 1.018898 -0.543388
4.273400 0.976035 -0.539234
4.270124 0.975666 -0.563733
4.265943 1.015734 -0.564548
4.268789 1.016278 -0.540255
4.294712 0.978168 -0.566889
4.291436 0.977800 -0.591387
4.287684 1.017692 -0.592000
4.290530 1.018236 -0.567705
4.270109 0.975783 -0.563758
4.266833 0.975415 -0.588256
4.263082 1.015307 -0.588868
4.265928 1.015851 -0.564573
4.279323 0.989042 -0.589657
4.291786 0.988680 -0.592309
4.289174 0.989115 -0.604371
4.276699 0.989049 -0.602206
4.278956 0.964132 -0.590025
4.291419 0.963771 -0.592677
4.288807 0.964205 -0.604740
4.276332 0.964139 -0.602574
4.291279 0.977704 -0.592377
4.288655 0.977711 -0.604926
4.287528 1.017595 -0.592989
4.266987 0.975498 -0.587299
4.264363 0.975504 -0.599848
4.263235 1.015389 -0.587911
4.228052 1.027509 -0.309990
4.251752 1.028476 -0.311947
4.251742 1.029167 -0.339509
4.227417 1.027931 -0.337610
4.229152 1.002624 -0.310504
4.252853 1.003590 -0.312462
4.252843 1.004282 -0.340024
4.228518 1.003045 -0.338125
4.227296 1.027928 -0.337842
4.251621 1.029164 -0.339741
4.251377 1.029354 -0.367402
4.227743 1.027985 -0.365488
4.228639 1.003049 -0.337948
4.252964 1.004286 -0.339847
4.252720 1.004475 -0.367508
4.229086 1.003106 -0.365594
4.227675 1.027981 -0.365553
4.251309 1.029350 -0.367467
4.250913 1.029400 -0.394825
4.228111 1.028004 -0.393154
4.229153 1.003110 -0.365585
4.252788 1.004479 -0.367499
4.252392 1.004529 -0.394858
4.229590 1.003133 -0.393186
4.228070 1.028001 -0.393294
4.250872 1.029397 -0.394966
4.249636 1.029127 -0.422549
4.227726 1.027744 -0.420923
4.229630 1.003136 -0.393101
4.252432 1.004532 -0.394773
4.251196 1.004261 -0.422356
4.229286 1.002879 -0.420730
4.251781 1.028474 -0.311835
4.275481 1.029440 -0.313793
4.276078 1.030420 -0.341287
4.251771 1.029166 -0.339396
4.252872 1.003594 -0.312578
4.276572 1.004560 -0.314537
4.277169 1.005540 -0.342031
4.252862 1.004286 -0.340140
4.251652 1.029166 -0.339677
4.275959 1.030420 -0.341568
4.275130 1.030702 -0.369151
4.251408 1.029355 -0.367338
4.252981 1.004287 -0.339915
4.277288 1.005541 -0.341806
4.276459 1.005823 -0.369389
4.252737 1.004476 -0.367576
4.251339 1.029352 -0.367424
4.275061 1.030699 -0.369237
4.273870 1.030822 -0.396782
4.250943 1.029402 -0.394783
4.252805 1.004480 -0.367545
4.276527 1.005827 -0.369358
4.275335 1.005950 -0.396903
4.252409 1.004530 -0.394904
4.250894 1.029399 -0.394955
4.273821 1.030819 -0.396955
4.271568 1.030497 -0.424167
4.249658 1.029128 -0.422539
4.252455 1.004533 -0.394786
4.275382 1.005953 -0.396785
4.273129 1.005632 -0.423998
4.251218 1.004263 -0.422370
4.275511 1.029438 -0.313683
4.299210 1.030427 -0.315641
4.300397 1.031661 -0.343059
4.276108 1.030418 -0.341177
4.276591 1.004565 -0.314651
4.300289 1.005554 -0.316609
4.301477 1.006788 -0.344027
4.277187 1.005545 -0.342145
4.275991 1.030421 -0.341512
4.300281 1.031664 -0.343394
4.298971 1.032049 -0.370807
4.275162 1.030703 -0.369095
4.277304 1.005543 -0.341865
4.301593 1.006786 -0.343747
4.300284 1.007171 -0.371160
4.276475 1.005825 -0.369448
4.275098 1.030701 -0.369192
4.298907 1.032047 -0.370903
4.296969 1.032218 -0.398306
4.273907 1.030824 -0.396737
4.276537 1.005828 -0.369407
4.300346 1.007174 -0.371118
4.298408 1.007345 -0.398521
4.275346 1.005951 -0.396952
4.273850 1.030821 -0.396939
4.296913 1.032214 -0.398508
4.293505 1.031888 -0.425779
4.271597 1.030499 -0.424151
4.275398 1.005954 -0.396804
4.298461 1.007348 -0.398373
4.295054 1.007021 -0.425644
4.273145 1.005633 -0.424017
4.301970 1.015902 -0.317123
4.316197 1.015992 -0.319465
4.317330 1.015806 -0.346200
4.302615 1.015727 -0.344307
4.302140 0.990988 -0.316950
4.316368 0.991079 -0.319292
4.317501 0.990892 -0.346028
4.302786 0.990813 -0.344134
4.302561 1.015727 -0.344272
4.317276 1.015806 -0.346166
4.316265 1.015823 -0.372864
4.301196 1.015576 -0.371372
4.302839 0.990814 -0.344223
4.317554 0.990892 -0.346116
4.316543 0.990910 -0.372814
4.301474 0.990662 -0.371322
4.301054 1.015573 -0.371380
4.316124 1.015821 -0.372872
4.314847 1.015868 -0.399600
4.299240 1.015429 -0.398513
4.301613 0.990664 -0.371368
4.316682 0.990912 -0.372860
4.315405 0.990959 -0.399587
4.299798 0.990520 -0.398500
4.299494 1.015432 -0.398546
4.315101 1.015871 -0.399633
4.311860 1.015426 -0.426186
4.296436 1.015810 -0.425491
4.299539 0.990517 -0.398520
4.315146 0.990956 -0.399607
4.311905 0.990511 -0.426160
4.296481 0.990895 -0.425465
4.314392 1.005061 -0.316589
4.315037 1.004886 -0.343773
4.313295 1.020825 -0.343099
4.312108 1.019591 -0.315681
4.289701 1.001845 -0.317480
4.290347 1.001670 -0.344665
4.288605 1.017609 -0.343990
4.287418 1.016375 -0.316572
4.315064 1.004606 -0.344848
4.313699 1.004454 -0.371947
4.312013 1.020930 -0.371586
4.313322 1.020545 -0.344173
4.290320 1.001951 -0.343645
4.288955 1.001799 -0.370745
4.287269 1.018275 -0.370383
4.288578 1.017890 -0.342970
4.313684 1.004437 -0.372223
4.311870 1.004293 -0.399355
4.310061 1.021083 -0.399264
4.311998 1.020913 -0.371862
4.288966 1.001817 -0.370524
4.287151 1.001673 -0.397656
4.285342 1.018464 -0.397565
4.287280 1.018293 -0.370162
4.311791 1.004458 -0.399996
4.308733 1.004836 -0.426941
4.306575 1.020923 -0.427175
4.309982 1.021249 -0.399905
4.287225 1.001507 -0.397069
4.284167 1.001885 -0.424014
4.282009 1.017972 -0.424249
4.285416 1.018298 -0.396978
4.293530 1.031884 -0.426116
4.295136 1.031262 -0.445614
4.269801 1.029836 -0.446336
4.271621 1.030495 -0.424489
4.295026 1.007025 -0.425354
4.296631 1.006404 -0.444852
4.271296 1.004978 -0.445574
4.273117 1.005636 -0.423727
4.271608 1.030497 -0.424362
4.269787 1.029839 -0.446209
4.244451 1.028424 -0.446933
4.249698 1.029128 -0.422735
4.273083 1.005631 -0.423853
4.271262 1.004972 -0.445699
4.245926 1.003558 -0.446424
4.251173 1.004262 -0.422225
4.249673 1.029128 -0.422629
4.244426 1.028424 -0.446828
4.219090 1.027011 -0.447550
4.227763 1.027746 -0.421003
4.251151 1.004259 -0.422329
4.245904 1.003555 -0.446528
4.220567 1.002141 -0.447250
4.229241 1.002876 -0.420703
4.297010 1.015782 -0.426117
4.312434 1.015398 -0.426813
4.310576 1.014151 -0.446867
4.299139 1.014969 -0.447384
4.295904 0.990922 -0.424885
4.311328 0.990538 -0.425580
4.309470 0.989291 -0.445635
4.298034 0.990109 -0.446152
4.308731 1.005155 -0.424439
4.310861 1.004342 -0.445705
4.308178 1.020620 -0.444171
4.306573 1.021241 -0.424674
4.284167 1.001566 -0.426563
4.286297 1.000753 -0.447830
4.283615 1.017031 -0.446296
4.282009 1.017653 -0.426798
4.225965 1.027398 -0.623983
4.200769 1.024755 -0.641736
4.186946 1.023852 -0.637994
4.201033 1.025313 -0.623374
4.227961 1.002573 -0.623258
4.202764 0.999930 -0.641010
4.188941 0.999028 -0.637268
4.203028 1.000488 -0.622649
4.200894 1.024757 -0.641940
4.175697 1.022117 -0.659693
4.176178 1.022732 -0.649245
4.187070 1.023854 -0.638197
4.202602 0.999925 -0.640837
4.177405 0.997285 -0.658590
4.177887 0.997900 -0.648143
4.188779 0.999022 -0.637095
4.201009 1.025314 -0.623228
4.186922 1.023854 -0.637847
4.169919 1.022548 -0.637978
4.176075 1.023245 -0.622619
4.203012 1.000484 -0.622793
4.188925 0.999023 -0.637412
4.171922 0.997717 -0.637544
4.178078 0.998414 -0.622185
4.187016 1.023859 -0.637936
4.176124 1.022737 -0.648984
4.165731 1.022043 -0.649682
4.170013 1.022553 -0.638068
4.188812 0.999016 -0.637349
4.177920 0.997894 -0.648397
4.167527 0.997199 -0.649095
4.171809 0.997710 -0.637481
4.176431 1.022749 -0.649194
4.175949 1.022134 -0.659642
4.151347 1.021055 -0.662208
4.166037 1.022054 -0.649892
4.177599 0.997881 -0.648210
4.177117 0.997266 -0.658657
4.152515 0.996187 -0.661223
4.167206 0.997186 -0.648908
4.176063 1.023245 -0.622496
4.169907 1.022549 -0.637855
4.151031 1.021102 -0.641836
4.151130 1.021168 -0.621886
4.178046 0.998410 -0.622310
4.171891 0.997713 -0.637669
4.153015 0.996267 -0.641651
4.153113 0.996333 -0.621701
4.170043 1.022558 -0.637887
4.165761 1.022048 -0.649501
4.151070 1.021048 -0.661816
