0.612605 0.352172 0.006152
0.613282 0.359558 -0.012160
0.613832 0.343382 -0.016315
0.440772 0.392211 -0.049230
0.438260 0.396890 -0.033483
0.440992 0.407266 -0.043424
0.616959 0.377057 -0.016614
0.614447 0.381735 -0.000867
0.617179 0.392111 -0.010808
0.439185 0.415758 -0.006067
0.441178 0.417822 -0.032348
0.438445 0.407446 -0.022407
0.614999 0.379499 0.004418
0.616992 0.381564 -0.021862
0.614260 0.371188 -0.011921
0.218109 0.571517 0.069667
0.217265 0.563648 0.105924
0.243129 0.559955 0.103999
0.245618 0.579880 0.067311
0.227706 0.403576 0.006114
0.226862 0.395707 0.042371
0.252726 0.392014 0.040446
0.255214 0.411939 0.003758
0.250422 0.571846 0.083676
0.247933 0.551920 0.120364
0.274179 0.550090 0.118002
0.278621 0.576452 0.081685
0.250465 0.419978 -0.012611
0.247976 0.400052 0.024077
0.274222 0.398222 0.021714
0.278664 0.424584 -0.014602
0.284335 0.571398 0.088565
0.279894 0.545036 0.124881
0.305659 0.543313 0.122546
0.312828 0.571806 0.087007
0.273004 0.429639 -0.021486
0.268563 0.403277 0.014830
0.294328 0.401554 0.012495
0.301497 0.430047 -0.023045
0.319788 0.569078 0.089252
0.312618 0.540585 0.124791
0.338649 0.537461 0.122728
0.348055 0.564778 0.088208
0.294592 0.432771 -0.025294
0.287422 0.404278 0.010246
0.313453 0.401153 0.008182
0.322860 0.428470 -0.026337
0.357185 0.562976 0.087587
0.347778 0.535659 0.122107
0.373053 0.529446 0.120783
0.384217 0.553585 0.087152
0.313783 0.430261 -0.025719
0.304377 0.402944 0.008801
0.329652 0.396730 0.007477
0.340815 0.420870 -0.026154
0.396508 0.550001 0.085163
0.385345 0.525861 0.118794
0.408769 0.514024 0.118866
0.421110 0.535593 0.085393
0.328574 0.424433 -0.024166
0.317410 0.400294 0.009465
0.340834 0.388456 0.009537
0.353175 0.410025 -0.023936
0.435104 0.526528 0.084564
0.422763 0.504959 0.118037
0.440368 0.486113 0.120217
0.456625 0.507382 0.085463
0.339224 0.419058 -0.023105
0.326883 0.397489 0.010368
0.344488 0.378643 0.012548
0.360746 0.399912 -0.022206
0.466039 0.493615 0.088174
0.449781 0.472346 0.122928
0.459350 0.448184 0.127088
0.483534 0.470992 0.089659
0.351366 0.413636 -0.024912
0.335108 0.392367 0.009841
0.344677 0.368205 0.014001
0.368861 0.391013 -0.023428
0.199649 0.575448 -0.004884
0.199924 0.574476 0.037754
0.227433 0.582839 0.035399
0.228064 0.581870 -0.004860
0.245618 0.401603 -0.004690
0.245893 0.400631 0.037948
0.273402 0.408994 0.035593
0.274033 0.408025 -0.004666
0.238420 0.583885 -0.008604
0.237788 0.584854 0.031655
0.265987 0.589461 0.029664
0.267146 0.587295 -0.008583
0.263734 0.406021 -0.000924
0.263102 0.406991 0.039335
0.291301 0.411597 0.037344
0.292460 0.409432 -0.000903
0.278837 0.588098 -0.010298
0.277678 0.590264 0.027949
0.306172 0.590672 0.026390
0.307769 0.588231 -0.010278
0.280826 0.408633 0.000811
0.279667 0.410798 0.039057
0.308161 0.411207 0.037498
0.309758 0.408766 0.000830
0.320844 0.587488 -0.009102
0.319247 0.589929 0.027566
0.347514 0.585628 0.026522
0.349622 0.584012 -0.009086
0.296740 0.409505 -0.000348
0.295143 0.411947 0.036321
0.323411 0.407646 0.035277
0.325518 0.406030 -0.000331
0.363735 0.581041 -0.004215
0.361628 0.582656 0.031394
0.388659 0.573266 0.030959
0.391691 0.573727 -0.004202
0.311461 0.408989 -0.005203
0.309353 0.410605 0.030405
0.336385 0.401214 0.029970
0.339416 0.401676 -0.005191
0.405624 0.567664 0.004498
0.402592 0.567203 0.039658
0.427194 0.552795 0.039888
0.432331 0.556354 0.004506
0.325536 0.407717 -0.013890
0.322505 0.407256 0.021270
0.347107 0.392848 0.021500
0.352243 0.396407 -0.013882
0.444187 0.546832 0.015984
0.439050 0.543273 0.051366
0.460571 0.524127 0.052265
0.468796 0.531753 0.015988
0.340436 0.405899 -0.025358
0.335300 0.402340 0.010023
0.356821 0.383194 0.010923
0.365046 0.390820 -0.025354
0.476754 0.520056 0.027726
0.468529 0.512430 0.064003
0.486025 0.489807 0.065487
0.499066 0.501360 0.027726
0.357130 0.402479 -0.037091
0.348906 0.394853 -0.000814
0.366401 0.372230 0.000671
0.379443 0.383783 -0.037091
0.423202 0.477380 0.123902
0.478920 0.473942 0.108007
0.493301 0.494690 0.073664
0.447386 0.500188 0.086473
0.380890 0.338981 0.017175
0.436608 0.335543 0.001280
0.450989 0.356291 -0.033063
0.405074 0.361789 -0.020253
0.447048 0.513531 0.062064
0.492963 0.508033 0.049254
0.499023 0.513687 0.024319
0.460089 0.525084 0.024302
0.405441 0.348477 0.004089
0.451356 0.342979 -0.008721
0.457416 0.348632 -0.033656
0.418482 0.360030 -0.033673
0.475742 0.475456 0.107179
0.531459 0.472018 0.091284
0.534355 0.486656 0.072109
0.490123 0.496204 0.072836
0.439887 0.334018 0.002085
0.495605 0.330580 -0.013811
0.498501 0.345218 -0.032986
0.454269 0.354766 -0.032258
0.493799 0.510594 0.039645
0.538031 0.501047 0.038918
0.538793 0.504851 0.014727
0.499859 0.516248 0.014710
0.450604 0.340398 0.000881
0.494837 0.330850 0.000154
0.495599 0.334654 -0.024037
0.456664 0.346052 -0.024054
0.398749 0.327377 0.153315
0.459389 0.336839 0.142773
0.468001 0.366486 0.144947
0.411190 0.362602 0.153933
0.367440 0.345121 -0.022867
0.428080 0.354582 -0.033409
0.436692 0.384230 -0.031235
0.379881 0.380345 -0.022249
0.414925 0.364676 0.153373
0.471736 0.368560 0.144387
0.477133 0.397884 0.142191
0.421414 0.401322 0.158086
0.376163 0.378337 -0.021687
0.432974 0.382221 -0.030673
0.438370 0.411546 -0.032870
0.382652 0.414983 -0.016974
0.459927 0.332232 0.142089
0.520567 0.341693 0.131546
0.525244 0.365425 0.135155
0.468539 0.361879 0.144263
0.427660 0.359203 -0.032745
0.488301 0.368664 -0.043287
0.492977 0.392396 -0.039679
0.436272 0.388850 -0.030571
0.471641 0.390466 0.143371
0.528346 0.394012 0.134263
0.532755 0.416353 0.125279
0.477037 0.419790 0.141174
0.433182 0.360316 -0.029682
0.489887 0.363862 -0.038790
0.494296 0.386202 -0.047774
0.438578 0.389640 -0.031878
0.402969 0.264141 0.115137
0.424958 0.248113 0.083178
0.476032 0.258447 0.077838
0.463609 0.273603 0.104595
0.363226 0.408309 0.015280
0.385215 0.392281 -0.016679
0.436290 0.402615 -0.022019
0.423867 0.417770 0.004738
0.420407 0.232970 0.048797
0.425919 0.229468 0.010778
0.470103 0.234909 0.010812
0.471482 0.243304 0.043457
0.389785 0.407402 0.017637
0.395297 0.403900 -0.020382
0.439481 0.409341 -0.020349
0.440859 0.417736 0.012297
0.460048 0.277099 0.110464
0.472471 0.261943 0.083707
0.517192 0.268784 0.083597
0.520688 0.286561 0.099921
0.427536 0.414292 -0.001144
0.439959 0.399137 -0.027901
0.484681 0.405977 -0.028011
0.488177 0.423754 -0.011686
0.468116 0.244537 0.051284
0.466738 0.236142 0.018638
0.510923 0.241583 0.018672
0.512837 0.251378 0.051174
0.444317 0.416517 0.004468
0.442939 0.408122 -0.028178
0.487124 0.413563 -0.028144
0.489038 0.423358 0.004358
0.397648 0.295535 0.184693
0.424940 0.298141 0.147543
0.439422 0.331293 0.148739
0.414172 0.326615 0.186468
0.259237 0.366521 0.094479
0.286529 0.369127 0.057328
0.301011 0.402279 0.058524
0.275761 0.397600 0.096253
0.416479 0.362759 0.195863
0.441730 0.367437 0.158134
0.443234 0.403274 0.160301
0.412999 0.397785 0.195485
0.273468 0.361524 0.086860
0.298718 0.366202 0.049132
0.300223 0.402039 0.051299
0.269988 0.396550 0.086482
0.426686 0.304465 0.149327
0.453977 0.307071 0.112176
0.466419 0.342296 0.112795
0.441169 0.337617 0.150523
0.284835 0.362810 0.055469
0.312126 0.365416 0.018318
0.324567 0.400641 0.018936
0.299317 0.395962 0.056665
0.441918 0.353915 0.156333
0.467168 0.358594 0.118604
0.473657 0.395240 0.123317
0.443422 0.389751 0.158500
0.298586 0.379735 0.050860
0.323836 0.384413 0.013131
0.330325 0.421060 0.017844
0.300090 0.415571 0.053027
0.342269 0.498456 0.184648
0.364681 0.486466 0.191499
0.376193 0.505582 0.153743
0.353743 0.516698 0.151201
0.287675 0.354620 0.091558
0.310088 0.342629 0.098408
0.321599 0.361746 0.060652
0.299149 0.372861 0.058110
0.315760 0.511541 0.178158
0.337908 0.499833 0.184854
0.349382 0.518075 0.151407
0.326130 0.526214 0.149288
0.269842 0.364972 0.084647
0.291991 0.353264 0.091343
0.303464 0.371506 0.057895
0.280212 0.379646 0.055777
0.286045 0.524598 0.168848
0.309739 0.515467 0.174246
0.320110 0.530141 0.145376
0.292902 0.536758 0.142550
0.252120 0.370194 0.083152
0.275814 0.361063 0.088551
0.286185 0.375737 0.059680
0.258977 0.382354 0.056854
0.248488 0.530075 0.163883
0.274224 0.527893 0.165723
0.281082 0.540053 0.139425
0.253820 0.543060 0.137647
0.238151 0.369092 0.084430
0.263888 0.366910 0.086270
0.270746 0.379070 0.059972
0.243484 0.382077 0.058194
0.210327 0.536986 0.146728
0.208958 0.517512 0.173684
0.232928 0.526394 0.169723
0.238260 0.539379 0.143487
0.231058 0.383361 0.055596
0.229689 0.363888 0.082553
0.253659 0.372770 0.078591
0.258991 0.385755 0.052356
0.254330 0.551992 0.119829
0.228466 0.555686 0.121753
0.227098 0.536212 0.148710
0.255032 0.538606 0.145469
0.241522 0.399946 0.024680
0.215658 0.403640 0.026604
0.214290 0.384167 0.053561
0.242224 0.386561 0.050321
0.281881 0.554258 0.109957
0.255634 0.556089 0.112320
0.256336 0.542703 0.137961
0.283597 0.539696 0.139739
0.266519 0.394016 0.029823
0.240272 0.395846 0.032185
0.240974 0.382461 0.057826
0.268235 0.379454 0.059605
0.312089 0.551646 0.108289
0.286324 0.553369 0.110625
0.288040 0.538806 0.140407
0.315248 0.532189 0.143232
0.287894 0.393177 0.026820
0.262129 0.394899 0.029155
0.263846 0.380337 0.058937
0.291053 0.373719 0.061763
0.343423 0.545518 0.109876
0.317392 0.548643 0.111939
0.320551 0.529185 0.146883
0.343803 0.521046 0.149001
0.308673 0.393046 0.021106
0.282642 0.396171 0.023170
0.285801 0.376713 0.058113
0.309053 0.368574 0.060232
0.107701 0.230430 0.048438
0.107736 0.230472 -0.004394
0.123348 0.199806 -0.004408
0.123569 0.201053 0.054866
0.267008 0.313828 0.047277
0.267043 0.313870 -0.005555
0.282655 0.283204 -0.005569
0.282876 0.284451 0.053705
0.091281 0.269916 0.042847
0.091313 0.269954 -0.005043
0.104012 0.238522 -0.005059
0.103977 0.238480 0.047773
0.258008 0.337276 0.043011
0.258040 0.337314 -0.004879
0.270739 0.305882 -0.004896
0.270704 0.305840 0.047937
0.079125 0.313947 0.039297
0.079154 0.313982 -0.005018
0.087604 0.281216 -0.005038
0.087572 0.281178 0.042851
0.253249 0.358847 0.039447
0.253278 0.358883 -0.004867
0.261728 0.326116 -0.004888
0.261696 0.326078 0.043002
0.073577 0.362269 0.036977
0.073605 0.362302 -0.004985
0.076664 0.328388 -0.005010
0.076635 0.328353 0.039305
0.252670 0.378425 0.037108
0.252698 0.378458 -0.004854
0.255757 0.344544 -0.004878
0.255728 0.344509 0.039436
0.077559 0.414103 0.035845
0.077586 0.414136 -0.004942
0.073803 0.380447 -0.004971
0.073775 0.380414 0.036991
0.256256 0.394038 0.035947
0.256283 0.394070 -0.004840
0.252500 0.360381 -0.004869
0.252472 0.360348 0.037093
0.094178 0.467041 0.035781
0.094205 0.467074 -0.004889
0.082485 0.434970 -0.004923
0.082458 0.434938 0.035864
0.263093 0.405373 0.035844
0.263120 0.405405 -0.004827
0.251400 0.373302 -0.004860
0.251373 0.373269 0.035927
0.123653 0.515111 0.036561
0.123680 0.515143 -0.004832
0.104447 0.486999 -0.004867
0.104420 0.486967 0.035804
0.272116 0.413651 0.036578
0.272143 0.413684 -0.004814
0.252910 0.385540 -0.004849
0.252883 0.385508 0.035822
0.135947 0.529552 0.037531
0.160922 0.552683 0.038812
0.160648 0.553655 -0.003826
0.135974 0.529585 -0.003861
0.259866 0.399262 0.035609
0.284841 0.422393 0.036891
0.284567 0.423365 -0.005748
0.259893 0.399294 -0.005783
0.136494 0.528702 0.049945
0.138096 0.522309 0.085944
0.160625 0.543965 0.087483
0.161469 0.551834 0.051226
0.259320 0.400104 0.023273
0.260922 0.393711 0.059273
0.283451 0.415366 0.060812
0.284295 0.423235 0.024555
0.104507 0.485420 0.048776
0.108331 0.480983 0.085119
0.125343 0.507170 0.085532
0.123740 0.513563 0.049533
0.252798 0.387050 0.022927
0.256622 0.382612 0.059270
0.273634 0.408800 0.059682
0.272031 0.415193 0.023683
0.082943 0.433064 0.049836
0.089000 0.430903 0.086928
0.098487 0.460731 0.086096
0.094664 0.465168 0.049753
0.250892 0.375140 0.022033
0.256950 0.372978 0.059125
0.266437 0.402807 0.058293
0.262613 0.407244 0.021950
0.075184 0.378769 0.053799
0.083198 0.379309 0.091538
0.085025 0.410297 0.089746
0.078968 0.412458 0.052654
0.251070 0.361992 0.020363
0.259084 0.362532 0.058102
0.260911 0.393520 0.056310
0.254854 0.395682 0.019218
0.078906 0.328393 0.059448
0.087830 0.331991 0.097149
0.083862 0.362849 0.094859
0.075848 0.362309 0.057120
0.253465 0.344471 0.019374
0.262389 0.348069 0.057075
0.258421 0.378927 0.054785
0.250407 0.378387 0.017046
0.089771 0.283909 0.065159
0.098058 0.289784 0.101700
0.090248 0.320276 0.099305
0.081324 0.316678 0.061604
0.259506 0.323352 0.020778
0.267792 0.329227 0.057320
0.259983 0.359719 0.054924
0.251059 0.356121 0.017223
0.104670 0.244144 0.069435
0.110042 0.251989 0.103173
0.100261 0.281455 0.101050
0.091975 0.275581 0.064509
0.270017 0.300182 0.026361
0.275389 0.308027 0.060098
0.265608 0.337493 0.057976
0.257321 0.331618 0.021434
0.105841 0.237610 0.063627
0.121709 0.208233 0.070055
0.121761 0.216102 0.098932
0.111213 0.245454 0.097365
0.268871 0.306657 0.032176
0.284738 0.277280 0.038603
0.284791 0.285149 0.067481
0.274243 0.314502 0.065914
0.154933 0.323244 0.234943
0.147645 0.347809 0.241419
0.141475 0.343781 0.208098
0.139948 0.304043 0.199398
0.321506 0.352577 0.173884
0.314218 0.377142 0.180360
0.308048 0.373114 0.147038
0.306521 0.333375 0.138338
0.149126 0.386970 0.239050
0.162783 0.408657 0.240994
0.150149 0.436871 0.198675
0.142957 0.382942 0.205728
0.312744 0.338051 0.182734
0.326401 0.359738 0.184678
0.313767 0.387952 0.142360
0.306575 0.334023 0.149413
0.113751 0.253404 0.115417
0.124299 0.224052 0.116984
0.126770 0.248451 0.141980
0.271713 0.306566 0.047910
0.282261 0.277214 0.049477
0.284732 0.301613 0.074473
0.162999 0.517454 0.139574
0.164367 0.536927 0.112618
0.141838 0.515271 0.111078
0.278348 0.402918 0.062689
0.279716 0.422391 0.035732
0.257187 0.400736 0.034193
0.123254 0.289697 0.149657
0.105102 0.292701 0.121290
0.114882 0.263235 0.123412
0.127901 0.258282 0.149975
0.278943 0.323247 0.066167
0.260791 0.326250 0.037800
0.270571 0.296784 0.039922
0.283590 0.291831 0.066485
0.109151 0.298372 0.129693
0.127303 0.295368 0.158060
0.123054 0.326843 0.156471
0.101341 0.328864 0.127298
0.256728 0.320641 0.029393
0.274881 0.317637 0.057760
0.270631 0.349112 0.056170
0.248919 0.351134 0.026997
0.125842 0.335281 0.161417
0.123988 0.367058 0.159306
0.100161 0.368161 0.129954
0.104129 0.337303 0.132245
0.267834 0.340736 0.051219
0.265981 0.372512 0.049108
0.242153 0.373616 0.019756
0.246122 0.342757 0.022047
0.102269 0.379189 0.132037
0.126097 0.378086 0.161389
0.128662 0.409747 0.159412
0.104096 0.410177 0.130245
0.240044 0.362650 0.017669
0.263871 0.361547 0.047021
0.266437 0.393208 0.045045
0.241871 0.393639 0.015878
0.130506 0.423385 0.157991
0.139000 0.453824 0.156802
0.115428 0.453643 0.127992
0.105940 0.423815 0.128824
0.264604 0.379633 0.046463
0.273098 0.410071 0.045273
0.249526 0.409891 0.016463
0.240038 0.380063 0.017295
0.140879 0.469405 0.150374
0.155480 0.497595 0.150473
0.134319 0.495412 0.121977
0.117307 0.469225 0.121565
0.271243 0.394547 0.051699
0.285843 0.422736 0.051798
0.264683 0.420554 0.023302
0.247671 0.394366 0.022889
0.129291 0.471657 0.125828
0.142523 0.480373 0.152884
0.143891 0.499846 0.125927
0.282858 0.392293 0.076293
0.296090 0.401009 0.103348
0.297458 0.420482 0.076391
0.119207 0.262465 0.129098
0.121677 0.286864 0.154095
0.114559 0.293881 0.128780
0.292304 0.287649 0.087406
0.294775 0.312048 0.112402
0.287657 0.319065 0.087087
0.296088 0.333704 0.099725
0.290499 0.298445 0.097006
0.283381 0.305461 0.071691
0.279132 0.336936 0.070102
0.131541 0.335779 0.172218
0.125953 0.300520 0.169499
0.118835 0.307536 0.144185
0.114585 0.339011 0.142595
0.296088 0.333704 0.099725
0.290499 0.298445 0.097006
0.283381 0.305461 0.071691
0.279132 0.336936 0.070102
0.131541 0.335779 0.172218
0.125953 0.300520 0.169499
0.118835 0.307536 0.144185
0.114585 0.339011 0.142595
0.121363 0.376565 0.155369
0.123216 0.344788 0.157479
0.140172 0.341556 0.187102
0.145107 0.376507 0.184802
0.268649 0.363002 0.053105
0.270503 0.331225 0.055216
0.287459 0.327993 0.084839
0.292394 0.362944 0.082538
0.125707 0.379458 0.160699
0.149452 0.379400 0.190132
0.152059 0.414785 0.187010
0.128273 0.411119 0.158722
0.264309 0.360176 0.047770
0.288054 0.360119 0.077203
0.290661 0.395504 0.074080
0.266874 0.391838 0.045793
0.134686 0.401753 0.154169
0.145259 0.409027 0.194066
0.132625 0.437242 0.151747
0.308066 0.408602 0.106972
0.318639 0.415876 0.146869
0.306005 0.444090 0.104550
0.124033 0.310550 0.162793
0.139018 0.329752 0.198339
0.129622 0.345809 0.165512
0.292439 0.288410 0.103762
0.307423 0.307612 0.139308
0.298027 0.323669 0.106481
0.137218 0.364337 0.197198
0.131230 0.375607 0.153371
0.126295 0.340656 0.155671
0.135691 0.324599 0.188498
0.312288 0.352560 0.157865
0.306300 0.363829 0.114037
0.301364 0.328878 0.116338
0.310760 0.312821 0.149165
0.131414 0.381375 0.151536
0.137402 0.370106 0.195364
0.144595 0.424035 0.188311
0.134021 0.416761 0.148414
0.306124 0.358143 0.115869
0.312111 0.346873 0.159697
0.319304 0.400803 0.152644
0.308731 0.393528 0.112747
0.405732 0.420240 0.203117
0.409816 0.402908 0.199148
0.440051 0.408397 0.163964
0.434375 0.427266 0.167904
0.269081 0.408812 0.086793
0.273165 0.391480 0.082824
0.303400 0.396969 0.047641
0.297724 0.415838 0.051581
0.358043 0.513457 0.153325
0.380493 0.502341 0.155867
0.406362 0.519879 0.112947
0.382938 0.531716 0.112875
0.294886 0.376139 0.055909
0.317336 0.365023 0.058451
0.343204 0.382560 0.015531
0.319780 0.394398 0.015459
0.302127 0.373781 0.059136
0.327995 0.391319 0.016216
0.345600 0.372473 0.018397
0.319258 0.361690 0.061679
0.395742 0.493556 0.155185
0.421611 0.511093 0.112266
0.439216 0.492247 0.114446
0.412873 0.481465 0.157728
0.302127 0.373781 0.059136
0.327995 0.391319 0.016216
0.345600 0.372473 0.018397
0.319258 0.361690 0.061679
0.395742 0.493556 0.155185
0.421611 0.511093 0.112266
0.439216 0.492247 0.114446
0.412873 0.481465 0.157728
0.346750 0.543554 0.111739
0.347130 0.519082 0.150865
0.372025 0.537341 0.110415
0.305387 0.395008 0.019229
0.305767 0.370536 0.058355
0.330661 0.388795 0.017905
0.404305 0.416544 0.204992
0.379028 0.395225 0.233901
0.408389 0.399212 0.201023
0.270461 0.412494 0.084974
0.245183 0.391176 0.113883
0.274544 0.395162 0.081004
0.364191 0.442183 0.228400
0.351540 0.455369 0.228647
0.334604 0.437752 0.260690
0.259955 0.344207 0.119446
0.247304 0.357392 0.119693
0.230369 0.339776 0.151736
0.201741 0.511532 0.180632
0.214376 0.483318 0.222951
0.225711 0.520415 0.176671
0.236903 0.369829 0.075661
0.249537 0.341615 0.117979
0.260872 0.378711 0.071699
0.227859 0.486596 0.221176
0.240493 0.458382 0.263495
0.249263 0.491520 0.215705
0.236078 0.338278 0.119838
0.248712 0.310064 0.162157
0.257481 0.343202 0.114367
0.347102 0.486660 0.196733
0.331585 0.466536 0.232739
0.344237 0.453350 0.232492
0.369514 0.474669 0.203584
0.282811 0.366377 0.079541
0.267294 0.346253 0.115547
0.279945 0.333068 0.115300
0.305223 0.354386 0.086391
0.333323 0.498436 0.188879
0.311174 0.510144 0.182183
0.295593 0.486417 0.219579
0.317807 0.478312 0.224884
0.296550 0.354623 0.087386
0.274401 0.366330 0.080690
0.258820 0.342604 0.118087
0.281033 0.334499 0.123392
0.300477 0.509997 0.185059
0.276783 0.519128 0.179661
0.261115 0.489138 0.218629
0.284896 0.486271 0.222456
0.285052 0.366493 0.077803
0.261357 0.375624 0.072405
0.245689 0.345634 0.111374
0.269471 0.342767 0.115200
0.253554 0.488016 0.220637
0.269223 0.518007 0.181668
0.243486 0.520189 0.179827
0.232151 0.483092 0.226107
0.253202 0.346760 0.109363
0.268870 0.376750 0.070395
0.243133 0.378932 0.068554
0.231798 0.341836 0.114834
0.250036 0.492500 0.214300
0.241267 0.459362 0.262089
0.257422 0.465882 0.255406
0.273818 0.489633 0.218126
0.256739 0.342217 0.115784
0.247969 0.309079 0.163573
0.264125 0.315599 0.156890
0.280521 0.339350 0.119610
0.310375 0.480596 0.223732
0.288161 0.488701 0.218427
0.271766 0.464951 0.255707
0.293439 0.462980 0.255776
0.288433 0.332172 0.124615
0.266219 0.340278 0.119310
0.249824 0.316527 0.156590
0.271497 0.314556 0.156659
0.362117 0.319850 0.257069
0.380936 0.313153 0.222795
0.392293 0.340817 0.223549
0.368306 0.344098 0.256803
0.219401 0.369005 0.159339
0.238220 0.362308 0.125065
0.249577 0.389972 0.125819
0.225590 0.393252 0.159072
0.361091 0.402719 0.260965
0.385078 0.399439 0.227711
0.376223 0.427197 0.226957
0.346636 0.422767 0.259247
0.232802 0.334681 0.154910
0.256789 0.331400 0.121656
0.247933 0.359159 0.120902
0.218347 0.354728 0.153191
0.377427 0.303466 0.221954
0.396246 0.296769 0.187680
0.412770 0.327848 0.189454
0.388783 0.331130 0.222708
0.241772 0.371986 0.125838
0.260592 0.365289 0.091564
0.277116 0.396368 0.093338
0.253129 0.399649 0.126592
0.389940 0.379979 0.230450
0.413926 0.376698 0.197196
0.410446 0.411724 0.196818
0.381085 0.407738 0.229696
0.251981 0.350861 0.118850
0.275967 0.347580 0.085596
0.272486 0.382605 0.085218
0.243125 0.378619 0.118096
0.130783 0.441933 0.149191
0.122289 0.411494 0.150381
0.146076 0.415160 0.178668
0.144015 0.450649 0.176246
0.281357 0.421968 0.052940
0.272863 0.391529 0.054130
0.296650 0.395196 0.082417
0.294589 0.430684 0.079996
0.460174 0.456620 0.120310
0.433831 0.445838 0.163592
0.439508 0.426969 0.159653
0.469742 0.432458 0.124470
0.324667 0.408062 0.012535
0.298325 0.397280 0.055818
0.304001 0.378411 0.051878
0.334236 0.383900 0.016695
0.195507 0.151894 -0.004750
0.234026 0.149769 -0.004726
0.234508 0.148775 0.053662
0.195728 0.153141 0.054524
0.210550 0.331083 -0.005224
0.249069 0.328958 -0.005201
0.249551 0.327964 0.053187
0.210771 0.332330 0.054049
0.247486 0.149679 -0.007358
0.285850 0.152734 -0.007330
0.286911 0.150780 0.048561
0.247968 0.148685 0.051030
0.235686 0.329047 -0.002570
0.274049 0.332103 -0.002543
0.275111 0.330149 0.053349
0.236168 0.328053 0.055818
0.300691 0.155002 -0.008467
0.338044 0.163897 -0.008435
0.339288 0.162052 0.043316
0.301753 0.153047 0.047424
0.259284 0.329847 -0.001409
0.296638 0.338742 -0.001377
0.297881 0.336897 0.050374
0.260346 0.327893 0.054482
0.353877 0.169232 -0.008265
0.389018 0.184571 -0.008229
0.390030 0.183424 0.037769
0.355120 0.167387 0.043486
0.280878 0.333431 -0.001553
0.316019 0.348770 -0.001518
0.317031 0.347623 0.044481
0.282121 0.331586 0.050198
0.404668 0.193459 -0.007110
0.436096 0.215360 -0.007072
0.436448 0.214891 0.031760
0.405680 0.192312 0.038888
0.300435 0.339920 -0.002643
0.331863 0.361821 -0.002605
0.332215 0.361352 0.036227
0.301447 0.338773 0.043356
0.454496 0.233234 0.002078
0.481061 0.261282 0.002118
0.475549 0.264784 0.040137
0.454848 0.232765 0.040910
0.313518 0.343999 -0.011759
0.340083 0.372047 -0.011719
0.334572 0.375550 0.026300
0.313870 0.343531 0.027073
0.209405 0.162896 0.095200
0.248185 0.158529 0.094338
0.242923 0.180000 0.123568
0.209458 0.170765 0.124078
0.197091 0.322590 0.013461
0.235871 0.318224 0.012599
0.230609 0.339695 0.041829
0.197144 0.330460 0.042338
0.253095 0.169918 0.110696
0.292039 0.172014 0.108227
0.281683 0.199144 0.140148
0.247833 0.191389 0.139926
0.231034 0.306842 -0.003761
0.269977 0.308938 -0.006230
0.259621 0.336067 0.025691
0.225771 0.328313 0.025469
0.301064 0.175799 0.110149
0.338599 0.184803 0.106040
0.324257 0.211845 0.141717
0.290709 0.202928 0.142070
0.261023 0.305167 -0.008155
0.298559 0.314171 -0.012264
0.284216 0.341214 0.023413
0.250668 0.332297 0.023766
0.351902 0.187595 0.102953
0.386812 0.203632 0.097236
0.369934 0.227505 0.136311
0.337560 0.214638 0.138630
0.285325 0.311403 -0.009183
0.320235 0.327439 -0.014900
0.303356 0.351312 0.024175
0.270982 0.338445 0.026494
0.403239 0.212306 0.093890
0.434007 0.234885 0.086761
0.414299 0.255542 0.127130
0.386360 0.236179 0.132965
0.303871 0.318800 -0.011564
0.334639 0.341379 -0.018692
0.314932 0.362036 0.021676
0.286993 0.342673 0.027511
0.448367 0.255004 0.087751
0.469069 0.287023 0.086978
0.447080 0.303051 0.118937
0.428660 0.275660 0.128120
0.320328 0.321312 -0.019694
0.341029 0.353331 -0.020467
0.319040 0.369359 0.011493
0.300620 0.341968 0.020675
0.209834 0.177262 0.134795
0.243299 0.186497 0.134286
0.245562 0.200442 0.163252
0.212305 0.201661 0.159791
0.196767 0.323997 0.031677
0.230232 0.333232 0.031168
0.232495 0.347177 0.060134
0.199238 0.348396 0.056673
0.255040 0.180088 0.119954
0.288890 0.187842 0.120176
0.290113 0.201817 0.149338
0.257303 0.194032 0.148920
0.218558 0.339653 0.045501
0.252408 0.347407 0.045723
0.253631 0.361383 0.074885
0.220821 0.353598 0.074468
0.180646 0.203833 0.157054
0.213903 0.202614 0.160515
0.212643 0.214997 0.189824
0.183116 0.228232 0.182050
0.230900 0.346261 0.059464
0.264158 0.345042 0.062925
0.262897 0.357425 0.092234
0.233371 0.370660 0.084460
0.261797 0.196160 0.150894
0.294607 0.203945 0.151312
0.293298 0.219998 0.179878
0.260537 0.208543 0.180203
0.216327 0.351498 0.072552
0.249137 0.359283 0.072970
0.247828 0.375337 0.101536
0.215067 0.363881 0.101860
0.170223 0.237316 0.185965
0.199749 0.224080 0.193738
0.214074 0.245927 0.227780
0.185207 0.256517 0.221510
0.246280 0.361616 0.080608
0.275806 0.348380 0.088382
0.290131 0.370228 0.122424
0.261264 0.380818 0.116154
0.265053 0.209363 0.178918
0.297814 0.220818 0.178593
0.279378 0.231210 0.212960
0.210549 0.363086 0.103198
0.243309 0.374542 0.102873
0.224873 0.384933 0.137240
0.307254 0.224292 0.177501
0.337706 0.240748 0.175211
0.319421 0.247101 0.210904
0.288818 0.234684 0.211868
0.233915 0.371093 0.103974
0.264367 0.387548 0.101684
0.246082 0.393902 0.137378
0.215479 0.381485 0.138341
0.344451 0.244159 0.174513
0.371785 0.261000 0.175687
0.352965 0.267697 0.209961
0.326167 0.250512 0.210206
0.257679 0.384169 0.102381
0.285012 0.401011 0.103555
0.266193 0.407708 0.137829
0.239394 0.390523 0.138075
0.189265 0.252828 0.219772
0.218132 0.242238 0.226042
0.231018 0.262585 0.260269
0.204250 0.272030 0.255318
0.257235 0.384547 0.117961
0.286101 0.373957 0.124231
0.298987 0.394303 0.158458
0.272219 0.403749 0.153507
0.284403 0.231181 0.208709
0.315006 0.243598 0.207745
0.297289 0.251527 0.242935
0.219874 0.385006 0.141559
0.250477 0.397423 0.140595
0.232760 0.405352 0.175785
0.327047 0.251972 0.211902
0.353845 0.269157 0.211656
0.335026 0.275854 0.245930
0.309329 0.259901 0.247092
0.238478 0.389077 0.136449
0.265276 0.406262 0.136203
0.246457 0.412958 0.170478
0.220760 0.397006 0.171639
0.297699 0.205978 0.153323
0.296476 0.192003 0.124160
0.330024 0.200920 0.123808
0.329309 0.218299 0.151870
0.246111 0.357240 0.070900
0.244888 0.343265 0.041737
0.278436 0.352182 0.041385
0.277721 0.369562 0.069447
0.369208 0.244421 0.156198
0.339635 0.227849 0.159778
0.340350 0.210469 0.131716
0.372724 0.223336 0.129397
0.297032 0.376610 0.057955
0.267459 0.360038 0.061535
0.268174 0.342658 0.033473
0.300548 0.355526 0.031154
0.385849 0.260995 0.160481
0.389365 0.239911 0.133679
0.417304 0.259273 0.127845
0.408433 0.284058 0.155813
0.280447 0.360072 0.053665
0.283963 0.338987 0.026864
0.311903 0.358350 0.021029
0.303031 0.383134 0.048997
0.424993 0.303390 0.151140
0.433865 0.278605 0.123172
0.452285 0.305996 0.113989
0.286511 0.363834 0.053649
0.295382 0.339049 0.025681
0.313802 0.366440 0.016499
0.416813 0.282142 0.143697
0.389521 0.279536 0.180847
0.394229 0.259080 0.148365
0.294634 0.385079 0.061163
0.267343 0.382473 0.098314
0.272051 0.362016 0.065831
0.340986 0.249658 0.186704
0.343454 0.229471 0.158975
0.373027 0.246044 0.155395
0.368319 0.266500 0.187877
0.261166 0.378642 0.090126
0.263634 0.358455 0.062397
0.293207 0.375027 0.058817
0.288500 0.395484 0.091299
0.335699 0.245454 0.184955
0.305247 0.228998 0.187245
0.306557 0.212945 0.158679
0.338167 0.225267 0.157227
0.266394 0.382816 0.091877
0.235942 0.366361 0.094167
0.237252 0.350307 0.065601
0.268862 0.362629 0.064148
0.218208 0.571635 -0.079157
0.245713 0.579995 -0.076752
0.243273 0.560127 -0.113474
0.217411 0.563824 -0.115427
0.227720 0.403594 -0.015857
0.255226 0.411953 -0.013452
0.252786 0.392086 -0.050175
0.226924 0.395782 -0.052128
0.250538 0.571986 -0.093123
0.278735 0.576589 -0.091087
0.274342 0.550284 -0.127451
0.248098 0.552118 -0.129846
0.250454 0.419965 0.002924
0.278651 0.424568 0.004959
0.274257 0.398264 -0.031405
0.248014 0.400098 -0.033799
0.284458 0.571546 -0.097968
0.312949 0.571952 -0.096371
0.305827 0.543515 -0.131965
0.280065 0.545241 -0.134331
0.272982 0.429613 0.011844
0.301473 0.430018 0.013441
0.294351 0.401582 -0.022153
0.268589 0.403308 -0.024520
0.319912 0.569227 -0.098611
0.348178 0.564925 -0.097537
0.338817 0.537663 -0.132112
0.312789 0.540791 -0.134205
0.294565 0.432738 0.015685
0.322831 0.428436 0.016759
0.313470 0.401174 -0.017816
0.287442 0.404302 -0.019909
0.357307 0.563122 -0.096906
0.384338 0.553731 -0.096451
0.373219 0.529644 -0.130134
0.347946 0.535860 -0.131482
0.313756 0.430227 0.016131
0.340787 0.420836 0.016587
0.329668 0.396750 -0.017096
0.304395 0.402965 -0.018444
0.396627 0.550143 -0.094451
0.421229 0.535736 -0.094672
0.408932 0.514220 -0.128195
0.385508 0.526057 -0.128135
0.328548 0.424402 0.014589
0.353150 0.409995 0.014368
0.340853 0.388479 -0.019155
0.317429 0.400316 -0.019095
0.435222 0.526669 -0.093838
0.456745 0.507525 -0.094739
0.440533 0.486310 -0.129548
0.422925 0.505153 -0.127361
0.339200 0.419029 0.013533
0.360723 0.399884 0.012632
0.344511 0.378670 -0.022177
0.326903 0.397513 -0.019990
0.466162 0.493762 -0.097460
0.483659 0.471142 -0.098957
0.459524 0.448392 -0.136454
0.449950 0.472548 -0.132269
0.351339 0.413604 0.015348
0.368836 0.390983 0.013851
0.344702 0.368234 -0.023646
0.335127 0.392390 -0.019461
0.199649 0.575448 -0.004624
0.228064 0.581869 -0.004600
0.227486 0.582903 -0.044859
0.199980 0.574544 -0.047264
0.245619 0.401603 -0.005033
0.274034 0.408025 -0.005009
0.273455 0.409059 -0.045267
0.245949 0.400699 -0.047672
0.238415 0.583879 -0.000839
0.267141 0.587289 -0.000818
0.266033 0.589515 -0.039062
0.237836 0.584912 -0.041098
0.263739 0.406027 -0.008768
0.292465 0.409438 -0.008746
0.291357 0.411664 -0.046990
0.263161 0.407061 -0.049026
0.278830 0.588090 0.000914
0.307762 0.588222 0.000933
0.306213 0.590721 -0.035733
0.277722 0.590315 -0.037330
0.280834 0.408642 -0.010476
0.309765 0.408774 -0.010457
0.308217 0.411274 -0.047123
0.279725 0.410868 -0.048720
0.320838 0.587480 -0.000227
0.349616 0.584005 -0.000211
0.347555 0.585677 -0.035819
0.319290 0.589980 -0.036893
0.296746 0.409513 -0.009295
0.325524 0.406037 -0.009279
0.323464 0.407709 -0.044887
0.295198 0.412012 -0.045962
0.363736 0.581041 -0.005068
0.391691 0.573728 -0.005055
0.388706 0.573322 -0.040220
0.361675 0.582713 -0.040676
0.311460 0.408989 -0.004421
0.339416 0.401675 -0.004408
0.336431 0.401270 -0.039574
0.309400 0.410661 -0.040029
0.405636 0.567679 -0.013746
0.432343 0.556368 -0.013737
0.427253 0.552866 -0.049131
0.402651 0.567273 -0.048911
0.325524 0.407703 0.004283
0.352231 0.396392 0.004291
0.347141 0.392890 -0.031103
0.322540 0.407297 -0.030883
0.444214 0.546864 -0.025214
0.468823 0.531785 -0.025210
0.460646 0.524217 -0.061509
0.439124 0.543362 -0.060608
0.340409 0.405867 0.015767
0.365018 0.390788 0.015772
0.356842 0.383219 -0.020528
0.335319 0.402364 -0.019627
0.476797 0.520107 -0.036955
0.499109 0.501411 -0.036955
0.486118 0.489918 -0.074753
0.468620 0.512539 -0.073255
0.357088 0.402428 0.027516
0.379400 0.383732 0.027516
0.366409 0.372239 -0.010281
0.348911 0.394860 -0.008783
0.423372 0.477584 -0.133270
0.447506 0.500333 -0.095773
0.493405 0.494814 -0.082912
0.479069 0.474121 -0.117306
0.380919 0.339015 -0.026819
0.405053 0.361765 0.010678
0.450952 0.356246 0.023540
0.436616 0.335552 -0.010855
0.447136 0.513637 -0.071343
0.460128 0.525130 -0.033546
0.499062 0.513732 -0.033529
0.493035 0.508118 -0.058481
0.405452 0.348491 -0.013685
0.418444 0.359984 0.024112
0.457378 0.348586 0.024129
0.451351 0.342972 -0.000823
0.475889 0.475633 -0.116481
0.490225 0.496327 -0.082086
0.534456 0.486778 -0.081315
0.531586 0.472170 -0.100517
0.439897 0.334029 -0.011658
0.454232 0.354722 0.022737
0.498463 0.345173 0.023508
0.495593 0.330566 0.004306
0.493858 0.510665 -0.048867
0.499885 0.516279 -0.023915
0.538819 0.504881 -0.023898
0.538089 0.501116 -0.048097
0.450612 0.340407 -0.010430
0.456639 0.346021 0.014522
0.495573 0.334624 0.014539
0.494843 0.330858 -0.009660
0.398958 0.327627 -0.162953
0.411400 0.362853 -0.163498
0.468199 0.366723 -0.154431
0.459584 0.337072 -0.152316
0.367416 0.345092 0.013216
0.379858 0.380318 0.012670
0.436657 0.384188 0.021737
0.428042 0.354537 0.023853
0.415134 0.364926 -0.162931
0.421629 0.401580 -0.167577
0.477327 0.398117 -0.151613
0.471933 0.368797 -0.153863
0.376140 0.378310 0.012100
0.382636 0.414964 0.007453
0.438333 0.411501 0.023417
0.432939 0.382180 0.021167
0.460121 0.332464 -0.151638
0.468736 0.362115 -0.153754
0.525429 0.365647 -0.144565
0.520747 0.341909 -0.141001
0.427623 0.359158 0.023195
0.436238 0.388809 0.021079
0.492931 0.392341 0.030268
0.488250 0.368603 0.033832
0.471836 0.390701 -0.152812
0.477230 0.420022 -0.150562
0.532927 0.416559 -0.134598
0.528530 0.394232 -0.143624
0.433149 0.360276 0.020141
0.438542 0.389597 0.022391
0.494239 0.386134 0.038355
0.489842 0.363808 0.029330
0.403127 0.264331 -0.124870
0.463754 0.273776 -0.114232
0.476141 0.258578 -0.087483
0.425074 0.248253 -0.092907
0.363253 0.408340 -0.024837
0.423879 0.417785 -0.014200
0.436267 0.402587 0.012550
0.385199 0.392262 0.007126
0.420478 0.233055 -0.058556
0.471546 0.243381 -0.053133
0.470124 0.234934 -0.020502
0.425940 0.229492 -0.020536
0.389815 0.407438 -0.027160
0.440882 0.417763 -0.021736
0.439460 0.409316 0.010894
0.395276 0.403875 0.010861
0.460200 0.277282 -0.120100
0.520827 0.286727 -0.109463
0.517309 0.268924 -0.093171
0.472588 0.262084 -0.093351
0.427541 0.414298 -0.008318
0.488168 0.423743 0.002319
0.484650 0.405940 0.018611
0.439929 0.399100 0.018431
0.468190 0.244626 -0.060961
0.512911 0.251467 -0.060782
0.510954 0.241621 -0.028298
0.466769 0.236179 -0.028331
0.444329 0.416532 -0.013904
0.489050 0.423372 -0.013725
0.487093 0.413526 0.018760
0.442908 0.408085 0.018726
0.397899 0.295836 -0.194383
0.414425 0.326918 -0.196086
0.439625 0.331537 -0.158317
0.425141 0.298383 -0.157192
0.259369 0.366678 -0.104239
0.275895 0.397761 -0.105942
0.301095 0.402379 -0.068173
0.286611 0.369225 -0.067048
0.416745 0.363077 -0.205421
0.413264 0.398102 -0.204992
0.443452 0.403535 -0.169760
0.441945 0.367696 -0.167651
0.273589 0.361670 -0.096610
0.270108 0.396695 -0.096181
0.300297 0.402128 -0.060949
0.298790 0.366288 -0.058840
0.426890 0.304710 -0.158964
0.441374 0.337864 -0.160089
0.466574 0.342482 -0.122319
0.454132 0.307257 -0.121774
0.284915 0.362906 -0.065201
0.299399 0.396059 -0.066326
0.324599 0.400678 -0.028556
0.312157 0.365452 -0.028011
0.442131 0.354170 -0.165871
0.443638 0.390010 -0.167980
0.473826 0.395443 -0.132748
0.467331 0.358789 -0.128102
0.298659 0.379823 -0.060547
0.300167 0.415663 -0.062656
0.330355 0.421096 -0.027424
0.323859 0.384442 -0.022778
0.342519 0.498756 -0.194089
0.353949 0.516945 -0.160598
0.376402 0.505833 -0.163128
0.364941 0.486777 -0.200929
0.287803 0.354772 -0.101300
0.299232 0.372961 -0.067808
0.321686 0.361849 -0.070338
0.310224 0.342793 -0.108139
0.316002 0.511831 -0.187614
0.326334 0.526459 -0.158706
0.349589 0.518322 -0.160807
0.338159 0.500134 -0.194299
0.269960 0.365114 -0.094396
0.280293 0.379742 -0.065488
0.303547 0.371606 -0.067589
0.292118 0.353417 -0.101081
0.286274 0.524873 -0.178322
0.293097 0.536992 -0.151996
0.320308 0.530379 -0.154796
0.309976 0.515751 -0.183704
0.252236 0.370334 -0.092916
0.259059 0.382452 -0.066590
0.286270 0.375839 -0.069390
0.275938 0.361211 -0.098298
0.248710 0.530343 -0.173398
0.254009 0.543286 -0.147135
0.281273 0.540282 -0.148882
0.274450 0.528163 -0.175208
0.238269 0.369234 -0.094214
0.243567 0.382177 -0.067951
0.270831 0.379173 -0.069698
0.264008 0.367054 -0.096024
0.210527 0.537226 -0.156282
0.238456 0.539614 -0.153001
0.233158 0.526671 -0.179264
0.209194 0.517795 -0.183272
0.231138 0.383457 -0.065367
0.259067 0.385845 -0.062086
0.253769 0.372902 -0.088349
0.229805 0.364026 -0.092357
0.254495 0.552189 -0.129301
0.255230 0.538844 -0.154962
0.227301 0.536456 -0.158243
0.228634 0.555886 -0.131254
0.241561 0.399993 -0.034411
0.242297 0.386648 -0.060072
0.214367 0.384259 -0.063353
0.215700 0.403690 -0.036364
0.282032 0.554440 -0.119390
0.283788 0.539925 -0.149193
0.256524 0.542929 -0.147446
0.255789 0.556274 -0.121785
0.266565 0.394071 -0.039530
0.268321 0.379556 -0.069333
0.241057 0.382560 -0.067586
0.240321 0.395905 -0.041925
0.312238 0.551825 -0.117686
0.315443 0.532423 -0.152656
0.288232 0.539036 -0.149856
0.286476 0.553552 -0.120053
0.287936 0.393227 -0.036500
0.291141 0.373825 -0.071470
0.263930 0.380438 -0.068670
0.262174 0.394953 -0.038867
0.343574 0.545700 -0.119241
0.344006 0.521289 -0.158405
0.320751 0.529426 -0.156304
0.317546 0.548827 -0.121334
0.308707 0.393087 -0.030760
0.309139 0.368677 -0.069924
0.285884 0.376813 -0.067823
0.282679 0.396215 -0.032853
0.107772 0.230515 -0.058615
0.123648 0.201148 -0.065068
0.123349 0.199807 -0.005797
0.107737 0.230473 -0.005783
0.267077 0.313911 -0.057111
0.282953 0.284544 -0.063564
0.282654 0.283203 -0.004293
0.267042 0.313869 -0.004279
0.091345 0.269992 -0.052983
0.104047 0.238564 -0.057942
0.104012 0.238522 -0.005110
0.091313 0.269954 -0.005093
0.258071 0.337352 -0.052819
0.270774 0.305924 -0.057778
0.270739 0.305882 -0.004946
0.258040 0.337314 -0.004929
0.079184 0.314017 -0.049379
0.087635 0.281254 -0.052974
0.087604 0.281216 -0.005084
0.079154 0.313982 -0.005064
0.253308 0.358918 -0.049228
0.261759 0.326154 -0.052823
0.261728 0.326116 -0.004934
0.253278 0.358883 -0.004913
0.073633 0.362336 -0.046990
0.076694 0.328423 -0.049367
0.076664 0.328388 -0.005053
0.073605 0.362303 -0.005028
0.252725 0.378492 -0.046858
0.255786 0.344579 -0.049236
0.255757 0.344544 -0.004922
0.252698 0.378459 -0.004897
0.077613 0.414168 -0.045770
0.073831 0.380481 -0.046974
0.073803 0.380447 -0.005013
0.077586 0.414136 -0.004983
0.256310 0.394102 -0.045668
0.252528 0.360415 -0.046872
0.252500 0.360381 -0.004910
0.256283 0.394070 -0.004881
0.094232 0.467106 -0.045601
0.082512 0.435002 -0.045750
0.082485 0.434970 -0.004963
0.094205 0.467074 -0.004930
0.263147 0.405438 -0.045538
0.251427 0.373334 -0.045688
0.251400 0.373302 -0.004901
0.263120 0.405405 -0.004867
0.123708 0.515176 -0.046265
0.104474 0.487032 -0.045578
0.104447 0.486999 -0.004908
0.123680 0.515143 -0.004873
0.272171 0.413717 -0.046247
0.252937 0.385572 -0.045561
0.252910 0.385540 -0.004890
0.272143 0.413684 -0.004855
0.136003 0.529619 -0.047196
0.135976 0.529586 -0.005804
0.160649 0.553657 -0.005768
0.160980 0.552753 -0.048408
0.259920 0.399326 -0.045317
0.259892 0.399293 -0.003925
0.284566 0.423363 -0.003889
0.284897 0.422459 -0.046529
0.136566 0.528789 -0.059611
0.161543 0.551922 -0.060822
0.160747 0.544111 -0.097093
0.138216 0.522453 -0.095618
0.259357 0.400148 -0.032981
0.284334 0.423282 -0.034192
0.283538 0.415470 -0.070463
0.261007 0.393812 -0.068988
0.104578 0.485505 -0.058553
0.123812 0.513650 -0.059240
0.125462 0.507314 -0.095247
0.108450 0.481126 -0.094898
0.252835 0.387094 -0.032663
0.272069 0.415238 -0.033350
0.273719 0.408902 -0.069357
0.256707 0.382714 -0.069008
0.083015 0.433151 -0.059724
0.094736 0.465254 -0.059575
0.098608 0.460875 -0.095920
0.089121 0.431048 -0.096812
0.250928 0.375182 -0.031791
0.262648 0.407286 -0.031642
0.266520 0.402907 -0.067986
0.257034 0.373080 -0.068879
0.075262 0.378862 -0.063783
0.079044 0.412550 -0.062580
0.085150 0.410447 -0.099667
0.083326 0.379462 -0.101510
0.251104 0.362032 -0.030142
0.254886 0.395720 -0.028938
0.260992 0.393617 -0.066025
0.259167 0.362632 -0.067869
0.078991 0.328495 -0.069507
0.075930 0.362408 -0.067130
0.083994 0.363007 -0.104857
0.087965 0.332153 -0.107191
0.253497 0.344509 -0.029177
0.250436 0.378422 -0.026799
0.258499 0.379022 -0.064526
0.262471 0.348167 -0.066861
0.089864 0.284020 -0.075274
0.081412 0.316784 -0.071679
0.090386 0.320442 -0.109362
0.098199 0.289953 -0.111796
0.259540 0.323393 -0.030607
0.251088 0.356156 -0.027011
0.260062 0.359814 -0.064695
0.267875 0.329325 -0.067128
0.104769 0.244263 -0.079594
0.092067 0.275691 -0.074634
0.100402 0.281623 -0.111156
0.110185 0.252161 -0.113312
0.270059 0.300232 -0.036212
0.257356 0.331660 -0.031253
0.265691 0.337593 -0.067774
0.275475 0.308130 -0.069930
0.105932 0.237719 -0.073795
0.111349 0.245617 -0.107513
0.121899 0.216267 -0.109113
0.121808 0.208352 -0.080248
0.268920 0.306716 -0.042019
0.274336 0.314614 -0.075737
0.284886 0.285264 -0.077336
0.284796 0.277349 -0.048472
0.155250 0.323625 -0.244910
0.140218 0.304367 -0.209415
0.141757 0.344119 -0.218049
0.147970 0.348200 -0.251357
0.321742 0.352860 -0.183584
0.306710 0.333602 -0.148088
0.308249 0.373355 -0.156723
0.314462 0.377436 -0.190030
0.149449 0.387357 -0.248923
0.143235 0.383276 -0.215616
0.150418 0.437194 -0.208468
0.163108 0.409047 -0.250814
0.312992 0.338349 -0.192469
0.306779 0.334268 -0.159162
0.313962 0.388186 -0.152014
0.326651 0.360039 -0.194361
0.113910 0.253595 -0.125549
0.126964 0.248684 -0.152103
0.124461 0.224246 -0.127149
0.271783 0.306650 -0.057749
0.284837 0.301739 -0.084303
0.282333 0.277300 -0.059349
0.163190 0.517683 -0.149223
0.141991 0.515455 -0.120758
0.164522 0.537113 -0.122233
0.278437 0.403025 -0.072366
0.257239 0.400798 -0.043902
0.279770 0.422456 -0.045377
0.123459 0.289943 -0.159719
0.128106 0.258527 -0.160080
0.115052 0.263439 -0.133527
0.105269 0.292901 -0.131371
0.279037 0.323359 -0.075970
0.283685 0.291944 -0.076332
0.270631 0.296855 -0.049778
0.260847 0.326318 -0.047622
0.109329 0.298585 -0.139760
0.101516 0.329074 -0.137327
0.123267 0.327099 -0.166474
0.127519 0.295627 -0.168108
0.256774 0.320695 -0.039229
0.248961 0.351184 -0.036796
0.270712 0.349209 -0.065943
0.274964 0.317737 -0.067577
0.126062 0.335545 -0.171403
0.104311 0.337520 -0.142256
0.100339 0.368375 -0.139922
0.124205 0.367318 -0.169244
0.267908 0.340825 -0.061009
0.246157 0.342800 -0.031862
0.242186 0.373655 -0.029528
0.266052 0.372598 -0.058850
0.102450 0.379406 -0.141984
0.104275 0.410392 -0.140141
0.128879 0.410008 -0.169277
0.126317 0.378349 -0.171307
0.240073 0.362686 -0.027461
0.241898 0.393672 -0.025618
0.266503 0.393288 -0.054754
0.263940 0.361629 -0.056784
0.130721 0.423643 -0.167832
0.106117 0.424027 -0.138696
0.115603 0.453854 -0.137804
0.139214 0.454080 -0.166582
0.264672 0.379714 -0.056195
0.240068 0.380098 -0.027060
0.249554 0.409925 -0.026168
0.273164 0.410151 -0.054946
0.141085 0.469651 -0.160128
0.117474 0.469425 -0.131350
0.134487 0.495613 -0.131698
0.155685 0.497841 -0.160163
0.271318 0.394637 -0.061400
0.247708 0.394410 -0.032621
0.264720 0.420598 -0.032970
0.285918 0.422826 -0.061434
0.129464 0.471864 -0.135593
0.144064 0.500054 -0.135628
0.142731 0.480623 -0.162618
0.282965 0.392421 -0.085981
0.297566 0.420611 -0.086016
0.296233 0.401180 -0.113005
0.119384 0.262678 -0.139209
0.114736 0.294093 -0.138847
0.121888 0.287117 -0.164163
0.292426 0.287795 -0.097247
0.287778 0.319211 -0.096886
0.294930 0.312234 -0.122202
0.296226 0.333870 -0.109488
0.279231 0.337055 -0.079883
0.283483 0.305583 -0.081517
0.290634 0.298606 -0.106833
0.131775 0.336060 -0.182196
0.114780 0.339245 -0.152590
0.119032 0.307773 -0.154224
0.126183 0.300796 -0.179540
0.296226 0.333870 -0.109488
0.279231 0.337055 -0.079883
0.283483 0.305583 -0.081517
0.290634 0.298606 -0.106833
0.131775 0.336060 -0.182196
0.114780 0.339245 -0.152590
0.119032 0.307773 -0.154224
0.126183 0.300796 -0.179540
0.121575 0.376819 -0.165295
0.145358 0.376808 -0.194697
0.140426 0.341861 -0.197060
0.123431 0.345046 -0.167454
0.268726 0.363094 -0.062858
0.292510 0.363083 -0.092260
0.287578 0.328136 -0.094623
0.270582 0.331320 -0.065017
0.125926 0.379720 -0.170615
0.128489 0.411379 -0.168585
0.152313 0.415090 -0.196835
0.149710 0.379709 -0.200017
0.264379 0.360259 -0.057533
0.266941 0.391918 -0.055503
0.290765 0.395629 -0.083753
0.288162 0.360249 -0.086935
0.134896 0.402005 -0.164038
0.132832 0.437490 -0.161563
0.145522 0.409343 -0.203909
0.308214 0.408779 -0.116601
0.306150 0.444264 -0.114126
0.318840 0.416117 -0.156473
0.124255 0.310816 -0.172821
0.129847 0.346080 -0.175477
0.139286 0.330074 -0.208316
0.292583 0.288583 -0.113602
0.298175 0.323846 -0.116258
0.307614 0.307841 -0.149098
0.137485 0.364658 -0.207123
0.135946 0.324905 -0.198488
0.126507 0.340911 -0.165648
0.131439 0.375858 -0.163286
0.312503 0.352818 -0.167577
0.310964 0.313065 -0.158942
0.301525 0.329070 -0.126102
0.306457 0.364018 -0.123740
0.131621 0.381624 -0.161442
0.134224 0.417004 -0.158260
0.144850 0.424342 -0.198131
0.137667 0.370423 -0.205279
0.306283 0.358334 -0.125581
0.308886 0.393715 -0.122399
0.319512 0.401052 -0.162270
0.312329 0.347134 -0.169418
0.406007 0.420570 -0.212598
0.434603 0.427539 -0.177336
0.440274 0.408664 -0.173419
0.410085 0.403231 -0.208651
0.269202 0.408958 -0.096474
0.297798 0.415927 -0.061212
0.303469 0.397052 -0.057295
0.273281 0.391619 -0.092527
0.358252 0.513708 -0.162722
0.383093 0.531903 -0.122210
0.406517 0.520065 -0.122270
0.380706 0.502596 -0.165252
0.294966 0.376235 -0.065607
0.319807 0.394430 -0.025095
0.343231 0.382592 -0.025155
0.317419 0.365123 -0.068137
0.302212 0.373883 -0.068828
0.319346 0.361796 -0.071368
0.345631 0.372509 -0.028034
0.328023 0.391352 -0.025847
0.395954 0.493809 -0.164564
0.413088 0.481722 -0.167103
0.439373 0.492436 -0.123769
0.421765 0.511278 -0.121582
0.302212 0.373883 -0.068828
0.319346 0.361796 -0.071368
0.345631 0.372509 -0.028034
0.328023 0.391352 -0.025847
0.395954 0.493809 -0.164564
0.413088 0.481722 -0.167103
0.439373 0.492436 -0.123769
0.421765 0.511278 -0.121582
0.346904 0.543739 -0.121104
0.372177 0.537524 -0.119756
0.347336 0.519329 -0.160267
0.305418 0.395046 -0.028883
0.330691 0.388831 -0.027536
0.305850 0.370636 -0.068047
0.404582 0.416876 -0.214481
0.408661 0.399538 -0.210534
0.379343 0.395604 -0.243457
0.270579 0.412637 -0.094646
0.274658 0.395298 -0.090699
0.245340 0.391364 -0.123622
0.361185 0.439269 -0.243555
0.328013 0.430053 -0.277621
0.348534 0.452455 -0.243797
0.263431 0.347684 -0.123589
0.230259 0.338468 -0.157656
0.250780 0.360870 -0.123832
0.201987 0.511826 -0.190239
0.225951 0.520702 -0.186232
0.214677 0.483679 -0.232585
0.237010 0.369957 -0.085445
0.260974 0.378833 -0.081438
0.249700 0.341810 -0.127792
0.228158 0.486954 -0.230788
0.249554 0.491870 -0.225281
0.240848 0.458807 -0.273134
0.236243 0.338476 -0.129674
0.257639 0.343391 -0.124167
0.248933 0.310329 -0.172020
0.347368 0.486979 -0.206187
0.369789 0.474999 -0.213027
0.344550 0.453727 -0.242003
0.331899 0.466912 -0.242245
0.282922 0.366511 -0.089270
0.305344 0.354531 -0.096110
0.280104 0.333258 -0.125086
0.267454 0.346444 -0.125329
0.333579 0.498743 -0.198332
0.318110 0.478676 -0.234390
0.295890 0.486773 -0.229101
0.311421 0.510440 -0.191647
0.296672 0.354769 -0.097116
0.281203 0.334702 -0.133174
0.258982 0.342799 -0.127886
0.274514 0.366466 -0.090431
0.300728 0.510298 -0.194537
0.285197 0.486631 -0.231992
0.261410 0.489492 -0.228193
0.277027 0.519421 -0.189156
0.285161 0.366624 -0.087530
0.269629 0.342957 -0.124984
0.245843 0.345818 -0.121185
0.261459 0.375747 -0.082148
0.253852 0.488374 -0.230212
0.232456 0.483458 -0.235719
0.243730 0.520481 -0.189365
0.269469 0.518302 -0.191175
0.253353 0.346941 -0.119163
0.231957 0.342026 -0.124670
0.243230 0.379049 -0.078316
0.268970 0.376870 -0.080126
0.250326 0.492847 -0.223872
0.274113 0.489986 -0.227672
0.257766 0.466295 -0.265011
0.241619 0.459785 -0.271726
0.256899 0.342408 -0.125586
0.280685 0.339547 -0.129386
0.264339 0.315856 -0.166725
0.248192 0.309346 -0.173440
0.316114 0.476714 -0.237723
0.295592 0.454312 -0.271547
0.277547 0.461120 -0.269774
0.293893 0.484811 -0.232435
0.283165 0.336619 -0.129913
0.262644 0.314217 -0.163737
0.244598 0.321025 -0.161964
0.260945 0.344716 -0.124625
0.362463 0.320265 -0.266767
0.368652 0.344512 -0.266454
0.392595 0.341179 -0.233174
0.381237 0.313514 -0.232479
0.219618 0.369265 -0.169148
0.225807 0.393512 -0.168835
0.249750 0.390179 -0.135554
0.238392 0.362514 -0.134859
0.357408 0.407770 -0.272066
0.339323 0.422977 -0.272066
0.372495 0.432194 -0.238000
0.381351 0.404436 -0.238786
0.237046 0.330303 -0.163222
0.218960 0.345510 -0.163222
0.252132 0.354727 -0.129156
0.260989 0.326969 -0.129942
0.377726 0.303825 -0.231658
0.389084 0.331490 -0.232353
0.413027 0.328156 -0.199072
0.396501 0.297074 -0.197369
0.241945 0.372193 -0.135613
0.253303 0.399858 -0.136308
0.277245 0.396524 -0.103028
