0.554397 0.111852 -0.737865
0.561964 0.103905 -0.768604
0.598868 0.153910 -0.768829
0.544309 0.193952 -0.758121
0.508838 0.145168 -0.758045
0.516405 0.137220 -0.788784
0.553309 0.187225 -0.789009
0.550837 0.184047 -0.696904
0.518925 0.140408 -0.696722
0.546441 0.117769 -0.724214
0.581912 0.166553 -0.724290
0.521152 0.205556 -0.744327
0.489240 0.161918 -0.744145
0.516757 0.139278 -0.771637
0.552227 0.188063 -0.771713
0.495496 0.216733 -0.685838
0.468308 0.180142 -0.685733
0.506510 0.149479 -0.690597
0.538422 0.193118 -0.690780
0.490571 0.220148 -0.745477
0.463384 0.183556 -0.745373
0.501586 0.152894 -0.750237
0.533497 0.196532 -0.750420
0.437646 0.252449 -0.712069
0.415788 0.223360 -0.711988
0.455943 0.189319 -0.688257
0.483130 0.225910 -0.688361
0.457369 0.237567 -0.766680
0.435511 0.208478 -0.766598
0.475666 0.174437 -0.742868
0.502853 0.211028 -0.742972
0.562543 0.092613 -0.807135
0.516486 0.049415 -0.806948
0.513968 0.047712 -0.830689
0.560272 0.090677 -0.830806
0.521660 0.136440 -0.806368
0.475603 0.093241 -0.806181
0.473085 0.091539 -0.829923
0.519389 0.134504 -0.830039
0.559351 0.099270 -0.772479
0.514522 0.056097 -0.772397
0.516247 0.050093 -0.800295
0.562304 0.093291 -0.800482
0.518947 0.141748 -0.784967
0.474117 0.098575 -0.784885
0.475843 0.092571 -0.812782
0.521900 0.135769 -0.812969
0.551235 0.108156 -0.737984
0.507955 0.066242 -0.737661
0.513972 0.057036 -0.768641
0.558802 0.100209 -0.768723
0.511921 0.148771 -0.757925
0.468641 0.106857 -0.757601
0.474658 0.097651 -0.788582
0.519488 0.140824 -0.788664
0.516826 0.138012 -0.696705
0.477800 0.100523 -0.696558
0.501063 0.073459 -0.723874
0.544342 0.115373 -0.724197
0.491264 0.164228 -0.744161
0.452238 0.126738 -0.744015
0.475501 0.099674 -0.771330
0.518781 0.141588 -0.771654
0.467874 0.179723 -0.685727
0.434760 0.148392 -0.685710
0.467050 0.111570 -0.690445
0.506076 0.149060 -0.690591
0.463752 0.183902 -0.745379
0.430638 0.152571 -0.745362
0.462928 0.115749 -0.750097
0.501954 0.153239 -0.750243
0.417180 0.224900 -0.711985
0.390600 0.200049 -0.711917
0.424221 0.159528 -0.688237
0.457335 0.190858 -0.688254
0.434064 0.206878 -0.766601
0.407484 0.182027 -0.766533
0.441105 0.141506 -0.742854
0.474219 0.172837 -0.742871
0.512180 0.046069 -0.807011
0.459180 0.011551 -0.807068
0.456381 0.010679 -0.830700
0.509662 0.044367 -0.830752
0.479810 0.096509 -0.806118
0.426810 0.061991 -0.806176
0.424011 0.061118 -0.829808
0.477292 0.094807 -0.829860
0.510356 0.052751 -0.772564
0.458517 0.018589 -0.772415
0.459082 0.012229 -0.800518
0.512082 0.046747 -0.800461
0.478185 0.101844 -0.784718
0.426345 0.067681 -0.784570
0.426911 0.061321 -0.812673
0.479910 0.095839 -0.812616
0.503986 0.062946 -0.737869
0.453977 0.029196 -0.737794
0.458163 0.019578 -0.768701
0.510002 0.053740 -0.768850
0.472516 0.110077 -0.757393
0.422508 0.076326 -0.757317
0.426693 0.066708 -0.788225
0.478533 0.100871 -0.788373
0.475270 0.098442 -0.696567
0.430375 0.068264 -0.696289
0.448525 0.037628 -0.723807
0.498533 0.071379 -0.723882
0.454680 0.128747 -0.744006
0.409785 0.098568 -0.743729
0.427934 0.067932 -0.771246
0.477943 0.101683 -0.771321
0.434294 0.148158 -0.685698
0.396221 0.123037 -0.685682
0.421689 0.081158 -0.690156
0.466584 0.111336 -0.690433
0.431027 0.152743 -0.745373
0.392954 0.127621 -0.745357
0.418422 0.085742 -0.749831
0.463317 0.115921 -0.750108
0.392261 0.201331 -0.711909
0.361775 0.181468 -0.711871
0.387809 0.135689 -0.688213
0.425882 0.160811 -0.688229
0.405759 0.180694 -0.766541
0.375273 0.160831 -0.766504
0.401307 0.115052 -0.742845
0.439380 0.140173 -0.742862
0.454845 0.009240 -0.806960
0.397059 -0.015729 -0.806654
0.394156 -0.016740 -0.830542
0.452045 0.008367 -0.830593
0.431035 0.064244 -0.806283
0.373250 0.039275 -0.805978
0.370346 0.038264 -0.829865
0.428235 0.063371 -0.829916
0.454216 0.016219 -0.772564
0.397466 -0.009141 -0.772362
0.396996 -0.015109 -0.800362
0.454782 0.009859 -0.800667
0.430536 0.069991 -0.784421
0.373785 0.044631 -0.784218
0.373315 0.038663 -0.812218
0.431101 0.063631 -0.812524
0.449869 0.026824 -0.738037
0.394928 0.002080 -0.737563
0.397303 -0.008154 -0.768742
0.454054 0.017206 -0.768945
0.426509 0.078639 -0.757073
0.371568 0.053894 -0.756599
0.373944 0.043661 -0.787778
0.430695 0.069021 -0.787981
0.427594 0.066761 -0.696249
0.378027 0.044823 -0.696124
0.390802 0.011381 -0.723292
0.445743 0.036126 -0.723766
0.412467 0.100015 -0.743769
0.362900 0.078078 -0.743644
0.375675 0.044635 -0.770812
0.430616 0.069380 -0.771286
0.395645 0.122855 -0.685670
0.353813 0.104726 -0.685710
0.371547 0.059038 -0.690018
0.421113 0.080976 -0.690144
0.393442 0.127755 -0.745369
0.351610 0.109626 -0.745409
0.369343 0.063938 -0.749717
0.418910 0.085876 -0.749842
0.363625 0.182432 -0.711859
0.330148 0.168170 -0.711826
0.347826 0.118524 -0.688241
0.389659 0.136653 -0.688201
0.373352 0.159829 -0.766515
0.339875 0.145567 -0.766482
0.357553 0.095920 -0.742897
0.399385 0.114049 -0.742857
0.389903 -0.017792 -0.807732
0.327953 -0.029542 -0.808064
0.325075 -0.027197 -0.831654
0.387000 -0.018804 -0.831619
0.380286 0.041303 -0.804900
0.318335 0.029554 -0.805233
0.315457 0.031899 -0.828823
0.377382 0.040292 -0.828788
0.391711 -0.011247 -0.773710
0.331301 -0.025463 -0.773454
0.329292 -0.028965 -0.802042
0.391242 -0.017216 -0.801710
0.379421 0.046700 -0.782870
0.319010 0.032484 -0.782614
0.317001 0.028982 -0.811202
0.378951 0.040731 -0.810870
0.390008 0.000246 -0.737957
0.331399 -0.014652 -0.737736
0.331973 -0.024204 -0.768881
0.392383 -0.009988 -0.769137
0.376373 0.055689 -0.756204
0.317764 0.040791 -0.755983
0.318338 0.031239 -0.787127
0.378748 0.045455 -0.787383
0.374813 0.043922 -0.695963
0.322178 0.030979 -0.696083
0.328980 -0.004418 -0.722910
0.387588 0.010479 -0.723131
0.366006 0.078942 -0.743804
0.313370 0.065999 -0.743925
0.320172 0.030602 -0.770752
0.378781 0.045499 -0.770972
0.353254 0.104555 -0.685709
0.308881 0.094008 -0.685722
0.318352 0.045924 -0.690137
0.370988 0.058867 -0.690017
0.352074 0.109766 -0.745410
0.307701 0.099220 -0.745424
0.317172 0.051136 -0.749839
0.369808 0.064078 -0.749719
0.332160 0.168809 -0.711815
0.296717 0.160580 -0.711803
0.305466 0.108616 -0.688244
0.349839 0.119162 -0.688230
0.337785 0.144903 -0.766493
0.302341 0.136674 -0.766481
0.311090 0.084710 -0.742922
0.355463 0.095256 -0.742908
0.323375 -0.029884 -0.808881
0.260740 -0.029884 -0.808939
0.257722 -0.028764 -0.832504
0.320497 -0.027539 -0.832471
0.322788 0.029886 -0.804416
0.260153 0.029886 -0.804474
0.257135 0.031006 -0.828039
0.319910 0.032231 -0.828006
0.325866 -0.026396 -0.776122
0.263608 -0.029647 -0.776425
0.261222 -0.029898 -0.804769
0.323857 -0.029898 -0.804711
0.324321 0.033402 -0.779945
0.262063 0.030151 -0.780248
0.259676 0.029900 -0.808592
0.322312 0.029900 -0.808534
0.326322 -0.015714 -0.738676
0.265837 -0.020170 -0.738468
0.264637 -0.028517 -0.770123
0.326895 -0.025266 -0.769820
0.322721 0.041835 -0.755043
0.262237 0.037379 -0.754835
0.261036 0.029033 -0.786490
0.323295 0.032283 -0.786187
0.318962 0.030708 -0.695904
0.264908 0.027149 -0.696109
0.265280 -0.009146 -0.722523
0.325764 -0.004690 -0.722731
0.316473 0.066253 -0.744103
0.262419 0.062694 -0.744308
0.262791 0.026400 -0.770722
0.323275 0.030856 -0.770930
0.308329 0.093862 -0.685729
0.262777 0.091161 -0.685810
0.263746 0.042219 -0.690349
0.317800 0.045778 -0.690144
0.308155 0.099351 -0.745417
0.262603 0.096650 -0.745498
0.263572 0.047708 -0.750037
0.317626 0.051267 -0.749832
0.298759 0.160858 -0.711794
0.262426 0.158903 -0.711811
0.261956 0.106193 -0.688315
0.307508 0.108894 -0.688234
0.300217 0.136385 -0.766490
0.263883 0.134430 -0.766508
0.263414 0.081719 -0.743012
0.308966 0.084420 -0.742931
0.259864 -0.029899 -0.851956
0.256804 -0.028779 -0.828332
0.194191 -0.027120 -0.828418
0.197039 -0.029222 -0.852168
0.260987 0.029901 -0.855883
0.257927 0.031022 -0.832259
0.195314 0.032680 -0.832345
0.198162 0.030579 -0.856095
0.261523 -0.029820 -0.884681
0.259092 -0.029842 -0.856352
0.196266 -0.029165 -0.856564
0.199522 -0.024852 -0.885146
0.264197 0.029866 -0.879868
0.261765 0.029845 -0.851539
0.198940 0.030522 -0.851751
0.202196 0.034835 -0.880333
0.261404 -0.020732 -0.922251
0.260156 -0.028671 -0.890502
0.198155 -0.023703 -0.890967
0.201109 -0.014096 -0.922036
0.266817 0.036668 -0.905856
0.265569 0.028728 -0.874107
0.203568 0.033696 -0.874572
0.206522 0.043304 -0.905641
0.261854 0.026283 -0.964670
0.262184 -0.009878 -0.938066
0.201889 -0.003242 -0.937852
0.207997 0.032073 -0.964961
0.265713 0.062018 -0.916703
0.266042 0.025858 -0.890099
0.205747 0.032494 -0.889884
0.211856 0.067809 -0.916993
0.262608 0.090294 -0.975285
0.263575 0.041370 -0.970538
0.209718 0.047160 -0.970829
0.217298 0.095564 -0.975338
0.263031 0.095939 -0.915613
0.263998 0.047015 -0.910866
0.210141 0.052806 -0.911157
0.217722 0.101210 -0.915666
0.264685 0.158011 -0.949794
0.264271 0.105116 -0.972886
0.218962 0.110387 -0.972939
0.228564 0.162394 -0.949833
0.261790 0.134113 -0.894901
0.261376 0.081218 -0.917993
0.216067 0.086488 -0.918046
0.225669 0.138495 -0.894940
0.189391 -0.028141 -0.853273
0.186544 -0.026039 -0.829523
0.126108 -0.009552 -0.829618
0.128791 -0.010431 -0.853486
0.205686 0.029516 -0.854990
0.202838 0.031618 -0.831239
0.142403 0.048105 -0.831334
0.145086 0.047226 -0.855202
0.192505 -0.023307 -0.888037
0.189249 -0.027620 -0.859455
0.128649 -0.009910 -0.859668
0.132987 -0.005882 -0.887540
0.209091 0.033310 -0.877442
0.205835 0.028997 -0.848860
0.145235 0.046707 -0.849072
0.149573 0.050734 -0.876945
0.195678 -0.012735 -0.923051
0.192724 -0.022343 -0.891982
0.133206 -0.004918 -0.891485
0.137756 0.004266 -0.922781
0.211833 0.041966 -0.904626
0.208879 0.032359 -0.873556
0.149362 0.049784 -0.873059
0.153912 0.058967 -0.904355
0.204714 0.032442 -0.964747
0.198606 -0.002873 -0.937638
0.140685 0.014128 -0.937367
0.152667 0.047615 -0.964865
0.215026 0.067462 -0.917207
0.208918 0.032148 -0.890098
0.150996 0.049149 -0.889828
0.162979 0.082636 -0.917326
0.216771 0.095693 -0.975342
0.209191 0.047289 -0.970833
0.157143 0.062462 -0.970951
0.173103 0.108766 -0.975569
0.218151 0.101101 -0.915662
0.210571 0.052697 -0.911153
0.158523 0.067870 -0.911272
0.174483 0.114175 -0.915890
0.230651 0.161999 -0.949811
0.221049 0.109992 -0.972917
0.177380 0.123065 -0.973145
0.195838 0.172578 -0.949854
0.223502 0.138907 -0.894962
0.213900 0.086900 -0.918068
0.170231 0.099974 -0.918295
0.188690 0.149487 -0.895005
0.123350 -0.008318 -0.853869
0.120666 -0.007439 -0.830001
0.064575 0.021846 -0.830166
0.066800 0.019397 -0.853786
0.150410 0.045158 -0.854819
0.147727 0.046037 -0.830951
0.091635 0.075322 -0.831117
0.093860 0.072873 -0.854736
0.128298 -0.003970 -0.888006
0.123960 -0.007998 -0.860133
0.067410 0.019717 -0.860050
0.072377 0.023376 -0.888279
0.154146 0.048868 -0.876479
0.149807 0.044840 -0.848607
0.093257 0.072555 -0.848524
0.098225 0.076214 -0.876752
0.133259 0.006100 -0.923016
0.128709 -0.003084 -0.891720
0.072788 0.024262 -0.891993
0.079214 0.032679 -0.922817
0.158295 0.057178 -0.904120
0.153745 0.047994 -0.872824
0.097824 0.075340 -0.873097
0.104250 0.083758 -0.903921
0.149578 0.048648 -0.964737
0.137596 0.015161 -0.937239
0.083551 0.041741 -0.937039
0.101023 0.072650 -0.964687
0.165961 0.081644 -0.917454
0.153978 0.048158 -0.889956
0.099933 0.074737 -0.889757
0.117405 0.105647 -0.917404
0.172499 0.108855 -0.975558
0.156539 0.062551 -0.970940
0.107984 0.086553 -0.970890
0.131780 0.129356 -0.975802
0.174994 0.114122 -0.915902
0.159035 0.067818 -0.911284
0.110479 0.091821 -0.911234
0.134276 0.134623 -0.916146
0.197813 0.171868 -0.949814
0.179354 0.122355 -0.973105
0.138636 0.142856 -0.973349
0.165366 0.188337 -0.949888
0.186640 0.150228 -0.895045
0.168181 0.100715 -0.918336
0.127463 0.121216 -0.918580
0.154193 0.166697 -0.895119
0.062593 0.021982 -0.853542
0.060368 0.024431 -0.829922
0.009493 0.061503 -0.830079
0.011524 0.059430 -0.853897
0.097960 0.070354 -0.854981
0.095735 0.072803 -0.831361
0.044860 0.109876 -0.831518
0.046891 0.107802 -0.855336
0.067973 0.026063 -0.888437
0.063005 0.022404 -0.860208
0.011937 0.059853 -0.860564
0.017668 0.062388 -0.888407
0.102522 0.073591 -0.876594
0.097555 0.069932 -0.848366
0.046486 0.107380 -0.848721
0.052217 0.109916 -0.876565
0.075073 0.035295 -0.923141
0.068647 0.026878 -0.892317
0.018342 0.063203 -0.892287
0.026237 0.070773 -0.923357
0.108286 0.081205 -0.903597
0.101860 0.072787 -0.872773
0.051555 0.109113 -0.872744
0.059450 0.116683 -0.903813
0.098352 0.074298 -0.964706
0.080880 0.043388 -0.937059
0.032044 0.078866 -0.937275
0.054786 0.106279 -0.964686
0.119979 0.104059 -0.917385
0.102507 0.073149 -0.889737
0.053671 0.108627 -0.889953
0.076413 0.136040 -0.917364
0.131203 0.129521 -0.975787
0.107407 0.086718 -0.970875
0.063841 0.118699 -0.970854
0.094610 0.156754 -0.975971
0.134768 0.134511 -0.916161
0.110971 0.091708 -0.911249
0.067406 0.123689 -0.911228
0.098175 0.161744 -0.916345
0.167150 0.187287 -0.949859
0.140420 0.141806 -0.973320
0.103827 0.169040 -0.973504
0.138062 0.209147 -0.949960
0.152339 0.167790 -0.895148
0.125609 0.122308 -0.918609
0.089016 0.149542 -0.918793
0.123251 0.189650 -0.895249
0.007333 0.063125 -0.854214
0.005302 0.065199 -0.830396
-0.037784 0.111551 -0.830607
-0.036180 0.108829 -0.854254
0.050988 0.104190 -0.855020
0.048957 0.106264 -0.831201
0.005871 0.152616 -0.831412
0.007475 0.149894 -0.855059
0.013679 0.065927 -0.888597
0.007948 0.063391 -0.860754
-0.035565 0.109095 -0.860793
-0.029383 0.110954 -0.888885
0.056112 0.106460 -0.876375
0.050380 0.103924 -0.848532
0.006868 0.149628 -0.848571
0.013050 0.151487 -0.876663
0.022398 0.074199 -0.923542
0.014504 0.066629 -0.892472
-0.028558 0.111656 -0.892760
-0.019301 0.117615 -0.923423
0.063197 0.113337 -0.903629
0.055302 0.105767 -0.872559
0.012240 0.150794 -0.872846
0.021497 0.156753 -0.903510
0.052285 0.108445 -0.964678
0.029543 0.081032 -0.937267
-0.012156 0.124448 -0.937149
0.014825 0.147502 -0.964846
0.078828 0.133949 -0.917372
0.056085 0.106536 -0.889962
0.014386 0.149952 -0.889843
0.041367 0.173007 -0.917540
0.094161 0.157064 -0.975965
0.063391 0.119009 -0.970848
0.025931 0.158067 -0.971016
0.062883 0.190197 -0.976108
0.098550 0.161500 -0.916351
0.067781 0.123445 -0.911234
0.030320 0.162502 -0.911402
0.067272 0.194632 -0.916493
0.139624 0.207770 -0.949947
0.105389 0.167662 -0.973492
0.074111 0.200795 -0.973634
0.114770 0.234347 -0.950055
0.121629 0.191082 -0.895262
0.087394 0.150974 -0.918806
0.056115 0.184106 -0.918949
0.096775 0.217658 -0.895369
-0.039388 0.112883 -0.854181
-0.040992 0.115606 -0.830534
-0.075628 0.168368 -0.830743
-0.074498 0.165591 -0.854520
0.010605 0.145938 -0.855132
0.009001 0.148660 -0.831485
-0.025635 0.201423 -0.831694
-0.024505 0.198646 -0.855471
-0.032534 0.114912 -0.889001
-0.038716 0.113053 -0.860909
-0.073826 0.165760 -0.861248
-0.067347 0.166358 -0.889077
0.016122 0.147627 -0.876547
0.009941 0.145767 -0.848456
-0.025170 0.198475 -0.848795
-0.018691 0.199073 -0.876624
-0.022294 0.121369 -0.923526
-0.031552 0.115410 -0.892863
-0.066365 0.166857 -0.892940
-0.056133 0.171310 -0.923939
0.024414 0.153093 -0.903407
0.015156 0.147134 -0.872743
-0.019657 0.198581 -0.872820
-0.009425 0.203034 -0.903819
0.012863 0.149929 -0.964851
-0.014118 0.126874 -0.937154
-0.047957 0.176815 -0.937566
-0.017196 0.194832 -0.964964
0.043258 0.170669 -0.917535
0.016277 0.147614 -0.889838
-0.017562 0.197555 -0.890250
0.013199 0.215572 -0.917648
0.062493 0.190677 -0.976109
0.025542 0.158547 -0.971018
-0.004518 0.203451 -0.971131
0.037417 0.228741 -0.976218
0.067599 0.194230 -0.916492
0.030648 0.162100 -0.911401
0.000588 0.207003 -0.911514
0.042523 0.232294 -0.916602
0.116057 0.232704 -0.950051
0.075397 0.199152 -0.973631
0.050321 0.237216 -0.973740
0.096198 0.263192 -0.950165
0.095438 0.219365 -0.895373
0.054778 0.185814 -0.918952
0.029701 0.223878 -0.919061
0.075578 0.249854 -0.895486
-0.077053 0.170316 -0.854600
-0.078182 0.173093 -0.830823
-0.102988 0.231293 -0.831055
-0.102306 0.228281 -0.854727
-0.022011 0.194033 -0.855392
-0.023140 0.196810 -0.831615
-0.047946 0.255010 -0.831847
-0.047264 0.251998 -0.855519
-0.069868 0.171058 -0.889314
-0.076346 0.170460 -0.861485
-0.101600 0.228425 -0.861612
-0.094756 0.228113 -0.889577
-0.016231 0.194484 -0.876387
-0.022710 0.193886 -0.848558
-0.047963 0.251851 -0.848685
-0.041120 0.251539 -0.876650
-0.058644 0.175871 -0.923968
-0.068876 0.171418 -0.892970
-0.093765 0.228474 -0.893232
-0.082969 0.230961 -0.923890
-0.006973 0.198580 -0.903790
-0.017205 0.194127 -0.872791
-0.042094 0.251182 -0.873053
-0.031297 0.253669 -0.903712
-0.018844 0.197798 -0.964967
-0.049605 0.179781 -0.937568
-0.073930 0.234870 -0.937490
-0.040691 0.247296 -0.965175
0.014791 0.212706 -0.917646
-0.015969 0.194689 -0.890248
-0.040294 0.249778 -0.890170
-0.007055 0.262204 -0.917855
0.037176 0.229271 -0.976224
-0.004759 0.203980 -0.971137
-0.026605 0.253477 -0.971345
0.019082 0.271078 -0.976256
0.042716 0.231852 -0.916596
0.000782 0.206561 -0.911509
-0.021064 0.256059 -0.911718
0.024623 0.273660 -0.916629
0.097148 0.261351 -0.950176
0.051271 0.235374 -0.973751
0.033178 0.277182 -0.973784
0.082886 0.294826 -0.950298
0.074589 0.251768 -0.895476
0.028713 0.225792 -0.919051
0.010619 0.267599 -0.919083
0.060328 0.285243 -0.895598
-0.103976 0.233331 -0.854860
-0.104658 0.236343 -0.831188
-0.118976 0.297935 -0.831405
-0.118668 0.294923 -0.855153
-0.045634 0.247068 -0.855386
-0.046316 0.250080 -0.831715
-0.060634 0.311672 -0.831932
-0.060326 0.308661 -0.855680
-0.096363 0.232939 -0.889679
-0.103206 0.233251 -0.861715
-0.117898 0.294843 -0.862008
-0.111390 0.293260 -0.889799
-0.039553 0.246832 -0.876547
-0.046396 0.247144 -0.848583
-0.061088 0.308736 -0.848876
-0.054580 0.307153 -0.876667
-0.084522 0.235473 -0.923877
-0.095318 0.232986 -0.893219
-0.110345 0.293307 -0.893338
-0.099245 0.293948 -0.924299
-0.029784 0.249273 -0.903725
-0.040580 0.246786 -0.873067
-0.055607 0.307107 -0.873186
-0.044507 0.307748 -0.904148
-0.041715 0.250246 -0.965174
-0.074954 0.237820 -0.937489
-0.089677 0.296296 -0.937911
-0.054638 0.302749 -0.965303
-0.006067 0.259361 -0.917856
-0.039306 0.246936 -0.890172
-0.054029 0.305412 -0.890594
-0.018990 0.311865 -0.917986
0.018932 0.271624 -0.976261
-0.026755 0.254023 -0.971350
-0.039679 0.306526 -0.971479
0.008400 0.315951 -0.976420
0.024742 0.273209 -0.916625
-0.020946 0.255608 -0.911713
-0.033869 0.308111 -0.911842
0.014210 0.317536 -0.916784
0.083532 0.292784 -0.950304
0.033824 0.275141 -0.973789
0.023292 0.319468 -0.973948
0.075301 0.328227 -0.950427
0.059656 0.287362 -0.895592
0.009947 0.269718 -0.919078
-0.000585 0.314045 -0.919237
0.051424 0.322804 -0.895716
-0.119429 0.300214 -0.855068
-0.119737 0.303225 -0.831321
-0.122785 0.366417 -0.831550
-0.123313 0.363376 -0.855230
-0.059583 0.303495 -0.855765
-0.059891 0.306507 -0.832017
-0.062939 0.369698 -0.832247
-0.063467 0.366658 -0.855926
-0.112179 0.298379 -0.889783
-0.118687 0.299962 -0.861992
-0.122572 0.363125 -0.862154
-0.116294 0.360461 -0.890111
-0.053810 0.302158 -0.876683
-0.060318 0.303741 -0.848893
-0.064203 0.366904 -0.849054
-0.057925 0.364240 -0.877012
-0.100039 0.298968 -0.924314
-0.111139 0.298326 -0.893353
-0.115254 0.360409 -0.893682
-0.104207 0.359085 -0.924380
-0.043732 0.302850 -0.904133
-0.054832 0.302208 -0.873172
-0.058947 0.364290 -0.873500
-0.047900 0.362967 -0.904198
-0.055127 0.306057 -0.965340
-0.090166 0.299604 -0.937948
-0.094334 0.359721 -0.938014
-0.058710 0.360022 -0.965578
-0.018520 0.308670 -0.917949
-0.053559 0.302217 -0.890557
-0.057727 0.362334 -0.890623
-0.022103 0.362635 -0.918187
0.008332 0.316503 -0.976424
-0.039746 0.307078 -0.971482
-0.043330 0.361044 -0.971720
0.005645 0.361974 -0.976528
0.014262 0.317082 -0.916781
-0.033817 0.307657 -0.911839
-0.037400 0.361622 -0.912077
0.011575 0.362553 -0.916885
0.075586 0.326174 -0.950426
0.023578 0.317415 -0.973947
0.020891 0.362886 -0.974051
0.073634 0.362507 -0.950549
0.051126 0.324939 -0.895717
-0.000882 0.316180 -0.919239
-0.003569 0.361651 -0.919343
0.049174 0.361272 -0.895841
-0.123150 0.368595 -0.855249
-0.122622 0.371636 -0.831569
-0.115114 0.434422 -0.831778
-0.115818 0.431484 -0.855523
-0.063627 0.361564 -0.855908
-0.063099 0.364605 -0.832228
-0.055592 0.427391 -0.832438
-0.056295 0.424453 -0.856182
-0.116176 0.365644 -0.890105
-0.122454 0.368307 -0.862147
-0.115122 0.431196 -0.862422
-0.109555 0.427494 -0.890230
-0.058040 0.359183 -0.877019
-0.064318 0.361846 -0.849061
-0.056986 0.424735 -0.849336
-0.051419 0.421033 -0.877144
-0.104097 0.364035 -0.924440
-0.115143 0.365359 -0.893742
-0.108522 0.427208 -0.893867
-0.097761 0.423998 -0.924734
-0.048009 0.358139 -0.904138
-0.059055 0.359463 -0.873440
-0.052434 0.421313 -0.873565
-0.041673 0.418102 -0.904432
-0.058640 0.363272 -0.965592
-0.094263 0.362971 -0.938028
-0.087928 0.422934 -0.938322
-0.052774 0.417034 -0.965634
-0.022172 0.359499 -0.918172
-0.057796 0.359198 -0.890608
-0.051460 0.419161 -0.890902
-0.016306 0.413261 -0.918213
0.005642 0.362581 -0.976528
-0.043333 0.361650 -0.971720
-0.037468 0.415412 -0.971761
0.010913 0.407835 -0.976707
0.011581 0.362046 -0.916885
-0.037394 0.361115 -0.912077
-0.031529 0.414877 -0.912118
0.016853 0.407299 -0.917065
0.073564 0.360386 -0.950544
0.020821 0.360765 -0.974046
0.026093 0.406019 -0.974226
0.077950 0.396506 -0.950665
0.049246 0.363474 -0.895846
-0.003497 0.363853 -0.919348
0.001775 0.409107 -0.919528
0.053632 0.399594 -0.895967
-0.114708 0.436775 -0.855550
-0.114004 0.439713 -0.831805
-0.095140 0.500100 -0.832002
-0.096650 0.497429 -0.855687
-0.057379 0.419286 -0.856156
-0.056676 0.422224 -0.832412
-0.037812 0.482610 -0.832609
-0.039321 0.479940 -0.856293
-0.108555 0.432558 -0.890161
-0.114121 0.436261 -0.862353
-0.096063 0.496915 -0.862490
-0.091202 0.492328 -0.890454
-0.052394 0.416091 -0.877213
-0.057961 0.419793 -0.849405
-0.039903 0.480447 -0.849541
-0.035042 0.475860 -0.877506
-0.096805 0.428883 -0.924751
-0.107566 0.432093 -0.893885
-0.090214 0.491863 -0.894177
-0.080234 0.486839 -0.924882
-0.042606 0.413338 -0.904414
-0.053367 0.416548 -0.873548
-0.036014 0.476318 -0.873841
-0.026034 0.471294 -0.904545
-0.052130 0.420187 -0.965664
-0.087284 0.426087 -0.938352
-0.070712 0.484044 -0.938482
-0.037039 0.472131 -0.965937
-0.016929 0.410220 -0.918184
-0.052083 0.416120 -0.890872
-0.035511 0.474077 -0.891002
-0.001838 0.462164 -0.918457
0.010989 0.408333 -0.976707
-0.037393 0.415910 -0.971760
-0.022302 0.467854 -0.972033
0.024046 0.451981 -0.976877
0.016797 0.406899 -0.917066
-0.031584 0.414476 -0.912120
-0.016494 0.466420 -0.912393
0.029855 0.450547 -0.917236
0.077536 0.394454 -0.950652
0.025679 0.403967 -0.974212
0.038736 0.447615 -0.974382
0.088126 0.429264 -0.950764
0.054062 0.401726 -0.895981
0.002205 0.411239 -0.919542
0.015262 0.454887 -0.919712
0.064652 0.436536 -0.896094
-0.094700 0.502274 -0.855585
-0.093191 0.504944 -0.831901
-0.064494 0.561260 -0.832059
-0.066280 0.558839 -0.855802
-0.041223 0.475212 -0.856395
-0.039714 0.477883 -0.832711
-0.011017 0.534198 -0.832869
-0.012803 0.531777 -0.856612
-0.089340 0.497153 -0.890352
-0.094201 0.501740 -0.862388
-0.065781 0.558305 -0.862605
-0.061966 0.553035 -0.890476
-0.036858 0.471152 -0.877608
-0.041720 0.475738 -0.849643
-0.013299 0.532303 -0.849860
-0.009485 0.527033 -0.877732
-0.078433 0.491483 -0.924926
-0.088413 0.496506 -0.894222
-0.061040 0.552388 -0.894346
-0.051942 0.545665 -0.925159
-0.027791 0.466765 -0.904501
-0.037771 0.471788 -0.873797
-0.010397 0.527670 -0.873921
-0.001299 0.520947 -0.904734
-0.035832 0.475205 -0.965961
-0.069505 0.487117 -0.938507
-0.043013 0.541300 -0.938740
-0.011924 0.523707 -0.965953
-0.003005 0.459197 -0.918433
-0.036678 0.471110 -0.890978
-0.010186 0.525292 -0.891212
0.020903 0.507699 -0.918425
0.024259 0.452613 -0.976875
-0.022089 0.468486 -0.972032
0.001818 0.516989 -0.972024
0.044685 0.493356 -0.977013
0.029678 0.450008 -0.917238
-0.016670 0.465881 -0.912394
0.007237 0.514383 -0.912386
0.050104 0.490750 -0.917375
0.087363 0.427325 -0.950753
0.037973 0.445676 -0.974371
0.058399 0.486419 -0.974509
0.103835 0.459768 -0.950852
0.065446 0.438551 -0.896105
0.016056 0.456902 -0.919723
0.036482 0.497645 -0.919861
0.081918 0.470995 -0.896204
-0.063499 0.563320 -0.855859
-0.061713 0.565741 -0.832117
-0.023583 0.616186 -0.832258
-0.025826 0.614144 -0.855956
-0.015517 0.527403 -0.856555
-0.013732 0.529823 -0.832812
0.024398 0.580268 -0.832954
0.022156 0.578226 -0.856651
-0.059274 0.557462 -0.890447
-0.063089 0.562732 -0.862576
-0.025416 0.613556 -0.862672
-0.022444 0.607652 -0.890640
-0.012111 0.522713 -0.877761
-0.015926 0.527983 -0.849890
0.021747 0.578807 -0.849986
0.024719 0.572902 -0.877954
-0.049364 0.549950 -0.925156
-0.058462 0.556672 -0.894343
-0.021632 0.606862 -0.894535
-0.013958 0.598743 -0.925256
-0.003814 0.516768 -0.904738
-0.012912 0.523490 -0.873924
0.023919 0.573680 -0.874117
0.031593 0.565561 -0.904838
-0.010280 0.526425 -0.965965
-0.041369 0.544018 -0.938752
-0.005963 0.592811 -0.938852
0.021637 0.570105 -0.966259
0.019318 0.505079 -0.918413
-0.011771 0.522672 -0.891200
0.023635 0.571465 -0.891301
0.051235 0.548760 -0.918707
0.044926 0.493769 -0.977013
0.002059 0.517402 -0.972024
0.033976 0.561083 -0.972318
0.072123 0.530330 -0.977160
0.049915 0.490421 -0.917375
0.007048 0.514054 -0.912386
0.038965 0.557735 -0.912680
0.077112 0.526982 -0.917522
0.102734 0.457969 -0.950840
0.057299 0.484619 -0.974498
0.084496 0.521180 -0.974645
0.124592 0.487058 -0.950927
0.083061 0.472863 -0.896215
0.037625 0.499514 -0.919872
0.064823 0.536074 -0.920019
0.104918 0.501952 -0.896302
-0.022292 0.618093 -0.855959
-0.020049 0.620134 -0.832262
0.026209 0.663201 -0.832365
0.023719 0.661550 -0.856106
0.018706 0.574372 -0.856647
0.020948 0.576413 -0.832950
0.067207 0.619480 -0.833053
0.064716 0.617829 -0.856794
-0.019024 0.611526 -0.890661
-0.021996 0.617430 -0.862693
0.024014 0.660888 -0.862839
0.025853 0.654614 -0.890716
0.021382 0.569122 -0.877933
0.018410 0.575026 -0.849965
0.064421 0.618484 -0.850112
0.066260 0.612210 -0.877989
-0.010707 0.602499 -0.925211
-0.018381 0.610618 -0.894489
0.026496 0.653706 -0.894545
0.032700 0.644378 -0.925389
0.028422 0.561897 -0.904884
0.020749 0.570016 -0.874163
0.065626 0.613104 -0.874219
0.071830 0.603777 -0.905062
0.023797 0.572601 -0.966258
-0.003802 0.595307 -0.938851
0.039605 0.637186 -0.939029
0.062837 0.610026 -0.966255
0.049149 0.546350 -0.918709
0.021550 0.569055 -0.891302
0.064957 0.610935 -0.891480
0.088189 0.583774 -0.918706
0.072579 0.530839 -0.977163
0.034432 0.561592 -0.972321
0.073472 0.599016 -0.972318
0.105701 0.562145 -0.977231
0.076722 0.526547 -0.917520
0.038575 0.557300 -0.912678
0.077615 0.594724 -0.912676
0.109844 0.557853 -0.917588
0.123211 0.485507 -0.950921
0.083115 0.519629 -0.974638
0.116237 0.550935 -0.974706
0.149790 0.510356 -0.950992
0.106354 0.503564 -0.896308
0.066258 0.537686 -0.920026
0.099380 0.568992 -0.920094
0.132932 0.528413 -0.896379
0.027848 0.664799 -0.856117
0.030339 0.666450 -0.832376
0.083379 0.700852 -0.832454
0.080616 0.699692 -0.856163
0.060685 0.614658 -0.856783
0.063176 0.616309 -0.833042
0.116216 0.650711 -0.833120
0.113452 0.649551 -0.856829
0.029874 0.657830 -0.890712
0.028035 0.664104 -0.862835
0.080803 0.698996 -0.862881
0.081596 0.692456 -0.890848
0.062336 0.609073 -0.877994
0.060497 0.615346 -0.850117
0.113264 0.650239 -0.850163
0.114058 0.643698 -0.878130
0.036575 0.647511 -0.925385
0.030371 0.656838 -0.894541
0.082093 0.691464 -0.894678
0.086560 0.681230 -0.925414
0.068050 0.600721 -0.905066
0.061846 0.610048 -0.874223
0.113568 0.644674 -0.874360
0.118035 0.634440 -0.905095
0.065349 0.612046 -0.966264
0.042117 0.639207 -0.939038
0.092102 0.672926 -0.939067
0.110297 0.642170 -0.966421
0.085766 0.581825 -0.918697
0.062534 0.608985 -0.891471
0.112519 0.642704 -0.891500
0.130714 0.611948 -0.918854
0.106124 0.562468 -0.977232
0.073895 0.599339 -0.972320
0.118843 0.629462 -0.972476
0.144178 0.587543 -0.977260
0.109498 0.557593 -0.917586
0.077269 0.594464 -0.912674
0.122217 0.624587 -0.912830
0.147552 0.582668 -0.917614
0.148140 0.509072 -0.950995
0.114587 0.549650 -0.974709
0.152641 0.574726 -0.974737
0.178629 0.528928 -0.951043
0.134646 0.529748 -0.896376
0.101094 0.570327 -0.920091
0.139147 0.595403 -0.920118
0.165135 0.549605 -0.896424
0.085288 0.702198 -0.856189
0.088052 0.703358 -0.832480
0.146239 0.728047 -0.832512
0.143367 0.727321 -0.856252
0.108891 0.647104 -0.856803
0.111655 0.648264 -0.833094
0.169843 0.672954 -0.833126
0.166971 0.672228 -0.856866
0.086166 0.694940 -0.890886
0.085373 0.701481 -0.862919
0.143452 0.726604 -0.862982
0.143099 0.720025 -0.890854
0.109597 0.641274 -0.878092
0.108804 0.647814 -0.850125
0.166884 0.672938 -0.850188
0.166530 0.666358 -0.878060
0.090913 0.683657 -0.925359
0.086446 0.693891 -0.894623
0.143379 0.718976 -0.894591
0.146008 0.708218 -0.925473
0.113789 0.632071 -0.905150
0.109321 0.642305 -0.874414
0.166254 0.667390 -0.874382
0.168883 0.656632 -0.905264
0.113122 0.643752 -0.966411
0.094927 0.674508 -0.939058
0.150021 0.699069 -0.939172
0.162602 0.665614 -0.966453
0.127989 0.610421 -0.918863
0.109794 0.641177 -0.891510
0.164888 0.665738 -0.891624
0.177469 0.632283 -0.918905
0.144721 0.587797 -0.977264
0.119386 0.629716 -0.972481
0.168866 0.651578 -0.972522
0.186557 0.605878 -0.977287
0.147096 0.582462 -0.917609
0.121762 0.624381 -0.912826
0.171242 0.646244 -0.912867
0.188932 0.600544 -0.917633
0.176772 0.527941 -0.951046
0.150784 0.573739 -0.974739
0.192620 0.591821 -0.974762
0.210246 0.542201 -0.951071
0.167064 0.550630 -0.896422
0.141076 0.596428 -0.920115
0.182912 0.614509 -0.920139
0.200538 0.564890 -0.896447
0.148357 0.728965 -0.856272
0.151229 0.729690 -0.832532
0.212836 0.743921 -0.832532
0.209881 0.743741 -0.856245
0.162101 0.670624 -0.856847
0.164973 0.671350 -0.833106
0.226580 0.685581 -0.833106
0.223625 0.685401 -0.856819
0.147957 0.721654 -0.890888
0.148310 0.728234 -0.863016
0.209834 0.743010 -0.862989
0.208377 0.736529 -0.890935
0.161791 0.664769 -0.878026
0.162144 0.671348 -0.850154
0.223668 0.686125 -0.850127
0.222211 0.679643 -0.878073
0.150728 0.709844 -0.925448
0.148100 0.720602 -0.894565
0.208520 0.735476 -0.894612
0.209261 0.724392 -0.925375
0.164278 0.655045 -0.905290
0.161649 0.665804 -0.874408
0.222070 0.680678 -0.874455
0.222811 0.669593 -0.905218
0.165731 0.666687 -0.966453
0.153151 0.700141 -0.939173
0.211683 0.714689 -0.939100
0.218282 0.679587 -0.966431
0.174447 0.631248 -0.918904
0.161867 0.664703 -0.891623
0.220400 0.679250 -0.891551
0.226998 0.644148 -0.918882
0.187131 0.606057 -0.977289
0.169440 0.651757 -0.972523
0.221991 0.664657 -0.972501
0.231466 0.616619 -0.977232
0.188453 0.600397 -0.917631
0.170762 0.646097 -0.912866
0.223313 0.658997 -0.912844
0.232788 0.610959 -0.917574
0.208273 0.541568 -0.951079
0.190647 0.591188 -0.974770
0.234983 0.601750 -0.974713
0.243714 0.549797 -0.951084
0.202589 0.565548 -0.896440
0.184963 0.615168 -0.920131
0.229299 0.625730 -0.920074
0.238030 0.573778 -0.896445
0.215149 0.744502 -0.856251
0.218104 0.744682 -0.832538
0.281239 0.747959 -0.832488
0.278318 0.748258 -0.856230
0.218481 0.684658 -0.856813
0.221437 0.684838 -0.833100
0.284572 0.688115 -0.833051
0.281650 0.688413 -0.856793
0.213518 0.737306 -0.890948
0.214974 0.743788 -0.863002
0.278143 0.747544 -0.862981
0.275599 0.741459 -0.890855
0.217195 0.678884 -0.878060
0.218651 0.685366 -0.850114
0.281820 0.689121 -0.850093
0.279277 0.683037 -0.877967
0.214168 0.725162 -0.925370
0.213427 0.736247 -0.894607
0.275509 0.740400 -0.894514
0.274334 0.729405 -0.925391
0.218024 0.668842 -0.905223
0.217283 0.679926 -0.874460
0.279365 0.684079 -0.874367
0.278190 0.673084 -0.905244
0.221433 0.680093 -0.966421
0.214834 0.715195 -0.939090
0.275000 0.719438 -0.939111
0.275423 0.683726 -0.966435
0.223960 0.643660 -0.918892
0.217362 0.678762 -0.891561
0.277528 0.683005 -0.891582
0.277951 0.647293 -0.918905
0.231987 0.616683 -0.977233
0.222511 0.664721 -0.972503
0.276502 0.668354 -0.972516
0.277486 0.619354 -0.977242
0.232366 0.610910 -0.917573
0.222890 0.658948 -0.912842
0.276881 0.662581 -0.912856
0.277865 0.613581 -0.917582
0.241611 0.549499 -0.951088
0.232879 0.601452 -0.974717
0.278378 0.604123 -0.974726
0.277941 0.551453 -0.951068
0.240214 0.574088 -0.896441
0.231483 0.626040 -0.920070
0.276982 0.628711 -0.920079
0.276545 0.576041 -0.896421
0.283575 0.748094 -0.856214
0.286497 0.747795 -0.832472
0.349253 0.740070 -0.832394
0.346445 0.740924 -0.856108
0.276519 0.688574 -0.856808
0.279441 0.688275 -0.833066
0.342197 0.680549 -0.832988
0.339389 0.681404 -0.856703
0.280732 0.741341 -0.890837
0.283275 0.747425 -0.862963
0.346145 0.740255 -0.862857
0.342594 0.734686 -0.890808
0.274269 0.683153 -0.877985
0.276812 0.689237 -0.850111
0.339682 0.682067 -0.850005
0.336131 0.676498 -0.877955
0.279321 0.729316 -0.925374
0.280496 0.740311 -0.894497
0.342358 0.733656 -0.894468
0.339308 0.723011 -0.925255
0.273325 0.673171 -0.905260
0.274500 0.684166 -0.874383
0.336362 0.677511 -0.874354
0.333312 0.666866 -0.905140
0.278733 0.683658 -0.966436
0.278310 0.719370 -0.939112
0.338297 0.713065 -0.938993
0.332522 0.677801 -0.966320
0.274755 0.647359 -0.918904
0.274331 0.683071 -0.891580
0.334319 0.676766 -0.891460
0.328543 0.641502 -0.918788
0.278105 0.619349 -0.977240
0.277121 0.668349 -0.972514
0.330910 0.662492 -0.972398
0.323379 0.614101 -0.977166
0.277345 0.613584 -0.917583
0.276361 0.662584 -0.912857
0.330149 0.656727 -0.912741
0.322619 0.608337 -0.917509
0.275874 0.551516 -0.951070
0.276311 0.604186 -0.974727
0.321585 0.598939 -0.974653
0.311992 0.547132 -0.951033
0.278694 0.575975 -0.896420
0.279131 0.628646 -0.920077
0.324405 0.623398 -0.920003
0.314812 0.571592 -0.896383
0.351619 0.739847 -0.856085
0.354428 0.738992 -0.832371
0.414888 0.720529 -0.832249
0.412280 0.721835 -0.856000
0.334338 0.682456 -0.856725
0.337146 0.681601 -0.833011
0.397606 0.663138 -0.832889
0.394998 0.664444 -0.856639
0.347663 0.733675 -0.890782
0.351214 0.739244 -0.862832
0.411874 0.721233 -0.862746
0.407450 0.716418 -0.890640
0.331185 0.677485 -0.877980
0.334736 0.683054 -0.850030
0.395396 0.665042 -0.849945
0.390972 0.660227 -0.877838
0.344192 0.722040 -0.925291
0.347242 0.732686 -0.894505
0.407028 0.715428 -0.894362
0.402169 0.705411 -0.925206
0.328549 0.667813 -0.905103
0.331599 0.678459 -0.874317
0.391386 0.661201 -0.874175
0.386527 0.651184 -0.905018
0.335687 0.677166 -0.966325
0.341463 0.712430 -0.938998
0.399440 0.695801 -0.938912
0.387653 0.662087 -0.966205
0.325490 0.642115 -0.918783
0.331265 0.677379 -0.891455
0.389243 0.660750 -0.891370
0.377456 0.627036 -0.918663
0.323928 0.614012 -0.977163
0.331458 0.662403 -0.972395
0.383424 0.647324 -0.972276
0.367599 0.600969 -0.977103
0.322167 0.608406 -0.917512
0.329698 0.656796 -0.912744
0.381664 0.641717 -0.912625
0.365839 0.595363 -0.917452
0.309935 0.547563 -0.951037
0.319527 0.599369 -0.974657
0.363198 0.586327 -0.974597
0.344744 0.536978 -0.950976
0.316950 0.571144 -0.896379
0.326542 0.622951 -0.919999
0.370214 0.609908 -0.919939
0.351760 0.560559 -0.896318
0.417210 0.719864 -0.855969
0.419818 0.718559 -0.832218
0.476114 0.689795 -0.832070
0.473819 0.691588 -0.855785
0.390185 0.666367 -0.856670
0.392793 0.665062 -0.832919
0.449089 0.636297 -0.832771
0.446794 0.638091 -0.856486
0.412279 0.714541 -0.890592
0.416703 0.719355 -0.862698
0.473313 0.691079 -0.862514
0.468142 0.687126 -0.890486
0.386259 0.662059 -0.877886
0.390684 0.666873 -0.849992
0.447293 0.638597 -0.849808
0.442122 0.634644 -0.877780
0.406818 0.703611 -0.925222
0.411677 0.713628 -0.894379
0.467540 0.686213 -0.894273
0.461042 0.677203 -0.925051
0.381992 0.652940 -0.905001
0.386851 0.662957 -0.874158
0.442714 0.635542 -0.874051
0.436217 0.626531 -0.904829
0.390684 0.660916 -0.966201
0.402471 0.694629 -0.938907
0.456696 0.668221 -0.938736
0.439230 0.637037 -0.966095
0.374531 0.628167 -0.918668
0.386318 0.661880 -0.891374
0.440543 0.635472 -0.891202
0.423077 0.604288 -0.918562
0.368129 0.600786 -0.977100
0.383955 0.647140 -0.972273
0.432501 0.623262 -0.972167
0.408867 0.580352 -0.977041
0.365401 0.595510 -0.917455
0.381226 0.641865 -0.912628
0.429772 0.617986 -0.912522
0.406138 0.575077 -0.917396
0.342789 0.537746 -0.950974
0.361243 0.587095 -0.974595
0.401981 0.566661 -0.974536
0.375232 0.521275 -0.950899
0.353791 0.559761 -0.896320
0.372245 0.609109 -0.919940
0.412982 0.588676 -0.919881
0.386233 0.543289 -0.896245
0.478272 0.688832 -0.855753
0.480567 0.687038 -0.832039
0.531108 0.649062 -0.831857
0.529141 0.651201 -0.855611
0.442449 0.640781 -0.856517
0.444744 0.638987 -0.832803
0.495285 0.601011 -0.832621
0.493318 0.603149 -0.856374
0.472544 0.684448 -0.890466
0.477714 0.688402 -0.862494
0.528583 0.650771 -0.862352
0.522823 0.647768 -0.890254
0.437828 0.637256 -0.877799
0.442998 0.641209 -0.849827
0.493867 0.603578 -0.849685
0.488108 0.600575 -0.877587
0.465315 0.674611 -0.925079
0.471813 0.683622 -0.894301
0.522093 0.646941 -0.894089
0.514083 0.639125 -0.924911
0.432048 0.629060 -0.904801
0.438546 0.638070 -0.874023
0.488826 0.601390 -0.873812
0.480816 0.593573 -0.904633
0.442036 0.635325 -0.966098
0.459502 0.666509 -0.938738
0.508269 0.631022 -0.938570
0.485683 0.603365 -0.965835
0.420369 0.605941 -0.918559
0.437835 0.637125 -0.891199
0.486603 0.601638 -0.891032
0.464016 0.573981 -0.918296
0.409436 0.580055 -0.977034
0.433070 0.622964 -0.972161
0.476717 0.591004 -0.971899
0.446021 0.552873 -0.976901
0.405654 0.575323 -0.917401
0.429288 0.618232 -0.912528
0.472935 0.586272 -0.912265
0.442239 0.548141 -0.917268
0.373471 0.522361 -0.950902
0.400219 0.567747 -0.974539
0.436804 0.540566 -0.974406
0.402560 0.500506 -0.950807
0.388064 0.542160 -0.896241
0.414813 0.587547 -0.919878
0.451398 0.560365 -0.919745
0.417154 0.520305 -0.896146
0.533109 0.647661 -0.855615
0.535077 0.645522 -0.831862
0.578183 0.599280 -0.831670
0.576656 0.601730 -0.855380
0.489443 0.606606 -0.856369
0.491411 0.604467 -0.832616
0.534517 0.558225 -0.832424
0.532990 0.560675 -0.856134
0.526720 0.644338 -0.890253
0.532480 0.647341 -0.862351
0.576026 0.601410 -0.862115
0.569829 0.599452 -0.890087
0.484305 0.603922 -0.877588
0.490065 0.606925 -0.849686
0.533612 0.560995 -0.849450
0.527415 0.559036 -0.877422
0.517823 0.635850 -0.924929
0.525832 0.643666 -0.894107
0.568942 0.598780 -0.893941
0.559742 0.592493 -0.924694
0.477168 0.596768 -0.904615
0.485178 0.604584 -0.873793
0.528288 0.559699 -0.873627
0.519088 0.553411 -0.904381
0.488094 0.601276 -0.965817
0.510681 0.628933 -0.938552
0.552600 0.585576 -0.938318
0.525568 0.562264 -0.965759
0.461690 0.575995 -0.918314
0.484277 0.603652 -0.891049
0.526197 0.560295 -0.890815
0.499164 0.536983 -0.918256
0.446407 0.552534 -0.976900
0.477103 0.590664 -0.971897
0.514577 0.551653 -0.971839
0.477703 0.519403 -0.976774
0.441927 0.548415 -0.917269
0.472623 0.586546 -0.912267
0.510097 0.547534 -0.912208
0.473223 0.515285 -0.917143
0.400993 0.501904 -0.950813
0.435237 0.541964 -0.974412
0.466533 0.508834 -0.974286
0.425847 0.475331 -0.950700
0.418782 0.518852 -0.896140
0.453026 0.558912 -0.919739
0.484322 0.525782 -0.919613
0.443635 0.492280 -0.896028
0.579899 0.597621 -0.855365
0.581426 0.595171 -0.831655
0.615981 0.542196 -0.831441
0.614869 0.544886 -0.855194
0.529825 0.564685 -0.856148
0.531352 0.562235 -0.832438
0.565907 0.509260 -0.832224
0.564796 0.511950 -0.855978
0.573035 0.595436 -0.890106
0.579232 0.597394 -0.862135
0.614203 0.544659 -0.861964
0.607745 0.543761 -0.889852
0.524287 0.562955 -0.877402
0.530484 0.564913 -0.849430
0.565455 0.512178 -0.849260
0.558997 0.511280 -0.877148
0.562867 0.588616 -0.924695
0.572066 0.594903 -0.893941
0.606776 0.543229 -0.893687
0.596570 0.538621 -0.924518
0.516040 0.557193 -0.904380
0.525240 0.563480 -0.873626
0.559950 0.511806 -0.873372
0.549743 0.507198 -0.904203
0.527641 0.559694 -0.965749
0.554673 0.583006 -0.938308
0.588377 0.533011 -0.938131
0.557730 0.514739 -0.965429
0.497163 0.539465 -0.918265
0.524195 0.562777 -0.890825
0.557898 0.512782 -0.890648
0.527251 0.494510 -0.917946
0.478133 0.518884 -0.976770
0.515006 0.551133 -0.971835
0.545095 0.506178 -0.971516
0.503213 0.480837 -0.976601
0.472855 0.515727 -0.917147
0.509729 0.547976 -0.912211
0.539818 0.503021 -0.911892
0.497935 0.477680 -0.916978
0.424560 0.476968 -0.950708
0.465246 0.510470 -0.974293
0.490326 0.472423 -0.974125
0.444418 0.446479 -0.950592
0.444972 0.490579 -0.896019
0.485659 0.524082 -0.919605
0.510739 0.486035 -0.919436
0.464830 0.460091 -0.895904
0.617389 0.540209 -0.855194
0.618500 0.537518 -0.831440
0.643240 0.479344 -0.831224
0.642664 0.482146 -0.854933
0.562336 0.516516 -0.855978
0.563447 0.513826 -0.832225
0.588187 0.455652 -0.832009
0.587611 0.458454 -0.855717
0.610224 0.539199 -0.889909
0.616681 0.540097 -0.862021
0.641957 0.482035 -0.861760
0.635354 0.482284 -0.889717
0.556579 0.515732 -0.877091
0.563036 0.516630 -0.849203
0.588312 0.458568 -0.848942
0.581709 0.458817 -0.876899
0.598975 0.534251 -0.924523
0.609182 0.538858 -0.893692
0.634312 0.481943 -0.893500
0.623524 0.479155 -0.924238
0.547397 0.511461 -0.904198
0.557604 0.516069 -0.873367
0.582733 0.459154 -0.873175
0.571946 0.456366 -0.903913
0.559285 0.511935 -0.965413
0.589932 0.530207 -0.938115
0.614481 0.475111 -0.937830
0.581152 0.462474 -0.965332
0.525751 0.497214 -0.917962
0.556398 0.515486 -0.890664
0.580947 0.460390 -0.890379
0.547618 0.447753 -0.917882
0.503448 0.480363 -0.976601
0.545331 0.505705 -0.971516
0.567198 0.456244 -0.971435
0.521548 0.438536 -0.976378
0.497747 0.478066 -0.916977
0.539630 0.503408 -0.911892
0.561497 0.453946 -0.911811
0.515847 0.436239 -0.916754
0.443455 0.448315 -0.950610
0.489364 0.474259 -0.974142
0.507463 0.432431 -0.973918
0.457717 0.414842 -0.950487
0.465831 0.458183 -0.895886
0.511740 0.484128 -0.919418
0.529840 0.442300 -0.919194
0.480093 0.424711 -0.895763
0.644321 0.477138 -0.854963
0.644896 0.474336 -0.831255
0.659268 0.412690 -0.831021
0.659079 0.415607 -0.854769
0.585994 0.463342 -0.855686
0.586570 0.460540 -0.831977
0.600942 0.398894 -0.831744
0.600753 0.401811 -0.855491
0.636993 0.477379 -0.889773
0.643596 0.477130 -0.861816
0.658355 0.415599 -0.861621
0.651890 0.416926 -0.889471
0.580109 0.463603 -0.876843
0.586712 0.463354 -0.848885
0.601471 0.401822 -0.848690
0.595006 0.403150 -0.876541
0.625143 0.474451 -0.924201
0.635931 0.477239 -0.893463
0.650827 0.416786 -0.893162
0.639723 0.415973 -0.924035
0.570366 0.460954 -0.903949
0.581154 0.463742 -0.873211
0.596051 0.403289 -0.872909
0.584946 0.402477 -0.903782
0.582233 0.459389 -0.965304
0.615561 0.472027 -0.937802
0.630141 0.413549 -0.937635
0.595170 0.406859 -0.965050
0.546575 0.450730 -0.917909
0.579903 0.463367 -0.890407
0.594483 0.404889 -0.890240
0.559512 0.398199 -0.917655
0.521721 0.437951 -0.976378
0.567371 0.455659 -0.971435
0.580308 0.403129 -0.971181
0.532265 0.393630 -0.976249
0.515706 0.436729 -0.916753
0.561356 0.454437 -0.911811
0.574293 0.401906 -0.911556
0.526250 0.392407 -0.916624
0.457061 0.416858 -0.950498
0.506807 0.434447 -0.973930
0.517351 0.390125 -0.973801
0.465296 0.381418 -0.950370
0.480775 0.422617 -0.895751
0.530521 0.440207 -0.919182
0.541065 0.395885 -0.919053
0.489009 0.387177 -0.895623
0.659843 0.410385 -0.854769
0.660031 0.407468 -0.831021
0.663391 0.344343 -0.830796
0.663820 0.347155 -0.854515
0.600008 0.406908 -0.855491
0.600197 0.403991 -0.831743
0.603556 0.340866 -0.831518
0.603985 0.343678 -0.855237
0.652642 0.411844 -0.889560
0.659107 0.410516 -0.861709
0.663084 0.347286 -0.861456
0.656774 0.349807 -0.889396
0.594272 0.408109 -0.876452
0.600737 0.406781 -0.848602
0.604714 0.343551 -0.848348
0.598405 0.346072 -0.876289
0.640496 0.411048 -0.924014
0.651600 0.411861 -0.893141
0.655733 0.349824 -0.892978
0.644700 0.350881 -0.923727
0.584192 0.407281 -0.903803
0.595297 0.408094 -0.872930
0.599429 0.346057 -0.872766
0.588396 0.347115 -0.903516
0.595692 0.403647 -0.965025
0.630663 0.410337 -0.937610
0.634867 0.350170 -0.937323
0.599304 0.349700 -0.964916
0.559008 0.401299 -0.917680
0.593979 0.407989 -0.890265
0.598183 0.347822 -0.889978
0.562619 0.347352 -0.917571
0.532342 0.393073 -0.976248
0.580385 0.402572 -0.971180
0.583997 0.348626 -0.971071
0.535047 0.347586 -0.976052
0.526188 0.392865 -0.916625
0.574231 0.402364 -0.911557
0.577842 0.348418 -0.911448
0.528893 0.347378 -0.916429
0.465003 0.383457 -0.950379
0.517059 0.392165 -0.973810
0.519764 0.346678 -0.973614
0.466959 0.347126 -0.950255
0.489314 0.385056 -0.895614
0.541369 0.393764 -0.919044
0.544075 0.348277 -0.918848
0.491269 0.348725 -0.895490
0.663650 0.341744 -0.854543
0.663222 0.338932 -0.830823
0.655418 0.276100 -0.830605
0.656205 0.278926 -0.854345
0.604150 0.348963 -0.855210
0.603722 0.346151 -0.831490
0.595918 0.283319 -0.831273
0.596705 0.286145 -0.855012
0.656653 0.344566 -0.889359
0.662963 0.342045 -0.861419
0.655518 0.279227 -0.861221
0.649997 0.282674 -0.889076
0.598523 0.351189 -0.876326
0.604833 0.348668 -0.848385
0.597388 0.285850 -0.848188
0.591868 0.289297 -0.876042
0.644613 0.345924 -0.923692
0.655646 0.344866 -0.892943
0.648990 0.282974 -0.892659
0.638333 0.286011 -0.923579
0.588481 0.351950 -0.903550
0.599514 0.350893 -0.872801
0.592858 0.289001 -0.872517
0.582201 0.292038 -0.903437
0.599258 0.346460 -0.964894
0.634822 0.346930 -0.937301
0.628542 0.287018 -0.937188
0.593445 0.292672 -0.964705
0.562662 0.350478 -0.917592
0.598226 0.350948 -0.890000
0.591946 0.291036 -0.889887
0.556849 0.296690 -0.917404
0.535018 0.347005 -0.976051
0.583967 0.348044 -0.971071
0.578154 0.294256 -0.970882
0.529754 0.301759 -0.975951
0.528920 0.347861 -0.916429
0.577869 0.348900 -0.911448
0.572055 0.295112 -0.911259
0.523655 0.302615 -0.916328
0.467020 0.349243 -0.950261
0.519825 0.348796 -0.973619
0.514561 0.303550 -0.973519
0.462639 0.313123 -0.950140
0.491205 0.346525 -0.895484
0.544011 0.346078 -0.918843
0.538747 0.300832 -0.918742
0.486824 0.310405 -0.895363
0.655138 0.273837 -0.854274
0.654351 0.271011 -0.830535
0.635771 0.210607 -0.830351
0.637245 0.213076 -0.854074
0.597747 0.291111 -0.855082
0.596959 0.288285 -0.831343
0.578379 0.227880 -0.831159
0.579853 0.230349 -0.854882
0.649000 0.277686 -0.889029
0.654520 0.274239 -0.861174
0.636627 0.213477 -0.860974
0.631624 0.218007 -0.888941
0.592840 0.294162 -0.876088
0.598361 0.290715 -0.848234
0.580467 0.229954 -0.848034
0.575465 0.234483 -0.876001
0.637369 0.281090 -0.923560
0.648026 0.278053 -0.892640
0.630651 0.218375 -0.892552
0.620709 0.223129 -0.923295
0.583142 0.296839 -0.903456
0.593799 0.293802 -0.872536
0.576423 0.234124 -0.872448
0.566482 0.238878 -0.903191
0.592818 0.289429 -0.964687
0.627916 0.283775 -0.937170
0.611256 0.225814 -0.936905
0.577731 0.237516 -0.964550
0.557453 0.299821 -0.917421
0.592550 0.294167 -0.889904
0.575891 0.236206 -0.889639
0.542365 0.247907 -0.917284
0.529664 0.301191 -0.975947
0.578064 0.293688 -0.970878
0.562976 0.241775 -0.970741
0.516627 0.257524 -0.975850
0.523725 0.303085 -0.916332
0.572125 0.295582 -0.911263
0.557038 0.243669 -0.911126
0.510689 0.259418 -0.916235
0.463043 0.315168 -0.950136
0.514965 0.305595 -0.973515
0.501929 0.261928 -0.973417
0.452455 0.280357 -0.950027
0.486403 0.308279 -0.895367
0.538326 0.298707 -0.918746
0.525289 0.255040 -0.918648
0.475815 0.273469 -0.895258
0.635215 0.208029 -0.854023
0.633741 0.205560 -0.830300
0.604833 0.149313 -0.830124
0.606622 0.151651 -0.853883
0.581836 0.235279 -0.854933
0.580362 0.232810 -0.831210
0.551454 0.176564 -0.831034
0.553243 0.178901 -0.854793
0.629746 0.213120 -0.888776
0.634748 0.208591 -0.860809
0.606155 0.152213 -0.860669
0.602447 0.157173 -0.888595
0.577298 0.239254 -0.876165
0.582300 0.234724 -0.848198
0.553707 0.178346 -0.848059
0.549999 0.183306 -0.875985
0.618959 0.218575 -0.923279
0.628900 0.213820 -0.892536
0.601602 0.157873 -0.892356
0.592646 0.164393 -0.923307
0.568189 0.243318 -0.903206
0.578130 0.238564 -0.872464
0.550831 0.182617 -0.872283
0.541875 0.189137 -0.903235
0.576565 0.234558 -0.964561
0.610091 0.222856 -0.936917
0.583778 0.168674 -0.936945
0.552700 0.186002 -0.964432
0.543489 0.250759 -0.917272
0.577015 0.239057 -0.889627
0.550702 0.184876 -0.889656
0.519624 0.202204 -0.917143
0.516437 0.256975 -0.975846
0.562786 0.241226 -0.970737
0.538921 0.192671 -0.970608
0.496014 0.216247 -0.975790
0.510842 0.259875 -0.916238
0.557191 0.244125 -0.911129
0.533326 0.195570 -0.911000
