1.204559 0.692067 0.611897
1.204927 0.691576 0.625624
1.211560 0.680079 0.619555
1.211106 0.680598 0.606233
1.131418 0.649765 0.612540
1.131786 0.649274 0.626267
1.138419 0.637777 0.620198
1.137965 0.638296 0.606876
1.204828 0.691745 0.625631
1.205202 0.691261 0.639360
1.211917 0.679730 0.632882
1.211461 0.680248 0.619562
1.131885 0.649104 0.626288
1.132258 0.648620 0.640017
1.138974 0.637089 0.633538
1.138518 0.637607 0.620218
1.176120 0.712358 0.613542
1.168812 0.713564 0.621299
1.168712 0.713295 0.629823
1.176487 0.711867 0.627270
1.159843 0.629487 0.610906
1.152536 0.630693 0.618662
1.152436 0.630423 0.627186
1.160211 0.628996 0.624633
1.176215 0.711918 0.627325
1.168440 0.713345 0.629878
1.168332 0.713049 0.638398
1.176588 0.711433 0.641054
1.160484 0.628944 0.624600
1.152709 0.630372 0.627154
1.152601 0.630075 0.635674
1.160857 0.628460 0.638330
1.168842 0.713547 0.621623
1.161533 0.714730 0.629381
1.160958 0.714665 0.632695
1.168742 0.713277 0.630147
1.152491 0.630713 0.618349
1.145182 0.631897 0.626106
1.144606 0.631832 0.629421
1.152391 0.630444 0.626872
1.168322 0.713353 0.630254
1.160537 0.714742 0.632803
1.159961 0.714670 0.636119
1.168214 0.713057 0.638774
1.152811 0.630367 0.626777
1.145026 0.631755 0.629325
1.144450 0.631684 0.632642
1.152703 0.630070 0.635297
1.133604 0.715949 0.635048
1.125116 0.715892 0.637878
1.133953 0.715863 0.642715
1.138352 0.715751 0.637957
1.132707 0.631463 0.634149
1.124219 0.631406 0.636979
1.133056 0.631377 0.641816
1.137455 0.631265 0.637057
1.138389 0.715752 0.637215
1.133990 0.715864 0.641974
1.142832 0.715763 0.646040
1.143140 0.715746 0.639851
1.137432 0.631264 0.637806
1.133033 0.631376 0.642565
1.141875 0.631275 0.646631
1.142183 0.631258 0.640442
1.147428 0.715466 0.641251
1.147121 0.715483 0.647440
1.156157 0.714435 0.642791
1.152174 0.715149 0.638363
1.137909 0.631537 0.639042
1.137601 0.631555 0.645231
1.146637 0.630507 0.640582
1.142654 0.631220 0.636154
1.152677 0.714849 0.641866
1.156660 0.714135 0.646293
1.165711 0.713229 0.641651
1.157458 0.714842 0.638996
1.142165 0.631519 0.632644
1.146148 0.630805 0.637071
1.155199 0.629898 0.632430
1.146946 0.631512 0.629775
1.124643 0.715897 0.637267
1.116155 0.715853 0.640094
1.129220 0.715936 0.646929
1.133480 0.715868 0.642105
1.124679 0.631402 0.637597
1.116191 0.631358 0.640424
1.129256 0.631442 0.647259
1.133516 0.631373 0.642435
1.134048 0.715864 0.642134
1.129788 0.715933 0.646959
1.142868 0.715786 0.652275
1.142891 0.715763 0.646201
1.132970 0.631376 0.642415
1.128710 0.631445 0.647240
1.141790 0.631298 0.652556
1.141813 0.631275 0.646482
1.148034 0.715379 0.646954
1.148011 0.715402 0.653028
1.161191 0.713601 0.646676
1.157070 0.714331 0.642305
1.136691 0.631658 0.645727
1.136668 0.631680 0.651802
1.149848 0.629879 0.645450
1.145727 0.630610 0.641078
1.157790 0.714147 0.644360
1.161911 0.713416 0.648731
1.175097 0.711625 0.642374
1.166841 0.713240 0.639718
1.145030 0.630792 0.639012
1.149151 0.630061 0.643383
1.162337 0.628270 0.637026
1.154081 0.629885 0.634370
1.083851 0.667632 0.569852
1.091212 0.669777 0.563602
1.089819 0.653100 0.562703
1.083018 0.651618 0.568123
1.138623 0.658780 0.633578
1.145985 0.660926 0.627328
1.144592 0.644248 0.626430
1.137791 0.642767 0.631849
1.084343 0.651596 0.567027
1.091145 0.653078 0.561608
1.089752 0.636397 0.560712
1.083513 0.635585 0.565296
1.136463 0.642756 0.632942
1.143265 0.644238 0.627523
1.141872 0.627557 0.626627
1.135633 0.626745 0.631211
1.085258 0.635559 0.563985
1.091497 0.636372 0.559401
1.090105 0.619692 0.558503
1.084422 0.619548 0.562255
1.133886 0.626738 0.632519
1.140125 0.627550 0.627935
1.138733 0.610871 0.627038
1.133050 0.610726 0.630789
1.086778 0.619479 0.560692
1.092461 0.619624 0.556940
1.091068 0.602944 0.556051
1.085950 0.603467 0.558965
1.130693 0.610762 0.632350
1.136375 0.610907 0.628599
1.134982 0.594227 0.627710
1.129864 0.594749 0.630623
1.198713 0.662234 0.570522
1.206256 0.660886 0.578675
1.205606 0.644865 0.577464
1.198942 0.646540 0.569601
1.135270 0.659329 0.626253
1.142813 0.657981 0.634406
1.142163 0.641960 0.633195
1.135498 0.643634 0.625332
1.200233 0.646408 0.571137
1.206898 0.644734 0.579000
1.206254 0.628713 0.577787
1.200462 0.630714 0.570218
1.134206 0.643734 0.623794
1.140871 0.642060 0.631657
1.140226 0.626039 0.630444
1.134435 0.628040 0.622875
1.201862 0.630557 0.572068
1.207654 0.628556 0.579637
1.207009 0.612534 0.578424
1.202091 0.614865 0.571148
1.133034 0.628165 0.621022
1.138826 0.626164 0.628591
1.138181 0.610142 0.627378
1.133264 0.612473 0.620102
1.203442 0.614548 0.573152
1.208359 0.612217 0.580428
1.207710 0.596195 0.579215
1.203662 0.598854 0.572420
1.131913 0.612759 0.618095
1.136830 0.610427 0.625371
1.136181 0.594406 0.624158
1.132133 0.597064 0.617363
1.117914 0.663084 0.553282
1.134146 0.661996 0.552867
1.134965 0.647391 0.553844
1.120852 0.646907 0.553898
1.119310 0.667621 0.637644
1.135541 0.666533 0.637229
1.136361 0.651928 0.638206
1.122248 0.651444 0.638260
1.122169 0.647036 0.553890
1.136282 0.647521 0.553836
1.137088 0.632926 0.554819
1.125106 0.630858 0.554511
1.120935 0.651284 0.638270
1.135048 0.651768 0.638215
1.135854 0.637173 0.639198
1.123872 0.635105 0.638890
1.126878 0.631043 0.554565
1.138860 0.633111 0.554873
1.139655 0.618524 0.555860
1.129814 0.614865 0.555193
1.122104 0.634890 0.638838
1.134086 0.636958 0.639146
1.134881 0.622371 0.640133
1.125040 0.618711 0.639466
1.137412 0.661636 0.552960
1.153515 0.660076 0.554049
1.152195 0.645692 0.554852
1.138232 0.647031 0.553936
1.132305 0.666891 0.637137
1.148408 0.665331 0.638226
1.147088 0.650947 0.639029
1.133125 0.652286 0.638114
1.138119 0.647007 0.553931
1.152083 0.645667 0.554847
1.150754 0.631278 0.555649
1.138925 0.632412 0.554914
1.133237 0.652282 0.638120
1.147201 0.650942 0.639036
1.145872 0.636553 0.639839
1.134043 0.637687 0.639104
1.138738 0.632396 0.554905
1.150567 0.631261 0.555640
1.149227 0.616870 0.556440
1.139533 0.617809 0.555893
1.134229 0.637674 0.639115
1.146058 0.636540 0.639850
1.144718 0.622148 0.640650
1.135024 0.623088 0.640102
1.156089 0.660439 0.554263
1.172091 0.658521 0.556507
1.168624 0.643338 0.556717
1.154769 0.646055 0.555066
1.145864 0.664964 0.638016
1.161867 0.663046 0.640259
1.158400 0.647863 0.640470
1.144545 0.650580 0.638818
1.153597 0.646229 0.554931
1.167452 0.643512 0.556582
1.163985 0.628330 0.556789
1.152268 0.631839 0.555733
1.145712 0.650376 0.638955
1.159566 0.647659 0.640606
1.156099 0.632478 0.640813
1.144383 0.635987 0.639757
1.150665 0.632080 0.555602
1.162381 0.628571 0.556658
1.158915 0.613387 0.556867
1.149325 0.617688 0.556402
1.145981 0.635717 0.639889
1.157697 0.632208 0.640945
1.154231 0.617024 0.641154
1.144641 0.621325 0.640689
1.123126 0.703614 0.575311
1.136391 0.703871 0.575134
1.135149 0.695409 0.566495
1.118917 0.696497 0.566910
1.122517 0.641348 0.632426
1.135781 0.641605 0.632249
1.134539 0.633143 0.623609
1.118308 0.634231 0.624024
1.139538 0.701206 0.572667
1.152765 0.700990 0.573196
1.154398 0.691184 0.565117
1.138295 0.692745 0.564027
1.132664 0.644268 0.634717
1.145892 0.644052 0.635247
1.147525 0.634246 0.627167
1.131422 0.635806 0.626077
1.155565 0.698264 0.571307
1.168759 0.697565 0.572536
1.173200 0.686539 0.565471
1.157198 0.688457 0.563227
1.143121 0.646777 0.637138
1.156315 0.646078 0.638367
1.160756 0.635052 0.631302
1.144754 0.636970 0.629058
1.082644 0.699142 0.637232
1.084247 0.698894 0.622532
1.075474 0.686924 0.613401
1.073230 0.685092 0.628068
1.149675 0.648055 0.643259
1.151278 0.647806 0.628559
1.142505 0.635836 0.619428
1.140261 0.634004 0.634095
1.085567 0.700565 0.622775
1.087171 0.700308 0.608075
1.079040 0.690432 0.598974
1.076794 0.688595 0.613643
1.149961 0.646136 0.628288
1.151566 0.645879 0.613588
1.143434 0.636003 0.604487
1.141189 0.634167 0.619156
1.118830 0.715336 0.610070
1.117226 0.715593 0.624769
1.124834 0.715725 0.627132
1.125559 0.715571 0.617623
1.119922 0.630862 0.611608
1.118318 0.631119 0.626307
1.125927 0.631250 0.628670
1.126651 0.631096 0.619161
1.117288 0.715594 0.624788
1.115685 0.715843 0.639488
1.124173 0.715887 0.636660
1.124897 0.715726 0.627151
1.118254 0.631118 0.626313
1.116651 0.631367 0.641013
1.125139 0.631411 0.638185
1.125862 0.631250 0.628676
1.125500 0.715573 0.617773
1.124776 0.715726 0.627282
1.132385 0.715848 0.629645
1.132229 0.715805 0.625326
1.126724 0.631095 0.619021
1.126000 0.631249 0.628530
1.133609 0.631370 0.630894
1.133453 0.631328 0.626575
1.124897 0.715725 0.627104
1.124174 0.715886 0.636614
1.132662 0.715943 0.633784
1.132506 0.715846 0.629468
1.125878 0.631251 0.628721
1.125154 0.631412 0.638231
1.133642 0.631469 0.635401
1.133486 0.631372 0.631085
1.124501 0.714603 0.601036
1.121062 0.715217 0.607985
1.127790 0.715451 0.615538
1.132220 0.714943 0.610525
1.121135 0.630367 0.606726
1.117696 0.630981 0.613675
1.124425 0.631215 0.621228
1.128854 0.630706 0.616215
1.132091 0.714953 0.610609
1.127662 0.715462 0.615622
1.134391 0.715695 0.623175
1.139812 0.715310 0.620097
1.128997 0.630696 0.616148
1.124567 0.631205 0.621161
1.131296 0.631438 0.628714
1.136717 0.631053 0.625635
1.164438 0.713970 0.603164
1.151244 0.714668 0.601935
1.150043 0.715038 0.610837
1.158074 0.714885 0.611578
1.160630 0.629685 0.607756
1.147436 0.630383 0.606527
1.146234 0.630754 0.615430
1.154266 0.630600 0.616170
1.150011 0.714739 0.602669
1.136784 0.714955 0.602139
1.141111 0.715197 0.611149
1.148810 0.715110 0.611571
1.148647 0.630313 0.605792
1.135419 0.630528 0.605262
1.139746 0.630770 0.614272
1.147446 0.630683 0.614694
1.135302 0.714974 0.602887
1.122038 0.714717 0.603064
1.129756 0.715057 0.612553
1.139629 0.715216 0.611897
1.136878 0.630509 0.604514
1.123614 0.630252 0.604691
1.131333 0.630592 0.614180
1.141206 0.630751 0.613524
1.156129 0.714847 0.610400
1.148098 0.715000 0.609660
1.145858 0.715505 0.618462
1.149763 0.715759 0.618816
1.156203 0.630639 0.617365
1.148171 0.630793 0.616625
1.145931 0.631297 0.625427
1.149837 0.631551 0.625781
1.147653 0.715110 0.611514
1.139954 0.715197 0.611092
1.141508 0.715367 0.619964
1.145413 0.715615 0.620316
1.148604 0.630683 0.614769
1.140905 0.630770 0.614347
1.142459 0.630939 0.623219
1.146364 0.631187 0.623572
1.139883 0.715217 0.611783
1.130010 0.715058 0.612438
1.137731 0.715415 0.621926
1.141437 0.715387 0.620654
1.140963 0.630750 0.613657
1.131090 0.630591 0.614313
1.138810 0.630947 0.623801
1.142517 0.630919 0.622529
1.190070 0.696700 0.585246
1.195507 0.695795 0.591997
1.202053 0.684326 0.586334
1.194511 0.685674 0.578181
1.135026 0.646942 0.625667
1.140463 0.646038 0.632418
1.147010 0.634568 0.626755
1.139467 0.635916 0.618602
1.174410 0.712678 0.612174
1.168972 0.713582 0.605422
1.162608 0.714497 0.613836
1.167102 0.713885 0.619931
1.161548 0.629167 0.612256
1.156111 0.630071 0.605505
1.149747 0.630986 0.613919
1.154241 0.630374 0.620013
1.166423 0.713980 0.619425
1.161929 0.714593 0.613331
1.155563 0.715505 0.621746
1.159113 0.715164 0.627182
1.154907 0.630280 0.620535
1.150413 0.630893 0.614441
1.144047 0.631805 0.622856
1.147598 0.631464 0.628293
1.096440 0.705234 0.595786
1.099880 0.704620 0.588837
1.095671 0.697504 0.580435
1.088309 0.695358 0.586685
1.142303 0.640955 0.625856
1.145743 0.640341 0.618907
1.141534 0.633224 0.610505
1.134172 0.631079 0.616755
1.069494 0.665926 0.595776
1.068662 0.649912 0.594047
1.066829 0.648459 0.606487
1.067249 0.664089 0.610445
1.152971 0.660483 0.607674
1.152138 0.644469 0.605944
1.150305 0.643015 0.618384
1.150725 0.658646 0.622342
1.068626 0.649858 0.594280
1.067796 0.633847 0.592549
1.066401 0.632783 0.602526
1.066793 0.648404 0.606721
1.152173 0.644492 0.605705
1.151343 0.628481 0.603974
1.149949 0.627417 0.613950
1.150340 0.643038 0.618145
1.067747 0.633792 0.592887
1.066912 0.617781 0.591157
1.066065 0.617157 0.597792
1.066353 0.632728 0.602863
1.151390 0.628503 0.603630
1.150554 0.612492 0.601900
1.149708 0.611868 0.608535
1.149996 0.627439 0.613607
1.066879 0.617836 0.591443
1.066051 0.601824 0.589716
1.066033 0.617212 0.598078
1.150585 0.612410 0.601608
1.149757 0.596397 0.599881
1.149739 0.611786 0.608243
1.067240 0.663913 0.610432
1.066819 0.648283 0.606474
1.064955 0.646815 0.619108
1.064996 0.662081 0.625099
1.150730 0.658818 0.622382
1.150310 0.643188 0.618425
1.148445 0.641720 0.631058
1.148486 0.656987 0.637049
1.066776 0.648157 0.606735
1.066384 0.632536 0.602540
1.064892 0.631426 0.613378
1.064911 0.646689 0.619368
1.150354 0.643283 0.618154
1.149962 0.627661 0.613959
1.148470 0.626552 0.624797
1.148489 0.641815 0.630787
1.066331 0.632466 0.602910
1.066044 0.616895 0.597839
1.064781 0.616092 0.607757
1.064839 0.631356 0.613748
1.150015 0.627700 0.613578
1.149727 0.612129 0.608507
1.148465 0.611326 0.618425
1.148523 0.626590 0.624416
1.065957 0.616698 0.598472
1.065975 0.601310 0.590110
1.064673 0.600631 0.602401
1.064694 0.615896 0.608390
1.149814 0.612294 0.607861
1.149832 0.596905 0.599499
1.148530 0.596226 0.611789
1.148551 0.611492 0.617779
1.216729 0.657947 0.604931
1.217183 0.657428 0.618253
1.216522 0.641606 0.614545
1.216079 0.641926 0.603720
1.132348 0.660919 0.608170
1.132802 0.660400 0.621491
1.132141 0.644578 0.617783
1.131698 0.644898 0.606959
1.216066 0.641991 0.603359
1.216509 0.641671 0.614184
1.215854 0.625836 0.610335
1.215421 0.625970 0.602146
1.131710 0.644801 0.607314
1.132153 0.644482 0.618139
1.131499 0.628647 0.614291
1.131065 0.628780 0.606102
1.215390 0.626032 0.601532
1.215823 0.625898 0.609721
1.215121 0.610022 0.605364
1.214745 0.610010 0.600319
1.131095 0.628686 0.606710
1.131528 0.628553 0.614900
1.130827 0.612676 0.610543
1.130451 0.612664 0.605497
1.214703 0.609855 0.599771
1.215079 0.609867 0.604816
1.214054 0.593833 0.598557
1.130492 0.612793 0.606040
1.130868 0.612804 0.611085
1.129842 0.596771 0.604826
1.217190 0.657580 0.618316
1.217646 0.657062 0.631637
1.216949 0.641448 0.625546
1.216530 0.641758 0.614608
1.132795 0.660248 0.621452
1.133251 0.659730 0.634772
1.132554 0.644117 0.628681
1.132135 0.644426 0.617744
1.216522 0.641973 0.614267
1.216941 0.641664 0.625204
1.216324 0.626049 0.619109
1.215867 0.626138 0.610418
1.132141 0.644179 0.618076
1.132560 0.643870 0.629013
1.131943 0.628255 0.622918
1.131487 0.628345 0.614227
1.215834 0.626269 0.609732
1.216291 0.626179 0.618423
1.215637 0.610565 0.612330
1.215132 0.610392 0.605375
1.131519 0.628182 0.614903
1.131975 0.628093 0.623594
1.131322 0.612478 0.617501
1.130817 0.612305 0.610546
1.215012 0.610759 0.603792
1.215517 0.610932 0.610746
1.214886 0.595317 0.604650
1.213987 0.594725 0.597532
1.130935 0.611907 0.612118
1.131440 0.612080 0.619073
1.130810 0.596466 0.612977
1.129910 0.595874 0.605859
1.155158 0.647269 0.557031
1.155386 0.631575 0.556112
1.147995 0.632599 0.558370
1.151462 0.647780 0.558163
1.179270 0.642876 0.637893
1.179499 0.627181 0.636974
1.172107 0.628205 0.639232
1.175575 0.643387 0.639025
1.155623 0.615866 0.555189
1.144535 0.617397 0.558576
1.148002 0.632581 0.558367
1.155393 0.631557 0.556109
1.179718 0.611477 0.636057
1.168631 0.613009 0.639444
1.172097 0.628192 0.639234
1.179489 0.627169 0.636977
1.154910 0.662977 0.557959
1.155139 0.647283 0.557037
1.151443 0.647794 0.558169
1.179064 0.658582 0.638809
1.179292 0.642887 0.637887
1.175597 0.643398 0.639019
1.135385 0.650166 0.556176
1.131053 0.649666 0.554661
1.132446 0.666343 0.555559
1.107699 0.648179 0.635982
1.103368 0.647679 0.634467
1.104761 0.664356 0.635366
1.139468 0.613178 0.560436
1.150555 0.611646 0.557049
1.150775 0.595951 0.556316
1.144181 0.596664 0.560658
1.173699 0.617197 0.637583
1.184786 0.615665 0.634196
1.185006 0.599970 0.633463
1.178412 0.600683 0.637804
1.138328 0.633966 0.556798
1.129668 0.632963 0.553767
1.131060 0.649644 0.554663
1.135391 0.650144 0.556178
1.110630 0.631995 0.636601
1.101970 0.630993 0.633569
1.103362 0.647673 0.634465
1.107693 0.648174 0.635980
1.138350 0.633943 0.556805
1.141286 0.617765 0.557434
1.128298 0.616261 0.552877
1.129690 0.632941 0.553774
1.110610 0.631985 0.636593
1.113546 0.615807 0.637222
1.100557 0.614304 0.632664
1.101949 0.630983 0.633562
1.146934 0.612478 0.560106
1.137951 0.595939 0.559383
1.132553 0.594295 0.554660
1.133946 0.610975 0.555549
1.107893 0.621061 0.634548
1.098910 0.604521 0.633825
1.093512 0.602877 0.629102
1.094905 0.619557 0.629991
