4.284326 0.516767 0.713168
4.269716 0.536367 0.736094
4.269020 0.536121 0.751859
4.277565 0.536364 0.752577
4.280418 0.536741 0.736275
4.270388 0.515901 0.735771
4.269692 0.515655 0.751536
4.278237 0.515898 0.752254
4.281091 0.516275 0.735952
4.268968 0.536120 0.751777
4.259715 0.535591 0.768910
4.283192 0.536535 0.771519
4.277513 0.536363 0.752496
4.269740 0.515655 0.751651
4.260487 0.515126 0.768784
4.283964 0.516070 0.771393
4.278285 0.515899 0.752369
4.292920 0.540762 0.581938
4.291750 0.539855 0.609070
4.326265 0.541736 0.610549
4.327357 0.541930 0.583011
4.293838 0.520306 0.581564
4.292668 0.519400 0.608696
4.327184 0.521281 0.610176
4.328275 0.521474 0.582638
4.291633 0.539841 0.609340
4.289698 0.538607 0.636162
4.319207 0.540202 0.637545
4.326148 0.541722 0.610820
4.292780 0.519412 0.608480
4.290845 0.518178 0.635301
4.320354 0.519773 0.636685
4.327295 0.521293 0.609959
4.289728 0.538616 0.635935
4.287919 0.538125 0.662411
4.311963 0.539306 0.663905
4.319237 0.540210 0.637318
4.290806 0.518168 0.635582
4.288998 0.517677 0.662058
4.313042 0.518858 0.663553
4.320315 0.519762 0.636965
4.288003 0.538129 0.662447
4.286079 0.537721 0.688485
4.304775 0.538359 0.690529
4.312047 0.539310 0.663941
4.288905 0.517672 0.662076
4.286981 0.517264 0.688115
4.305676 0.517903 0.690158
4.312949 0.518853 0.663570
4.286169 0.537724 0.688500
4.283670 0.537233 0.713517
4.298009 0.537663 0.716437
4.304864 0.538363 0.690543
4.286883 0.517260 0.688153
4.284384 0.516769 0.713170
4.298723 0.517199 0.716090
4.305578 0.517899 0.690196
4.283700 0.537234 0.713559
4.280447 0.536742 0.736287
4.290741 0.536908 0.742985
4.298039 0.537663 0.716479
4.284344 0.516768 0.713178
4.281090 0.516276 0.735906
4.291385 0.516442 0.742604
4.298683 0.517198 0.716099
4.280405 0.536741 0.736208
4.277552 0.536365 0.752510
4.283231 0.536536 0.771533
4.290700 0.536908 0.742906
4.281121 0.516275 0.736032
4.278268 0.515899 0.752334
4.283947 0.516070 0.771357
4.291416 0.516441 0.742730
4.261204 0.525848 0.758687
4.253031 0.586379 0.760591
4.284682 0.526792 0.761297
4.258982 0.524909 0.779024
4.250809 0.585439 0.780928
4.282459 0.525852 0.781633
4.205165 0.494394 0.683210
4.205893 0.493738 0.717560
4.205692 0.520027 0.709917
4.204455 0.521032 0.675987
4.225635 0.494582 0.682625
4.226363 0.493926 0.716975
4.226162 0.520215 0.709333
4.224925 0.521220 0.675403
4.205894 0.493512 0.717216
4.206284 0.492729 0.741761
4.204908 0.520984 0.733412
4.205693 0.519801 0.709574
4.226363 0.494151 0.717378
4.226752 0.493368 0.741923
4.225377 0.521623 0.733574
4.226162 0.520440 0.709735
4.206303 0.492341 0.741786
4.206744 0.490659 0.766328
4.204142 0.521795 0.757238
4.204928 0.520596 0.733438
4.226733 0.493756 0.741946
4.227174 0.492073 0.766488
4.224572 0.523209 0.757398
4.225358 0.522011 0.733597
4.268338 0.503708 0.433318
4.268033 0.503374 0.471864
4.265582 0.533377 0.470717
4.265429 0.534698 0.434999
4.288738 0.505500 0.433399
4.288434 0.505166 0.471946
4.285983 0.535169 0.470798
4.285830 0.536490 0.435081
4.283125 0.544699 0.423807
4.275457 0.545828 0.434386
4.303138 0.545794 0.435562
4.308173 0.545776 0.423821
4.283501 0.524262 0.425070
4.275833 0.525391 0.435649
4.303514 0.525357 0.436826
4.308549 0.525339 0.425084
4.308096 0.545789 0.424760
4.303061 0.545807 0.436501
4.330737 0.546047 0.437674
4.333136 0.547014 0.424790
4.308679 0.525327 0.424147
4.303643 0.525345 0.435888
4.331320 0.525585 0.437061
4.333719 0.526552 0.424177
4.300445 0.541235 0.559684
4.293083 0.540770 0.581765
4.327520 0.541938 0.582839
4.328036 0.541870 0.560609
4.301043 0.520764 0.559607
4.293680 0.520299 0.581687
4.328118 0.521467 0.582761
4.328634 0.521400 0.560531
4.200081 0.498301 0.560786
4.200924 0.497332 0.586389
4.201430 0.523908 0.584736
4.201044 0.524416 0.558770
4.220545 0.497695 0.560281
4.221388 0.496726 0.585884
4.221895 0.523302 0.584231
4.221508 0.523810 0.558265
4.200921 0.497147 0.586413
4.201777 0.496175 0.612021
4.201818 0.523202 0.610724
4.201427 0.523722 0.584761
4.221393 0.496910 0.585911
4.222249 0.495939 0.611519
4.222290 0.522966 0.610222
4.221899 0.523486 0.584259
4.208051 0.497992 0.496658
4.204111 0.497527 0.528096
4.202901 0.523920 0.526306
4.204675 0.524656 0.495101
4.228357 0.499866 0.498546
4.224417 0.499401 0.529984
4.223207 0.525794 0.528194
4.224981 0.526530 0.496989
4.204064 0.498348 0.528138
4.200118 0.497883 0.559572
4.201081 0.523998 0.557556
4.202855 0.524741 0.526348
4.224457 0.498578 0.530004
4.220511 0.498114 0.561438
4.221474 0.524229 0.559422
4.223248 0.524972 0.528215
4.256261 0.503510 0.482228
4.236694 0.501065 0.484819
4.234681 0.525624 0.483917
4.255622 0.525961 0.481985
4.258490 0.504131 0.502577
4.238923 0.501686 0.505167
4.236910 0.526245 0.504265
4.257851 0.526582 0.502334
4.236695 0.500771 0.484832
4.217122 0.498327 0.487422
4.213746 0.524991 0.485865
4.234682 0.525330 0.483930
4.238882 0.501977 0.505159
4.219309 0.499533 0.507748
4.215933 0.526197 0.506192
4.236869 0.526536 0.504257
4.270887 0.503646 0.464818
4.250059 0.503203 0.485275
4.249420 0.525654 0.485032
4.268435 0.533650 0.463671
4.285561 0.504888 0.479050
4.264733 0.504444 0.499507
4.264094 0.526895 0.499264
4.283109 0.534891 0.477902
4.276210 0.504641 0.415895
4.269839 0.504385 0.427943
4.266930 0.535374 0.429625
4.274598 0.534245 0.419045
4.293616 0.505080 0.426678
4.287244 0.504823 0.438726
4.284336 0.535813 0.440407
4.292004 0.534684 0.429828
4.269940 0.535090 0.066488
4.270001 0.535446 0.043846
4.269612 0.509059 0.042848
4.269951 0.508859 0.066053
4.290418 0.534946 0.066362
4.290480 0.535302 0.043720
4.290091 0.508915 0.042723
4.290430 0.508715 0.065928
4.270003 0.535599 0.043823
4.270067 0.535976 0.021180
4.269280 0.509384 0.019621
4.269614 0.509211 0.042826
4.290478 0.535150 0.043697
4.290541 0.535528 0.021053
4.289754 0.508936 0.019495
4.290088 0.508763 0.042699
4.279376 0.545961 0.021312
4.279312 0.545583 0.043956
4.307173 0.548095 0.043849
4.302666 0.548179 0.020981
4.281258 0.525572 0.020922
4.281195 0.525194 0.043565
4.309055 0.527706 0.043458
4.304548 0.527790 0.020590
4.279366 0.545588 0.043977
4.279305 0.545232 0.066619
4.311732 0.547979 0.066739
4.307226 0.548100 0.043870
4.281146 0.525189 0.043589
4.281084 0.524833 0.066232
4.313512 0.527581 0.066352
4.309006 0.527701 0.043482
4.302681 0.548179 0.021037
4.307188 0.548095 0.043905
4.334336 0.550564 0.044059
4.325971 0.550421 0.020701
4.304583 0.527795 0.020533
4.309090 0.527711 0.043401
4.336238 0.530179 0.043555
4.327873 0.530037 0.020197
4.307240 0.548099 0.043935
4.311746 0.547979 0.066804
4.344169 0.550799 0.066930
4.334388 0.550568 0.044089
4.309052 0.527707 0.043417
4.313559 0.527586 0.066287
4.345982 0.530406 0.066412
4.336201 0.530176 0.043571
4.275559 0.545844 0.435356
4.275712 0.544523 0.471073
4.302193 0.544909 0.472700
4.303239 0.545809 0.436533
4.275724 0.525374 0.434726
4.275878 0.524054 0.470443
4.302358 0.524440 0.472069
4.303405 0.525340 0.435903
4.303221 0.545811 0.436447
4.302174 0.544912 0.472614
4.328658 0.545290 0.474244
4.330897 0.546052 0.437620
4.303478 0.525339 0.435991
4.302431 0.524439 0.472158
4.328915 0.524817 0.473788
4.331155 0.525579 0.437164
4.255984 0.536212 0.494547
4.291926 0.540317 0.494843
4.301480 0.544595 0.474812
4.274999 0.544208 0.473186
4.257560 0.516365 0.489749
4.293502 0.520469 0.490045
4.303056 0.524748 0.470014
4.276575 0.524361 0.468388
4.291980 0.540550 0.493516
4.327918 0.544671 0.493820
4.328018 0.545207 0.475115
4.301534 0.544828 0.473485
4.293510 0.520241 0.491374
4.329448 0.524362 0.491677
4.329548 0.524897 0.472972
4.303065 0.524519 0.471343
4.255796 0.536475 0.491845
4.263971 0.538998 0.525089
4.295736 0.541383 0.525703
4.291738 0.540579 0.492141
4.257740 0.516098 0.492506
4.265915 0.518622 0.525750
4.297680 0.521007 0.526363
4.293682 0.520203 0.492801
4.291761 0.540586 0.492544
4.295759 0.541390 0.526106
4.327523 0.543790 0.526714
4.327699 0.544707 0.492848
4.293726 0.520202 0.492399
4.297724 0.521006 0.525961
4.329489 0.523405 0.526568
4.329664 0.524323 0.492702
4.264256 0.539027 0.525525
4.272433 0.539582 0.558766
4.300022 0.541214 0.559689
4.296020 0.541412 0.526138
4.265642 0.518595 0.525381
4.273819 0.519150 0.558622
4.301409 0.520782 0.559545
4.297407 0.520980 0.525995
4.296212 0.541417 0.526425
4.300214 0.541220 0.559975
4.327805 0.541855 0.560899
4.327976 0.543817 0.527032
4.297275 0.520978 0.525710
4.301277 0.520780 0.559260
4.328868 0.521416 0.560184
4.329040 0.523377 0.526317
4.256203 0.536501 0.491740
4.235263 0.536164 0.493672
4.238469 0.537027 0.525901
4.264379 0.539024 0.524985
4.257274 0.516068 0.492611
4.236333 0.515731 0.494543
4.239540 0.516594 0.526771
4.265450 0.518591 0.525855
4.264089 0.539014 0.525523
4.238179 0.537017 0.526439
4.241378 0.536936 0.558661
4.272266 0.539570 0.558765
4.265751 0.518603 0.525382
4.239841 0.516606 0.526298
4.243041 0.516524 0.558520
4.273928 0.519158 0.558623
4.235277 0.536174 0.494099
4.214341 0.535834 0.496034
4.212567 0.535098 0.527240
4.238483 0.537037 0.526328
4.236272 0.515718 0.494118
4.215336 0.515379 0.496053
4.213563 0.514643 0.527258
4.239479 0.516582 0.526347
4.238168 0.537016 0.526520
4.212252 0.535077 0.527431
4.210478 0.534334 0.558639
4.241368 0.536934 0.558742
4.239795 0.516603 0.526218
4.213879 0.514664 0.527130
4.212105 0.513922 0.558337
4.242994 0.516521 0.558440
4.240977 0.536895 0.558426
4.210088 0.534295 0.558323
4.210474 0.533786 0.584289
4.223223 0.536244 0.579370
4.243377 0.516560 0.558812
4.212487 0.513960 0.558709
4.212873 0.513452 0.584675
4.225622 0.515910 0.579756
4.258281 0.538549 0.580681
4.292717 0.540753 0.581763
4.300080 0.541218 0.559683
4.272490 0.539586 0.558760
4.259548 0.518109 0.580605
4.293984 0.520313 0.581687
4.301347 0.520778 0.559606
4.273757 0.519146 0.558683
4.223690 0.536290 0.579397
4.258122 0.538537 0.580477
4.272332 0.539574 0.558556
4.241444 0.536940 0.558453
4.225210 0.515869 0.579727
4.259642 0.518116 0.580807
4.273852 0.519153 0.558886
4.242964 0.516519 0.558783
4.219742 0.535750 0.608080
4.222185 0.536070 0.579658
4.209436 0.533612 0.584577
4.209826 0.533092 0.610540
4.224208 0.515764 0.607940
4.226651 0.516084 0.579518
4.213902 0.513626 0.584437
4.214293 0.513106 0.610400
4.210155 0.533142 0.611073
4.211472 0.532168 0.643635
4.226929 0.534899 0.636026
4.220071 0.535801 0.608612
4.213967 0.513054 0.609925
4.215284 0.512079 0.642487
4.230741 0.514811 0.634878
4.223883 0.515712 0.607464
4.213168 0.531259 0.676049
4.239705 0.535654 0.663955
4.227309 0.534971 0.635878
4.211853 0.532240 0.643487
4.216230 0.511025 0.675257
4.242767 0.515420 0.663163
4.230371 0.514737 0.635086
4.214915 0.512006 0.642696
4.214411 0.531525 0.733146
4.213625 0.532724 0.756946
4.236465 0.534164 0.761707
4.236635 0.533712 0.738038
4.215895 0.511113 0.733885
4.215110 0.512312 0.757686
4.237950 0.513752 0.762447
4.238119 0.513300 0.738778
4.236600 0.533716 0.738389
4.236431 0.534168 0.762058
4.259277 0.535566 0.768814
4.258825 0.535877 0.743283
4.238199 0.513300 0.738438
4.238030 0.513751 0.762107
4.260876 0.515149 0.768863
4.260424 0.515460 0.743332
4.214771 0.530304 0.709330
4.213987 0.531487 0.733169
4.236211 0.533673 0.738061
4.236325 0.533380 0.712060
4.217104 0.509968 0.709975
4.216320 0.511151 0.733813
4.238544 0.513337 0.738706
4.238657 0.513044 0.712704
4.236303 0.533382 0.712444
4.236189 0.533676 0.738446
4.258414 0.535837 0.743340
4.257865 0.536389 0.715174
4.238723 0.513047 0.712327
4.238609 0.513340 0.738329
4.260834 0.515501 0.743223
4.260285 0.516053 0.715057
4.250536 0.536245 0.688259
4.231899 0.533760 0.682148
4.236052 0.533344 0.712696
4.257614 0.536351 0.715426
4.253452 0.515985 0.687583
4.234815 0.513501 0.681471
4.238968 0.513085 0.712020
4.260530 0.516092 0.714749
4.231859 0.533754 0.682152
4.213222 0.531267 0.676040
4.214459 0.530262 0.709970
4.236012 0.533338 0.712700
4.234815 0.513501 0.681458
4.216178 0.511014 0.675347
4.217415 0.510009 0.709277
4.238968 0.513085 0.712007
4.250505 0.536238 0.688315
4.239767 0.535662 0.663998
4.231868 0.533754 0.682204
4.253477 0.515993 0.687483
4.242739 0.515416 0.663166
4.234839 0.513508 0.681372
4.231854 0.533752 0.682200
4.239754 0.535660 0.663993
4.213217 0.531265 0.676088
4.234828 0.513507 0.681368
4.242728 0.515414 0.663162
4.216192 0.511020 0.675257
4.236495 0.534532 0.770646
4.259570 0.535576 0.768438
4.236724 0.534179 0.761681
4.237500 0.514094 0.771477
4.260575 0.515138 0.769268
4.237729 0.513741 0.762512
4.213376 0.533481 0.772799
4.236451 0.534527 0.770594
4.236680 0.534174 0.761629
4.213840 0.532734 0.756868
4.214430 0.513050 0.773732
4.237506 0.514096 0.771526
4.237734 0.513743 0.762561
4.214894 0.512303 0.757800
4.251110 0.586058 0.760551
4.259283 0.525528 0.758648
4.236208 0.524484 0.760857
4.232010 0.583468 0.761557
4.252691 0.585777 0.780968
4.260864 0.525247 0.779064
4.237788 0.524202 0.781273
4.233591 0.583186 0.781974
4.231963 0.583326 0.761560
4.236161 0.524342 0.760859
4.213085 0.523296 0.763065
4.212876 0.580741 0.762727
4.233596 0.583324 0.781974
4.237794 0.524340 0.781274
4.214718 0.523294 0.783479
4.214509 0.580739 0.783142
4.284463 0.545951 0.312170
4.284150 0.545788 0.340358
4.315877 0.546425 0.339716
4.316321 0.546464 0.310946
4.284832 0.525474 0.312103
4.284519 0.525312 0.340290
4.316245 0.525949 0.339649
4.316690 0.525988 0.310878
4.284100 0.545787 0.340384
4.283867 0.545607 0.368288
4.314110 0.546386 0.368073
4.315827 0.546424 0.339742
4.284567 0.525313 0.340321
4.284334 0.525133 0.368225
4.314577 0.525912 0.368010
4.316294 0.525950 0.339679
4.283803 0.545605 0.368405
4.283413 0.545164 0.396450
4.311042 0.546063 0.396507
4.314046 0.546383 0.368190
4.284396 0.525135 0.368164
4.284005 0.524695 0.396209
4.311635 0.525594 0.396267
4.314639 0.525914 0.367950
4.283323 0.545161 0.396466
4.282933 0.544712 0.424527
4.307981 0.545790 0.424541
4.310953 0.546060 0.396523
4.284091 0.524697 0.396250
4.283701 0.524248 0.424310
4.308749 0.525326 0.424325
4.311721 0.525596 0.396307
4.316376 0.546465 0.310911
4.315932 0.546426 0.339681
4.347784 0.546960 0.338993
4.348230 0.546934 0.309682
4.316698 0.525988 0.310911
4.316254 0.525949 0.339681
4.348106 0.526483 0.338993
4.348553 0.526457 0.309683
4.315879 0.546425 0.339667
4.314163 0.546387 0.367998
4.344670 0.547142 0.367862
4.347732 0.546959 0.338978
4.316303 0.525950 0.339754
4.314587 0.525912 0.368085
4.345094 0.526667 0.367949
4.348156 0.526484 0.339065
4.314079 0.546385 0.368112
4.311075 0.546065 0.396429
4.338815 0.546975 0.396495
4.344587 0.547140 0.367976
4.314664 0.525914 0.368028
4.311660 0.525594 0.396345
4.339400 0.526504 0.396410
4.345172 0.526669 0.367892
4.310950 0.546061 0.396393
4.307978 0.545790 0.424411
4.333018 0.547015 0.424441
4.338690 0.546971 0.396458
4.311777 0.525598 0.396438
4.308805 0.525327 0.424456
4.333845 0.526552 0.424486
4.339517 0.526508 0.396503
4.274495 0.504826 0.375723
4.274589 0.504685 0.398459
4.273460 0.534602 0.396269
4.273850 0.535042 0.368224
4.294964 0.505450 0.375849
4.295059 0.505309 0.398585
4.293930 0.535226 0.396395
4.294320 0.535666 0.368350
4.274595 0.504526 0.398482
4.274688 0.504391 0.421202
4.273076 0.533995 0.424353
4.273466 0.534444 0.396292
4.295053 0.505466 0.398612
4.295146 0.505331 0.421333
4.293533 0.534935 0.424484
4.293924 0.535384 0.396423
4.274379 0.506740 0.347030
4.274491 0.504968 0.375731
4.273847 0.535184 0.368232
4.274080 0.535364 0.340328
4.294855 0.507082 0.347086
4.294968 0.505310 0.375787
4.294324 0.535526 0.368288
4.294557 0.535706 0.340384
4.274156 0.506426 0.313824
4.274377 0.506898 0.347013
4.274079 0.535522 0.340311
4.274392 0.535684 0.312124
4.294636 0.506452 0.313854
4.294857 0.506925 0.347044
4.294558 0.535549 0.340342
4.294871 0.535711 0.312154
4.325900 0.540760 0.047851
4.335682 0.540990 0.070692
4.325981 0.545682 0.047570
4.344715 0.539989 0.039801
4.354497 0.540220 0.062642
4.344796 0.544911 0.039520
4.317386 0.539573 0.024088
4.325751 0.539716 0.047447
4.325833 0.544638 0.047165
4.316162 0.549346 0.024037
4.336483 0.540894 0.016809
4.344848 0.541037 0.040167
4.344929 0.545959 0.039886
4.335258 0.550667 0.016758
4.268737 0.510342 -0.076557
4.268709 0.536571 -0.076397
4.268686 0.537963 -0.107633
4.268643 0.511081 -0.108254
4.289216 0.510336 -0.076595
4.289189 0.536565 -0.076436
4.289166 0.537957 -0.107671
4.289122 0.511075 -0.108293
4.268643 0.511103 -0.108286
4.268686 0.537984 -0.107665
4.268654 0.538743 -0.138241
4.268570 0.511515 -0.139144
4.289122 0.511056 -0.108322
4.289165 0.537937 -0.107701
4.289133 0.538696 -0.138277
4.289049 0.511468 -0.139180
4.268570 0.511529 -0.139172
4.268654 0.538757 -0.138269
4.268610 0.539507 -0.168877
4.268493 0.511956 -0.169997
4.289049 0.511455 -0.139214
4.289133 0.538683 -0.138311
4.289090 0.539433 -0.168918
4.288973 0.511883 -0.170038
4.268493 0.511969 -0.170033
4.268610 0.539519 -0.168913
4.268583 0.540270 -0.199501
4.268432 0.512377 -0.200879
4.288973 0.511871 -0.170064
4.289090 0.539422 -0.168944
4.289062 0.540173 -0.199532
4.288912 0.512279 -0.200910
4.268432 0.512387 -0.200905
4.268583 0.540281 -0.199527
4.268539 0.541030 -0.230120
4.268362 0.512811 -0.231745
4.288912 0.512270 -0.200945
4.289062 0.540163 -0.199568
4.289018 0.540913 -0.230161
4.288841 0.512693 -0.231786
4.268362 0.512821 -0.231778
4.268539 0.541040 -0.230153
4.268504 0.541793 -0.260751
4.268297 0.513234 -0.262614
4.288841 0.512684 -0.231814
4.289018 0.540904 -0.230189
4.288983 0.541657 -0.260787
4.288776 0.513098 -0.262650
4.268297 0.513244 -0.262643
4.268504 0.541802 -0.260780
4.268461 0.542552 -0.291367
4.268230 0.513663 -0.293487
4.288776 0.513090 -0.262683
4.288983 0.541649 -0.260820
4.288940 0.542398 -0.291407
4.288708 0.513509 -0.293527
4.268230 0.513670 -0.293519
4.268461 0.542560 -0.291399
4.268419 0.543311 -0.321999
4.268165 0.514087 -0.324353
4.288708 0.513502 -0.293557
4.288939 0.542392 -0.291437
4.288898 0.543143 -0.322038
4.288644 0.513919 -0.324392
4.278174 0.546784 -0.076036
4.310598 0.549553 -0.076675
4.310451 0.550464 -0.107587
4.278151 0.548177 -0.107272
4.279757 0.526380 -0.076797
4.312181 0.529149 -0.077436
4.312034 0.530060 -0.108347
4.279733 0.527773 -0.108032
4.278263 0.548191 -0.107474
4.310564 0.550478 -0.107788
4.310465 0.550962 -0.138258
4.278231 0.548949 -0.138049
4.279621 0.527760 -0.107892
4.311922 0.530048 -0.108207
4.311823 0.530532 -0.138676
4.279589 0.528519 -0.138468
4.278317 0.548955 -0.138085
4.310551 0.550968 -0.138293
4.310460 0.551430 -0.168729
4.278274 0.549705 -0.168693
4.279502 0.528514 -0.138494
4.311736 0.530527 -0.138702
4.311645 0.530989 -0.169138
4.279459 0.529264 -0.169102
4.278366 0.549711 -0.168726
4.310552 0.551436 -0.168763
4.310454 0.551882 -0.199218
4.278339 0.550462 -0.199315
4.279366 0.529260 -0.169129
4.311553 0.530985 -0.169166
4.311454 0.531430 -0.199621
4.279339 0.530011 -0.199718
4.278409 0.550465 -0.199319
4.310524 0.551885 -0.199223
4.310424 0.552487 -0.229671
4.278364 0.551214 -0.229912
4.279269 0.530009 -0.199774
4.311384 0.531428 -0.199678
4.311284 0.532030 -0.230126
4.279225 0.530758 -0.230367
4.278433 0.551218 -0.229967
4.310493 0.552491 -0.229726
4.310392 0.552946 -0.260171
4.278399 0.551971 -0.260565
4.279155 0.530755 -0.230373
4.311215 0.532028 -0.230132
4.311114 0.532483 -0.260578
4.279121 0.531508 -0.260971
4.278483 0.551974 -0.260586
4.310476 0.552949 -0.260193
4.310376 0.553461 -0.290648
4.278439 0.552724 -0.291174
4.279037 0.531506 -0.261011
4.311030 0.532481 -0.260617
4.310931 0.532993 -0.291072
4.278993 0.532256 -0.291598
4.278518 0.552726 -0.291209
4.310456 0.553464 -0.290683
4.310352 0.553948 -0.321125
4.278477 0.553478 -0.321809
4.278914 0.532255 -0.291624
4.310851 0.532992 -0.291099
4.310747 0.533477 -0.321540
4.278872 0.533006 -0.322225
4.310635 0.549561 -0.076855
4.343057 0.552387 -0.077463
4.342790 0.552656 -0.108127
4.310488 0.550472 -0.107767
4.312209 0.529146 -0.077257
4.344631 0.531972 -0.077865
4.344364 0.532241 -0.108528
4.312062 0.530057 -0.108168
4.310628 0.550484 -0.107879
4.342930 0.552668 -0.108239
4.342775 0.552878 -0.138523
4.310529 0.550968 -0.138348
4.311922 0.530046 -0.108118
4.344224 0.532231 -0.108478
4.344069 0.532441 -0.138762
4.311823 0.530530 -0.138587
4.310608 0.550973 -0.138381
4.342854 0.552883 -0.138556
4.342699 0.553103 -0.168873
4.310517 0.551435 -0.168817
4.311743 0.530526 -0.138615
4.343989 0.532437 -0.138790
4.343834 0.532657 -0.169107
4.311652 0.530988 -0.169051
4.310575 0.551438 -0.168834
4.342757 0.553106 -0.168891
4.342594 0.553418 -0.199188
4.310477 0.551884 -0.199290
4.311594 0.530986 -0.169094
4.343776 0.532654 -0.169150
4.343613 0.532966 -0.199447
4.311496 0.531431 -0.199549
4.310570 0.551888 -0.199323
4.342687 0.553423 -0.199221
4.342530 0.553565 -0.229526
4.310470 0.552490 -0.229771
4.311403 0.531427 -0.199577
4.343520 0.532962 -0.199475
4.343364 0.533104 -0.229780
4.311303 0.532029 -0.230025
4.310576 0.552495 -0.229810
4.342637 0.553569 -0.229565
4.342476 0.553808 -0.259875
4.310475 0.552950 -0.260256
4.311196 0.532026 -0.230047
4.343257 0.533100 -0.229802
4.343096 0.533339 -0.260112
4.311095 0.532481 -0.260492
4.310565 0.552953 -0.260291
4.342566 0.553811 -0.259910
4.342404 0.553967 -0.290210
4.310466 0.553465 -0.290746
4.311004 0.532479 -0.260518
4.343005 0.533337 -0.260137
4.342843 0.533494 -0.290437
4.310905 0.532991 -0.290973
4.310554 0.553466 -0.290761
4.342492 0.553969 -0.290224
4.342328 0.554250 -0.320537
4.310450 0.553951 -0.321202
4.310816 0.532990 -0.291020
4.342755 0.533493 -0.290484
4.342590 0.533774 -0.320797
4.310713 0.533475 -0.321461
4.190288 0.510732 -0.621378
4.190404 0.537721 -0.619459
4.191118 0.537497 -0.652054
4.191302 0.510758 -0.656936
4.210761 0.510693 -0.620859
4.210877 0.537681 -0.618940
4.211591 0.537457 -0.651535
4.211775 0.510718 -0.656417
4.191303 0.510672 -0.656969
4.191119 0.537412 -0.652087
4.191833 0.537184 -0.684678
4.192308 0.510720 -0.692531
4.211776 0.510803 -0.656453
4.211591 0.537542 -0.651571
4.212305 0.537314 -0.684162
4.212781 0.510850 -0.692015
4.213135 0.550222 -0.588123
4.247546 0.551421 -0.589807
4.246554 0.552587 -0.617123
4.210168 0.550531 -0.616526
4.214056 0.529772 -0.588729
4.248467 0.530971 -0.590414
4.247474 0.532137 -0.617729
4.211088 0.530082 -0.617133
4.210041 0.550527 -0.617070
4.246427 0.552583 -0.617667
4.248035 0.552139 -0.644697
4.216390 0.550291 -0.644617
4.211218 0.530086 -0.616644
4.247603 0.532141 -0.617240
4.249212 0.531697 -0.644271
4.217567 0.529850 -0.644190
4.216407 0.550292 -0.644213
4.248053 0.552140 -0.644293
4.251490 0.552837 -0.670775
4.227486 0.551540 -0.670600
4.217560 0.529850 -0.644648
4.249206 0.531697 -0.644729
4.252643 0.532394 -0.671211
4.228639 0.531097 -0.671035
4.227546 0.551543 -0.670608
4.251551 0.552840 -0.670783
4.254964 0.553552 -0.696866
4.238624 0.552784 -0.696990
4.228592 0.531096 -0.671080
4.252597 0.532393 -0.671256
4.256010 0.533105 -0.697338
4.239670 0.532337 -0.697463
4.238697 0.552790 -0.697075
4.255038 0.553557 -0.696951
4.256593 0.554024 -0.722326
4.245262 0.553598 -0.724357
4.239607 0.532333 -0.697430
4.255948 0.533101 -0.697306
4.257504 0.533568 -0.722681
4.246173 0.533142 -0.724713
4.245338 0.553603 -0.724516
4.256669 0.554029 -0.722484
4.255897 0.554090 -0.745511
4.245362 0.553741 -0.752692
4.246101 0.533138 -0.724606
4.257432 0.533564 -0.722574
4.256660 0.533624 -0.745602
4.246125 0.533276 -0.752782
4.245355 0.553741 -0.752702
4.255889 0.554089 -0.745521
4.254903 0.554152 -0.761272
4.245370 0.553877 -0.778242
4.246132 0.533276 -0.752819
4.256666 0.533625 -0.745638
4.255680 0.533688 -0.761389
4.246147 0.533412 -0.778359
4.247631 0.551413 -0.589538
4.282044 0.552562 -0.591221
4.280374 0.554348 -0.618336
4.246638 0.552579 -0.616853
4.248452 0.530982 -0.590686
4.282866 0.532131 -0.592370
4.281195 0.533917 -0.619484
4.247459 0.532148 -0.618001
4.246491 0.552587 -0.617639
4.280226 0.554356 -0.619122
4.277789 0.553781 -0.645926
4.248099 0.552143 -0.644670
4.247605 0.532141 -0.617270
4.281341 0.533910 -0.618753
4.278904 0.533335 -0.645556
4.249214 0.531697 -0.644300
4.248115 0.552144 -0.644329
4.277805 0.553782 -0.645585
4.275497 0.554089 -0.672027
4.251552 0.552841 -0.670811
4.249198 0.531696 -0.644694
4.278888 0.533334 -0.645950
4.276581 0.533641 -0.672391
4.252636 0.532393 -0.671176
4.251608 0.552844 -0.670839
4.275553 0.554092 -0.672054
4.273142 0.554352 -0.698054
4.255021 0.553556 -0.696921
4.252581 0.532391 -0.671201
4.276526 0.533639 -0.672417
4.274116 0.533899 -0.698417
4.255994 0.533103 -0.697284
4.255093 0.553560 -0.696984
4.273214 0.554356 -0.698117
4.270246 0.554543 -0.723087
4.256649 0.554027 -0.722359
4.255922 0.533100 -0.697273
4.274043 0.533895 -0.698406
4.271075 0.534082 -0.723376
4.257478 0.533567 -0.722648
4.256683 0.554030 -0.722492
4.270280 0.554545 -0.723220
4.266609 0.554478 -0.745890
4.255911 0.554090 -0.745519
4.257441 0.533564 -0.722563
4.271038 0.534080 -0.723291
4.267367 0.534013 -0.745961
4.256669 0.533625 -0.745590
4.255934 0.554091 -0.745522
4.266633 0.554479 -0.745893
4.263478 0.554436 -0.762143
4.254948 0.554154 -0.761273
4.256641 0.533624 -0.745626
4.267340 0.534012 -0.745997
4.264185 0.533969 -0.762248
4.255655 0.533687 -0.761377
4.254913 0.554153 -0.761263
4.263443 0.554435 -0.762134
4.268808 0.554831 -0.781252
4.245380 0.553877 -0.778233
4.255686 0.533688 -0.761421
4.264216 0.533971 -0.762291
4.269581 0.534367 -0.781410
4.246153 0.533413 -0.778391
4.282113 0.552549 -0.591001
4.316525 0.553683 -0.592688
4.314934 0.556039 -0.620189
4.280442 0.554336 -0.618116
4.282866 0.532146 -0.592594
4.317278 0.533280 -0.594281
4.315687 0.535635 -0.621782
4.281195 0.533932 -0.619708
4.280282 0.554360 -0.619084
4.314774 0.556063 -0.621158
4.307328 0.555364 -0.647781
4.277845 0.553785 -0.645888
4.281349 0.533910 -0.618794
4.315841 0.535613 -0.620868
4.308395 0.534914 -0.647490
4.278912 0.533335 -0.645597
4.277852 0.553785 -0.645624
4.307335 0.555364 -0.647517
4.299558 0.555292 -0.673978
4.275545 0.554092 -0.672066
4.278895 0.533334 -0.645914
4.308377 0.534913 -0.647807
4.300600 0.534841 -0.674267
4.276587 0.533641 -0.672355
4.275577 0.554094 -0.672106
4.299590 0.555294 -0.674018
4.291813 0.555225 -0.700480
4.273166 0.554354 -0.698107
4.276544 0.533639 -0.672368
4.300558 0.534840 -0.674280
4.292781 0.534770 -0.700742
4.274134 0.533899 -0.698369
4.273226 0.554357 -0.698173
4.291873 0.555229 -0.700546
4.284541 0.555069 -0.726319
4.270258 0.554544 -0.723143
4.274064 0.533895 -0.698354
4.292711 0.534767 -0.700727
4.285378 0.534607 -0.726500
4.271095 0.534082 -0.723324
4.270309 0.554546 -0.723236
4.284592 0.555071 -0.726412
4.276804 0.554841 -0.752787
4.266639 0.554479 -0.745906
4.271033 0.534080 -0.723281
4.285316 0.534605 -0.726457
4.277528 0.534375 -0.752832
4.267363 0.534013 -0.745951
4.266628 0.554479 -0.745872
4.276794 0.554841 -0.752753
4.268839 0.554832 -0.781241
4.263473 0.554436 -0.762123
4.267362 0.534013 -0.746031
4.277527 0.534375 -0.752912
4.269572 0.534366 -0.781400
4.264207 0.533970 -0.762282
4.247051 0.544053 -0.768170
4.270479 0.545007 -0.771189
4.238880 0.604600 -0.769445
4.244467 0.543277 -0.788471
4.267895 0.544231 -0.791490
4.236296 0.603823 -0.789746
4.192306 0.510735 -0.692408
4.191831 0.537199 -0.684556
4.192436 0.536984 -0.718516
4.192377 0.510881 -0.726772
4.212784 0.510835 -0.692206
4.212309 0.537299 -0.684353
4.212915 0.537084 -0.718313
4.212855 0.510981 -0.726570
4.192383 0.510651 -0.726432
4.192443 0.536755 -0.718176
4.191215 0.538501 -0.741958
4.192303 0.510445 -0.750993
4.212848 0.511211 -0.726968
4.212908 0.537314 -0.718712
4.211680 0.539061 -0.742494
4.212767 0.511004 -0.751529
4.192320 0.510058 -0.751028
4.191232 0.538114 -0.741992
4.190000 0.539875 -0.765741
4.192289 0.508951 -0.775602
4.212749 0.511392 -0.751543
4.211662 0.539449 -0.742508
4.210430 0.541210 -0.766257
4.212718 0.510286 -0.776118
4.260221 0.513913 -0.443673
4.257260 0.536940 -0.444593
4.256770 0.540478 -0.480300
4.259169 0.514508 -0.482213
4.280576 0.516146 -0.443971
4.277615 0.539173 -0.444892
4.277126 0.542711 -0.480598
4.279525 0.516741 -0.482511
4.275075 0.552763 -0.436070
4.300116 0.550723 -0.436553
4.294869 0.551082 -0.448174
4.267209 0.548147 -0.446518
4.275563 0.532607 -0.432473
4.300604 0.530568 -0.432956
4.295358 0.530927 -0.444576
4.267698 0.527992 -0.442921
4.300182 0.550883 -0.434602
4.325230 0.551680 -0.435029
4.322596 0.551531 -0.447912
4.294935 0.551242 -0.446223
4.300591 0.530409 -0.434909
4.325640 0.531207 -0.435336
4.323006 0.531058 -0.448219
4.295345 0.530769 -0.446530
4.290161 0.552526 -0.569384
4.317731 0.552122 -0.570834
4.316804 0.553711 -0.593060
4.282392 0.552578 -0.591373
4.290362 0.532063 -0.570183
4.317932 0.531659 -0.571633
4.317005 0.533248 -0.593859
4.282592 0.532115 -0.592172
4.189553 0.511797 -0.569850
4.190586 0.537858 -0.567257
4.190491 0.537943 -0.593230
4.189919 0.511413 -0.595481
4.210022 0.511162 -0.569739
4.211055 0.537224 -0.567146
4.210960 0.537308 -0.593119
4.210388 0.510778 -0.595370
4.189915 0.511231 -0.595509
4.190487 0.537762 -0.593258
4.190401 0.537837 -0.619227
4.190285 0.510849 -0.621146
4.210392 0.510959 -0.595394
4.210964 0.537489 -0.593143
4.210879 0.537565 -0.619112
4.210763 0.510576 -0.621031
4.198691 0.510014 -0.505905
4.195381 0.536641 -0.503682
4.193037 0.536617 -0.534857
4.194177 0.510272 -0.537269
4.218962 0.511911 -0.508121
4.215651 0.538539 -0.505898
4.213308 0.538514 -0.537072
4.214448 0.512169 -0.539485
4.194131 0.511093 -0.537291
4.192991 0.537438 -0.534879
4.190644 0.537414 -0.566056
4.189611 0.511352 -0.568649
4.214487 0.511348 -0.539525
4.213347 0.537693 -0.537113
4.211000 0.537669 -0.568290
4.209967 0.511607 -0.570883
4.247162 0.515141 -0.492264
4.246571 0.537584 -0.491474
4.225595 0.537317 -0.493031
4.227553 0.512784 -0.494530
4.249010 0.516234 -0.512631
4.248419 0.538676 -0.511841
4.227443 0.538410 -0.513398
4.229400 0.513877 -0.514897
4.227549 0.512496 -0.494550
4.225592 0.537029 -0.493051
4.204621 0.536757 -0.494608
4.207932 0.510130 -0.496831
4.229363 0.514163 -0.514881
4.227406 0.538695 -0.513381
4.206435 0.538424 -0.514939
4.209746 0.511796 -0.517162
4.262106 0.514776 -0.475189
4.259707 0.540746 -0.473277
4.240285 0.537283 -0.494445
4.240877 0.514841 -0.495235
4.276566 0.516473 -0.489592
4.274167 0.542443 -0.487680
4.254745 0.538980 -0.508848
4.255337 0.516538 -0.509638
4.268467 0.514578 -0.426277
4.266760 0.542250 -0.428646
4.258895 0.537634 -0.439094
4.261856 0.514608 -0.438174
4.285561 0.515422 -0.437524
4.283854 0.543094 -0.439894
4.275988 0.538478 -0.450342
4.278949 0.515452 -0.449421
4.268710 0.536633 -0.076271
4.268738 0.510404 -0.076430
4.268807 0.510087 -0.053210
4.269170 0.536493 -0.053644
4.289188 0.536501 -0.076508
4.289216 0.510272 -0.076668
4.289285 0.509955 -0.053447
4.289648 0.536361 -0.053881
4.269172 0.536646 -0.053626
4.268809 0.510240 -0.053192
4.268863 0.509915 -0.029986
4.269620 0.536534 -0.030985
4.289646 0.536208 -0.053854
4.289283 0.509801 -0.053420
4.289337 0.509476 -0.030214
4.290093 0.536095 -0.031213
4.278920 0.546524 -0.031063
4.302211 0.548768 -0.031080
4.306328 0.549159 -0.054017
4.278473 0.546637 -0.053704
4.280819 0.526133 -0.031135
4.304111 0.528377 -0.031152
4.308227 0.528767 -0.054089
4.280372 0.526246 -0.053776
4.278530 0.546642 -0.053717
4.306385 0.549164 -0.054030
4.310494 0.549551 -0.076982
4.278070 0.546782 -0.076343
4.280318 0.526241 -0.053809
4.308174 0.528763 -0.054122
4.312283 0.529150 -0.077075
4.279859 0.526381 -0.076436
4.302240 0.548771 -0.031133
4.325538 0.550981 -0.031150
4.333503 0.551635 -0.054642
4.306356 0.549161 -0.054071
4.304134 0.528379 -0.031099
4.327432 0.530590 -0.031116
4.335397 0.531244 -0.054608
4.308250 0.528769 -0.054036
4.306402 0.549165 -0.054093
4.333549 0.551639 -0.054665
4.342933 0.552379 -0.077654
4.310511 0.549552 -0.077046
4.308217 0.528766 -0.054060
4.335364 0.531241 -0.054631
4.344749 0.531980 -0.077621
4.312327 0.529153 -0.077012
4.266880 0.548272 -0.444091
4.294539 0.551208 -0.445747
4.292838 0.552139 -0.481906
4.266390 0.551811 -0.479798
4.268020 0.527866 -0.445395
4.295680 0.530802 -0.447050
4.293978 0.531733 -0.483210
4.267530 0.531404 -0.481102
4.295036 0.551241 -0.446124
4.322698 0.551530 -0.447813
4.319779 0.552517 -0.484380
4.293334 0.552172 -0.482284
4.295237 0.530770 -0.446677
4.322898 0.531059 -0.448366
4.319980 0.532046 -0.484932
4.293535 0.531701 -0.482836
4.246951 0.548348 -0.502281
4.266372 0.551811 -0.481113
4.292820 0.552140 -0.483221
4.282889 0.551379 -0.503154
4.248110 0.527941 -0.501012
4.267532 0.531404 -0.479844
4.293980 0.531732 -0.481952
4.284049 0.530972 -0.501885
4.283267 0.551412 -0.502679
4.293198 0.552173 -0.482746
4.319642 0.552517 -0.484842
4.319202 0.552445 -0.503558
4.283734 0.530940 -0.502363
4.293665 0.531701 -0.482430
4.320109 0.532046 -0.484526
4.319669 0.531973 -0.503242
4.246879 0.548363 -0.501649
4.282818 0.551394 -0.502521
4.286198 0.550934 -0.536112
4.254441 0.549678 -0.534948
4.248172 0.527924 -0.501699
4.284111 0.530955 -0.502571
4.287491 0.530496 -0.536162
4.255734 0.529239 -0.534998
4.283136 0.551409 -0.502654
4.319072 0.552441 -0.503533
4.318269 0.552291 -0.537406
4.286516 0.550949 -0.536244
4.283860 0.530943 -0.502441
4.319796 0.531976 -0.503320
4.318994 0.531825 -0.537193
4.287241 0.530484 -0.536031
4.254800 0.549681 -0.534470
4.286557 0.550937 -0.535633
4.289940 0.552514 -0.569217
4.262371 0.551933 -0.567768
4.255386 0.529238 -0.535544
4.287143 0.530495 -0.536707
4.290526 0.532072 -0.570291
4.262957 0.531490 -0.568842
4.286727 0.550953 -0.535964
4.318480 0.552295 -0.537125
4.317681 0.552126 -0.570997
4.290110 0.552530 -0.569547
4.287033 0.530480 -0.536379
4.318785 0.531822 -0.537541
4.317986 0.531653 -0.571413
4.290416 0.532057 -0.569963
4.247430 0.548372 -0.501224
4.254992 0.549687 -0.534524
4.229069 0.549738 -0.535015
4.226454 0.548105 -0.502780
4.247564 0.527913 -0.502123
4.255125 0.529228 -0.535423
4.229203 0.529279 -0.535914
4.226588 0.527646 -0.503680
4.254789 0.549687 -0.534600
4.262361 0.551938 -0.567898
4.231474 0.550361 -0.567332
4.228867 0.549738 -0.535092
4.255338 0.529231 -0.535412
4.262910 0.531482 -0.568710
4.232023 0.529905 -0.568144
4.229415 0.529282 -0.535903
4.226006 0.548100 -0.502974
4.228621 0.549733 -0.535208
4.202692 0.547804 -0.535706
4.205036 0.547828 -0.504531
4.226988 0.527650 -0.503488
4.229603 0.529283 -0.535723
4.203674 0.527354 -0.536220
4.206018 0.527379 -0.505045
4.228303 0.549716 -0.535404
4.230911 0.550338 -0.567645
4.200027 0.547763 -0.567079
4.202374 0.547787 -0.535902
4.229922 0.529301 -0.535590
4.232530 0.529924 -0.567831
4.201645 0.527348 -0.567265
4.203992 0.527372 -0.536087
4.230526 0.550292 -0.567312
4.212388 0.550155 -0.587948
4.199547 0.547800 -0.592718
4.199642 0.547716 -0.566745
4.232905 0.529971 -0.568220
4.214767 0.529834 -0.588856
4.201926 0.527480 -0.593626
4.202021 0.527395 -0.567653
4.247764 0.551433 -0.590051
4.262378 0.551948 -0.568296
4.289947 0.552530 -0.569745
4.282177 0.552581 -0.591734
4.248332 0.530961 -0.590124
4.262945 0.531476 -0.568369
4.290514 0.532058 -0.569818
4.282745 0.532110 -0.591808
4.213175 0.550226 -0.588227
4.231314 0.550362 -0.567591
4.262201 0.551940 -0.568157
4.247587 0.551425 -0.589912
4.214034 0.529767 -0.588576
4.232172 0.529904 -0.567940
4.263059 0.531482 -0.568505
4.248445 0.530967 -0.590260
4.208377 0.550297 -0.616634
4.198418 0.547709 -0.618971
4.198504 0.547633 -0.593002
4.211344 0.549987 -0.588231
4.212832 0.530312 -0.617026
4.202873 0.527723 -0.619363
4.202959 0.527648 -0.593393
4.215799 0.530002 -0.588623
4.198730 0.547770 -0.619498
4.208688 0.550359 -0.617161
4.215038 0.550122 -0.644708
4.199443 0.547546 -0.652093
4.202564 0.527662 -0.618894
4.212523 0.530250 -0.616557
4.218872 0.530014 -0.644104
4.203278 0.527438 -0.651488
4.200532 0.547385 -0.684546
4.199818 0.547613 -0.651955
4.215413 0.550190 -0.644570
4.226491 0.551438 -0.670957
4.203626 0.527142 -0.684277
4.202912 0.527371 -0.651686
4.218506 0.529947 -0.644301
4.229585 0.531195 -0.670688
4.200737 0.548993 -0.741628
4.222867 0.551280 -0.746886
4.222255 0.552268 -0.770530
4.199505 0.550754 -0.765377
4.202177 0.528602 -0.742867
4.224307 0.530889 -0.748125
4.223695 0.531877 -0.771769
4.200945 0.530363 -0.766616
4.222770 0.551289 -0.747268
4.244887 0.553710 -0.752520
4.244903 0.553845 -0.778060
4.222158 0.552277 -0.770912
4.224450 0.530884 -0.747755
4.246567 0.533305 -0.753006
4.246583 0.533441 -0.778547
4.223838 0.531872 -0.771399
4.201543 0.547208 -0.717853
4.223048 0.550314 -0.720912
4.222444 0.551242 -0.746893
4.200315 0.548955 -0.741636
4.203830 0.526891 -0.719029
4.225335 0.529997 -0.722088
4.224731 0.530924 -0.748069
4.202602 0.528637 -0.742812
4.222942 0.550316 -0.721291
4.244432 0.553527 -0.724348
4.244456 0.553665 -0.752524
4.222338 0.551244 -0.747272
4.225485 0.530000 -0.721718
4.246974 0.533211 -0.724775
4.246999 0.533349 -0.752951
4.224881 0.530928 -0.747699
4.237631 0.552688 -0.697328
4.244196 0.553497 -0.724611
4.222707 0.550286 -0.721554
4.219114 0.550030 -0.690932
4.240640 0.532431 -0.697173
4.247205 0.533240 -0.724456
4.225715 0.530029 -0.721399
4.222123 0.529773 -0.690777
4.219124 0.550031 -0.690939
4.222716 0.550287 -0.721561
4.201211 0.547181 -0.718502
4.200605 0.547396 -0.684542
4.222073 0.529766 -0.690760
4.225665 0.530022 -0.721382
4.204160 0.526916 -0.718323
4.203554 0.527131 -0.684363
4.237624 0.552686 -0.697386
4.219108 0.550028 -0.690989
4.226547 0.551445 -0.671003
4.240640 0.532433 -0.697072
4.222124 0.529774 -0.690675
4.229563 0.531192 -0.670689
4.219106 0.550028 -0.690989
4.200587 0.547393 -0.684592
4.226546 0.551445 -0.671003
4.222100 0.529771 -0.690667
4.203581 0.527136 -0.684270
4.229539 0.531188 -0.670681
4.222128 0.552833 -0.779469
4.222494 0.552282 -0.770521
4.245239 0.553850 -0.777669
4.223127 0.532419 -0.780767
4.223494 0.531868 -0.771818
4.246239 0.533436 -0.778967
4.198984 0.551815 -0.781235
4.199712 0.550764 -0.765334
4.222462 0.552278 -0.770487
4.222095 0.552829 -0.779436
4.200010 0.531407 -0.782597
4.200737 0.530355 -0.766696
4.223487 0.531870 -0.771848
4.223121 0.532421 -0.780797
4.237022 0.604266 -0.769370
4.217892 0.601693 -0.769809
4.222082 0.542701 -0.769896
4.245193 0.543719 -0.768096
4.238114 0.604175 -0.789821
4.218983 0.601603 -0.790259
4.223174 0.542611 -0.790346
4.246285 0.543628 -0.788546
4.217914 0.601483 -0.769809
4.198778 0.598903 -0.770143
4.198993 0.541477 -0.771696
4.222104 0.542491 -0.769896
4.218919 0.601809 -0.790261
4.199783 0.599229 -0.790595
4.199998 0.541804 -0.792148
4.223109 0.542817 -0.790348
4.278657 0.553482 -0.322024
4.310531 0.553953 -0.321339
4.309578 0.553597 -0.350101
4.277845 0.553959 -0.350182
4.278692 0.533003 -0.322069
4.310567 0.533473 -0.321384
4.309614 0.533118 -0.350146
4.277881 0.533480 -0.350227
4.277789 0.553959 -0.350201
4.309522 0.553597 -0.350120
4.307291 0.554257 -0.378411
4.277049 0.553453 -0.378089
4.277935 0.533480 -0.350265
4.309668 0.533118 -0.350184
4.307437 0.533778 -0.378475
4.277195 0.532974 -0.378153
4.276821 0.553449 -0.378025
4.307063 0.554253 -0.378347
4.303556 0.554577 -0.406588
4.275926 0.553678 -0.406071
4.277419 0.532979 -0.378273
4.307662 0.533783 -0.378596
4.304154 0.534108 -0.406837
4.276525 0.533209 -0.406319
4.276429 0.553647 -0.407050
4.304058 0.554546 -0.407567
4.300570 0.550852 -0.435562
4.275528 0.552891 -0.435078
4.276018 0.533238 -0.405397
4.303648 0.534137 -0.405914
4.300159 0.530443 -0.433909
4.275118 0.532483 -0.433425
4.310933 0.553927 -0.321981
4.342810 0.554227 -0.321316
4.341820 0.551126 -0.350620
4.309979 0.553572 -0.350743
4.310229 0.533497 -0.320742
4.342107 0.533797 -0.320077
4.341117 0.530697 -0.349381
4.309276 0.533142 -0.349504
4.310396 0.553566 -0.349960
4.342237 0.551120 -0.349837
4.338674 0.551972 -0.378649
4.308165 0.554226 -0.378251
4.308856 0.533148 -0.350344
4.340696 0.530702 -0.350222
4.337134 0.531554 -0.379033
4.306625 0.533808 -0.378636
4.308152 0.554229 -0.378456
4.338661 0.551975 -0.378853
4.332369 0.552470 -0.407277
4.304645 0.554554 -0.406697
4.306630 0.533806 -0.378488
4.337139 0.531553 -0.378885
4.330848 0.532047 -0.407309
4.303123 0.534131 -0.406729
4.304111 0.554542 -0.407605
4.331836 0.552458 -0.408184
4.325671 0.551645 -0.436026
4.300623 0.550848 -0.435599
4.303647 0.534141 -0.405878
4.331372 0.532057 -0.406457
4.325207 0.531244 -0.434299
4.300159 0.530446 -0.433872
4.267424 0.513823 -0.386154
4.266875 0.542853 -0.377918
4.265981 0.543082 -0.405963
4.267135 0.514231 -0.408878
4.287887 0.514516 -0.386623
4.287337 0.543545 -0.378386
4.286443 0.543775 -0.406432
4.287597 0.514923 -0.409347
4.267142 0.514057 -0.408883
4.265988 0.542909 -0.405968
4.265087 0.542153 -0.433997
4.266795 0.514481 -0.431628
4.287589 0.515097 -0.409392
4.286435 0.543949 -0.406478
4.285534 0.543193 -0.434506
4.287241 0.515521 -0.432137
4.267794 0.515068 -0.357412
4.267611 0.543519 -0.350030
4.266871 0.543013 -0.377918
4.267420 0.513983 -0.386155
4.288266 0.515441 -0.357825
4.288082 0.543892 -0.350443
4.287343 0.543386 -0.378332
4.287892 0.514356 -0.386568
4.268166 0.513983 -0.324206
4.268420 0.543207 -0.321852
4.267609 0.543684 -0.350010
4.267793 0.515234 -0.357392
4.288642 0.514025 -0.324600
4.288896 0.543249 -0.322246
4.288085 0.543726 -0.350404
4.288269 0.515275 -0.357786
4.324994 0.541898 -0.058498
4.325072 0.546812 -0.058110
4.334378 0.542637 -0.081487
4.343946 0.540988 -0.050791
4.344025 0.545902 -0.050403
4.353330 0.541727 -0.073780
4.316887 0.540208 -0.034619
4.315673 0.549977 -0.034333
4.324931 0.545776 -0.057724
4.324852 0.540861 -0.058111
4.336107 0.541373 -0.027646
4.334894 0.551143 -0.027360
4.344151 0.546941 -0.050751
4.344073 0.542027 -0.051138
4.302630 0.548177 0.020880
4.302410 0.548476 -0.005034
4.279119 0.546228 -0.004858
4.279340 0.545959 0.021212
4.304581 0.527792 0.020641
4.304362 0.528091 -0.005273
4.281071 0.525843 -0.005097
4.281292 0.525574 0.020973
4.302403 0.548476 -0.005057
4.302178 0.548764 -0.030969
4.278886 0.546520 -0.030952
4.279113 0.546228 -0.004881
4.304368 0.528092 -0.005302
4.304143 0.528381 -0.031214
4.280851 0.526137 -0.031197
4.281077 0.525844 -0.005126
4.302645 0.548179 0.020890
4.325936 0.550421 0.020554
4.325001 0.550667 -0.005208
4.302426 0.548477 -0.005025
4.304612 0.527796 0.020631
4.327902 0.530037 0.020295
4.326967 0.530283 -0.005466
4.304392 0.528094 -0.005283
4.302432 0.548479 -0.005067
4.325007 0.550668 -0.005250
4.325504 0.550978 -0.030995
4.302206 0.548767 -0.030979
4.304386 0.528094 -0.005293
4.326961 0.530283 -0.005476
4.327458 0.530593 -0.031221
4.304161 0.528382 -0.031205
4.316733 0.539326 0.020646
4.315508 0.549099 0.020595
4.315280 0.549370 -0.004991
4.315798 0.539572 -0.005115
4.337127 0.541144 0.020203
4.335902 0.550916 0.020151
4.335674 0.551187 -0.005435
4.336192 0.541390 -0.005559
4.315795 0.539580 -0.005433
4.315277 0.549378 -0.005309
4.315080 0.549659 -0.030892
4.316293 0.539890 -0.031178
4.336195 0.541382 -0.005293
4.335677 0.551180 -0.005169
4.335479 0.551461 -0.030752
4.336692 0.541692 -0.031038
4.270069 0.536050 0.021181
4.269848 0.536318 -0.004889
4.269076 0.509734 -0.005170
4.269282 0.509457 0.019623
4.290539 0.535455 0.021003
4.290318 0.535724 -0.005067
4.289546 0.509140 -0.005348
4.289752 0.508863 0.019444
4.269848 0.536317 -0.004912
4.269622 0.536610 -0.030983
4.268865 0.509991 -0.029984
4.269075 0.509732 -0.005193
4.290318 0.535726 -0.005094
4.290092 0.536019 -0.031166
4.289335 0.509400 -0.030167
4.289545 0.509142 -0.005375
4.216914 0.501578 0.766928
4.216473 0.503260 0.742387
4.198519 0.502750 0.742402
4.198904 0.501958 0.766943
4.216987 0.481124 0.765896
4.216546 0.482807 0.741354
4.198592 0.482297 0.741370
4.198977 0.481504 0.765911
4.216358 0.503264 0.742276
4.215968 0.504047 0.717731
4.197986 0.504025 0.717750
4.198403 0.502754 0.742292
4.216661 0.482805 0.741415
4.216271 0.483588 0.716870
4.198288 0.483565 0.716889
4.198706 0.482295 0.741431
4.216117 0.504056 0.717473
4.215390 0.504713 0.683123
4.197408 0.504729 0.683143
4.198135 0.504034 0.717491
4.216121 0.483581 0.717070
4.215393 0.484237 0.682720
4.197411 0.484254 0.682740
4.198138 0.483558 0.717088
4.215388 0.504713 0.683104
4.213700 0.505489 0.647578
4.195718 0.505463 0.647604
4.197406 0.504730 0.683124
4.215392 0.484238 0.682669
4.213705 0.485014 0.647142
4.195723 0.484988 0.647169
4.197410 0.484255 0.682689
4.213696 0.505490 0.647557
4.212000 0.506280 0.612034
4.194018 0.506286 0.612063
4.195714 0.505463 0.647584
4.213706 0.485015 0.647092
4.212011 0.485806 0.611569
4.194029 0.485812 0.611597
4.195724 0.484989 0.647118
4.212016 0.506276 0.612164
4.211160 0.507247 0.586556
4.193178 0.507280 0.586582
4.194034 0.506282 0.612192
4.211992 0.485811 0.611378
4.211136 0.486783 0.585770
4.193154 0.486816 0.585796
4.194010 0.485818 0.611406
4.211147 0.507249 0.586511
4.210305 0.508218 0.560909
4.192323 0.508186 0.560917
4.193165 0.507282 0.586537
4.211146 0.486783 0.585763
4.210303 0.487752 0.560160
4.192322 0.487720 0.560168
4.193164 0.486816 0.585789
4.210289 0.508224 0.560656
4.214235 0.508688 0.529222
4.196254 0.508663 0.529228
4.192308 0.508192 0.560664
4.210322 0.487747 0.560356
4.214268 0.488211 0.528922
4.196287 0.488186 0.528928
4.192340 0.487715 0.560364
4.214253 0.508689 0.529199
4.218194 0.509154 0.497761
4.200212 0.509171 0.497774
4.196272 0.508663 0.529205
4.214258 0.488212 0.528882
4.218198 0.488677 0.497445
4.200216 0.488694 0.497457
4.196277 0.488186 0.528889
4.278236 0.514494 0.471990
4.278541 0.514828 0.433444
4.260559 0.514833 0.433453
4.260254 0.514525 0.472004
4.278216 0.494015 0.471820
4.278520 0.494349 0.433273
4.260538 0.494354 0.433282
4.260233 0.494046 0.471833
4.278527 0.514827 0.433534
4.284899 0.515083 0.421486
4.266916 0.515055 0.421503
4.260545 0.514831 0.433543
4.278540 0.494351 0.433132
4.284912 0.494608 0.421084
4.266929 0.494579 0.421102
4.260558 0.494356 0.433142
4.284897 0.515085 0.421333
4.284805 0.515221 0.398612
4.266824 0.515210 0.398618
4.266914 0.515057 0.421351
4.284920 0.494606 0.421202
4.284827 0.494742 0.398482
4.266846 0.494731 0.398487
4.266937 0.494578 0.421220
4.284815 0.515221 0.398593
4.284721 0.515363 0.375857
4.266738 0.515372 0.375880
4.266834 0.515210 0.398598
4.284816 0.494742 0.398456
4.284721 0.494884 0.375720
4.266739 0.494893 0.375743
4.266835 0.494731 0.398461
4.284739 0.515344 0.376401
4.284627 0.517116 0.347700
4.266645 0.517169 0.347711
4.266757 0.515354 0.376424
4.284703 0.494904 0.375124
4.284590 0.496676 0.346423
4.266608 0.496729 0.346434
4.266720 0.494914 0.375147
4.284623 0.517136 0.346877
4.284402 0.516663 0.313687
4.266419 0.516664 0.313699
4.266641 0.517188 0.346888
4.284593 0.496658 0.347184
4.284372 0.496186 0.313995
4.266389 0.496187 0.314006
4.266611 0.496711 0.347195
4.284386 0.516664 0.313899
4.283914 0.516937 0.283059
4.265932 0.516934 0.283076
4.266403 0.516665 0.313911
4.284387 0.496185 0.313719
4.283916 0.496459 0.282878
4.265933 0.496455 0.282895
4.266404 0.496186 0.313730
4.283915 0.516938 0.283036
4.283446 0.517229 0.252202
4.265463 0.517234 0.252212
4.265932 0.516934 0.283053
4.283914 0.496459 0.282840
4.283445 0.496751 0.252006
4.265462 0.496755 0.252016
4.265932 0.496456 0.282856
4.283462 0.517230 0.252168
4.282995 0.517492 0.221329
4.265013 0.517546 0.221342
4.265479 0.517234 0.252178
4.283428 0.496751 0.251978
4.282962 0.497013 0.221139
4.264980 0.497067 0.221152
4.265445 0.496756 0.251988
4.283009 0.517492 0.221298
4.282540 0.517778 0.190458
4.264558 0.517832 0.190470
4.265027 0.517546 0.221310
4.282947 0.497014 0.221109
4.282479 0.497299 0.190269
4.264497 0.497353 0.190282
4.264965 0.497068 0.221122
4.282540 0.517778 0.190430
4.281621 0.518256 0.144115
4.263638 0.518310 0.144132
4.264558 0.517832 0.190442
4.282479 0.497300 0.190220
4.281560 0.497778 0.143905
4.263577 0.497831 0.143922
4.264497 0.497354 0.190232
4.281619 0.518257 0.144073
4.280681 0.518762 0.097007
4.262699 0.518815 0.097016
4.263637 0.518310 0.144089
4.281559 0.497778 0.143854
4.280620 0.498284 0.096788
4.262639 0.498337 0.096798
4.263576 0.497832 0.143871
4.280688 0.518763 0.096945
4.280220 0.519013 0.066104
4.262237 0.519094 0.066121
4.262707 0.518816 0.096955
4.280612 0.498284 0.096771
4.280144 0.498534 0.065930
4.262161 0.498615 0.065947
4.262630 0.498337 0.096781
4.279869 0.519213 0.042858
4.261888 0.519228 0.042872
4.262226 0.519094 0.066080
4.280208 0.519013 0.066063
4.279815 0.498734 0.042712
4.261834 0.498749 0.042726
4.262172 0.498615 0.065934
4.280154 0.498534 0.065917
4.279518 0.519386 0.019634
