3.138048 0.577544 -0.803331
3.158100 0.564029 -0.806228
3.135825 0.532587 -0.808703
3.116117 0.556984 -0.806347
3.138840 0.572055 -0.757713
3.158892 0.558539 -0.760610
3.136618 0.527097 -0.763085
3.116909 0.551494 -0.760729
3.115971 0.555412 -0.806480
3.135680 0.531015 -0.808835
3.111623 0.500824 -0.809233
3.092451 0.536685 -0.807561
3.117009 0.553016 -0.760600
3.136717 0.528618 -0.762956
3.112661 0.498427 -0.763353
3.093489 0.534289 -0.761682
3.092764 0.536410 -0.807579
3.111936 0.500549 -0.809251
3.078447 0.490303 -0.809359
3.066129 0.523161 -0.807966
3.093122 0.534527 -0.761665
3.112294 0.498666 -0.763337
3.078805 0.488419 -0.763445
3.066487 0.521278 -0.762052
3.066653 0.523284 -0.807958
3.078971 0.490425 -0.809351
3.040402 0.490729 -0.809908
3.036825 0.520165 -0.808656
3.065899 0.521142 -0.762060
3.078217 0.488284 -0.763453
3.039647 0.488588 -0.764010
3.036070 0.518023 -0.762758
3.000270 0.544774 -0.694682
2.981580 0.545389 -0.694068
2.982022 0.544265 -0.662921
3.003268 0.540988 -0.669620
2.995163 0.499252 -0.698346
2.976472 0.499866 -0.697731
2.976914 0.498743 -0.666585
2.998160 0.495466 -0.673284
3.004620 0.540827 -0.670082
2.983374 0.544105 -0.663383
3.000187 0.539633 -0.637113
3.014921 0.537708 -0.647278
2.996823 0.495619 -0.672769
2.975577 0.498897 -0.666070
2.992391 0.494425 -0.639800
3.007124 0.492500 -0.649965
3.013115 0.537949 -0.649881
2.998381 0.539874 -0.639716
3.020011 0.539028 -0.619474
3.027586 0.537737 -0.630496
3.008962 0.492255 -0.647317
2.994228 0.494179 -0.637152
3.015859 0.493334 -0.616909
3.023433 0.492043 -0.627931
3.029052 0.537014 -0.634298
3.021477 0.538306 -0.623276
3.050919 0.538483 -0.612830
3.052327 0.533105 -0.624551
3.022012 0.492763 -0.624100
3.014438 0.494054 -0.613078
3.043880 0.494232 -0.602632
3.045288 0.488853 -0.614353
3.025594 0.526736 -0.696421
3.013494 0.538723 -0.696263
3.016491 0.534937 -0.671201
3.024462 0.528069 -0.675749
2.994069 0.493305 -0.696929
2.981969 0.505291 -0.696771
2.984966 0.501505 -0.671709
2.992936 0.494638 -0.676257
3.019897 0.531082 -0.679639
3.011927 0.537950 -0.675091
3.022228 0.534830 -0.652287
3.028800 0.530832 -0.661849
2.997511 0.491622 -0.672324
2.989541 0.498489 -0.667776
2.999842 0.495370 -0.644972
3.006414 0.491371 -0.654534
3.024921 0.532357 -0.662945
3.018348 0.536355 -0.653383
3.032820 0.536143 -0.633997
3.036939 0.531615 -0.646053
3.010317 0.489844 -0.653400
3.003745 0.493842 -0.643837
3.018216 0.493630 -0.624452
3.022336 0.489102 -0.636508
3.034138 0.532425 -0.645833
3.030019 0.536953 -0.633777
3.053295 0.533044 -0.624030
3.053636 0.530971 -0.639497
3.025171 0.488289 -0.636701
3.021052 0.492817 -0.624646
3.044327 0.488908 -0.614899
3.044668 0.486835 -0.630366
3.015968 0.539928 -0.761092
3.014079 0.539218 -0.728313
3.023289 0.531980 -0.729219
2.987465 0.503963 -0.763513
2.985576 0.503253 -0.730734
2.994786 0.496015 -0.731640
3.002775 0.544899 -0.762054
2.978562 0.545548 -0.757885
2.978810 0.545634 -0.726960
3.000887 0.544189 -0.729274
3.000628 0.498998 -0.762559
2.976414 0.499647 -0.758390
2.976663 0.499733 -0.727465
2.998740 0.498288 -0.729779
3.004467 0.544428 -0.782441
2.979991 0.543735 -0.782243
2.977356 0.545539 -0.759430
3.001570 0.544890 -0.763599
3.004736 0.498544 -0.779909
2.980260 0.497851 -0.779711
2.977624 0.499655 -0.756898
3.001838 0.499006 -0.761067
3.034976 0.521629 -0.808498
3.038553 0.492194 -0.809750
3.004017 0.494106 -0.809606
3.003195 0.524005 -0.803981
3.037852 0.516559 -0.762915
3.041428 0.487124 -0.764167
3.006893 0.489036 -0.764024
3.006070 0.518935 -0.758398
3.038400 0.541893 -0.783497
3.006618 0.544269 -0.778981
3.015015 0.541757 -0.760974
3.039202 0.540156 -0.765770
3.034430 0.496323 -0.787894
3.002649 0.498698 -0.783378
3.011045 0.496187 -0.765371
3.035232 0.494585 -0.770167
3.039519 0.539680 -0.762970
3.015332 0.541281 -0.758174
3.026908 0.536433 -0.742614
3.040524 0.535884 -0.745614
3.034925 0.495054 -0.772933
3.010738 0.496656 -0.768136
3.022314 0.491808 -0.752576
3.035931 0.491259 -0.755576
3.040367 0.535891 -0.745574
3.026750 0.536440 -0.742573
3.033312 0.531494 -0.722953
3.044635 0.531674 -0.728935
3.036100 0.491243 -0.755582
3.022484 0.491793 -0.752581
3.029045 0.486847 -0.732961
3.040368 0.487026 -0.738943
3.126314 0.597058 -0.615644
3.108529 0.577024 -0.637636
3.085327 0.559357 -0.630999
3.096401 0.575270 -0.614293
3.153932 0.562254 -0.603910
3.136147 0.542220 -0.625902
3.112945 0.524553 -0.619265
3.124019 0.540466 -0.602559
3.097108 0.574953 -0.616448
3.086034 0.559041 -0.633154
3.063146 0.544539 -0.625935
3.067220 0.553134 -0.615094
3.123258 0.540744 -0.600395
3.112184 0.524832 -0.617101
3.089296 0.510331 -0.609882
3.093370 0.518925 -0.599041
3.069872 0.553959 -0.616953
3.065797 0.545365 -0.627794
3.038441 0.528935 -0.629333
3.037032 0.534314 -0.617612
3.090662 0.518064 -0.597179
3.086587 0.509469 -0.608019
3.059231 0.493039 -0.609559
3.057822 0.498418 -0.597838
3.108037 0.574738 -0.641518
3.095632 0.551515 -0.659378
3.076769 0.541023 -0.648039
3.084834 0.557071 -0.634881
3.136615 0.544468 -0.622055
3.124211 0.521246 -0.639915
3.105347 0.510754 -0.628576
3.113413 0.526802 -0.615418
3.086105 0.557598 -0.635785
3.078039 0.541550 -0.648944
3.059531 0.532818 -0.639826
3.063216 0.543097 -0.628566
3.112101 0.526249 -0.614496
3.104035 0.510201 -0.627655
3.085527 0.501469 -0.618537
3.089212 0.511748 -0.607277
3.095436 0.549385 -0.661856
3.082905 0.521340 -0.676784
3.071417 0.521552 -0.663074
3.076573 0.538893 -0.650517
3.124388 0.523333 -0.637466
3.111857 0.495288 -0.652395
3.100369 0.495500 -0.638684
3.105524 0.512842 -0.626128
3.079784 0.541117 -0.651300
3.074629 0.523776 -0.663857
3.058228 0.523989 -0.652749
3.061275 0.532385 -0.642182
3.102281 0.510608 -0.625322
3.097125 0.493267 -0.637879
3.080725 0.493480 -0.626771
3.083772 0.501876 -0.616204
3.067067 0.538029 -0.637024
3.064020 0.529633 -0.647591
3.043737 0.529806 -0.642771
3.043396 0.531878 -0.627304
3.077941 0.496224 -0.621344
3.074893 0.487828 -0.631911
3.054611 0.488001 -0.627091
3.054269 0.490073 -0.611624
3.122203 0.590939 -0.778442
3.100272 0.570379 -0.781458
3.089053 0.555015 -0.758160
3.106952 0.573268 -0.751573
3.154652 0.558663 -0.782574
3.132721 0.538102 -0.785590
3.121502 0.522739 -0.762292
3.139401 0.540992 -0.755704
3.102568 0.571931 -0.778954
3.079048 0.553204 -0.780036
3.072067 0.543306 -0.760874
3.091349 0.556568 -0.755656
3.130384 0.536514 -0.788102
3.106864 0.517787 -0.789184
3.099882 0.507889 -0.770023
3.119165 0.521151 -0.764804
3.083614 0.555635 -0.778697
3.056979 0.542385 -0.779084
3.057494 0.538933 -0.762950
3.076633 0.545736 -0.759535
3.102253 0.515331 -0.790528
3.075618 0.502082 -0.790914
3.076133 0.498629 -0.774780
3.095272 0.505433 -0.771366
3.064559 0.544866 -0.781463
3.034731 0.541747 -0.782161
3.035533 0.540009 -0.764434
3.065075 0.541413 -0.765329
3.067986 0.499589 -0.788537
3.038157 0.496470 -0.789235
3.038959 0.494732 -0.771508
3.068501 0.496136 -0.772403
3.106884 0.572484 -0.748456
3.088985 0.554230 -0.755043
3.078746 0.538270 -0.735308
3.093408 0.549022 -0.725570
3.139444 0.541741 -0.758775
3.121545 0.523487 -0.765362
3.111307 0.507527 -0.745627
3.125968 0.518279 -0.735889
3.092615 0.556893 -0.753679
3.073332 0.543632 -0.758898
3.067518 0.534630 -0.740708
3.082376 0.540933 -0.733944
3.117882 0.520800 -0.766740
3.098600 0.507538 -0.771958
3.092786 0.498537 -0.753769
3.107644 0.504840 -0.747005
3.078772 0.546401 -0.758888
3.059633 0.539597 -0.762302
3.057862 0.534309 -0.743345
3.072958 0.537400 -0.740698
3.093126 0.504754 -0.771977
3.073987 0.497951 -0.775391
3.072215 0.492662 -0.756434
3.087312 0.495753 -0.753787
3.066286 0.541058 -0.763284
3.036744 0.539654 -0.762389
3.037749 0.535859 -0.745033
3.064514 0.535770 -0.744327
3.067290 0.496484 -0.774413
3.037748 0.495080 -0.773518
3.038753 0.491284 -0.756162
3.065518 0.491195 -0.755456
3.086749 0.542894 -0.732769
3.071892 0.536591 -0.739533
3.060782 0.528904 -0.724207
3.072927 0.528785 -0.718096
3.103250 0.502856 -0.748146
3.088392 0.496553 -0.754910
3.077282 0.488866 -0.739584
3.089427 0.488746 -0.733473
3.076300 0.538301 -0.740820
3.061204 0.535210 -0.743466
3.052196 0.530833 -0.729890
3.065190 0.530614 -0.725493
3.083956 0.494839 -0.753633
3.068860 0.491748 -0.756280
3.059851 0.487370 -0.742704
3.072846 0.487151 -0.738307
3.065460 0.535556 -0.743525
3.038695 0.535645 -0.744231
3.042964 0.531428 -0.727592
3.056452 0.531179 -0.729949
3.064569 0.491401 -0.756224
3.037804 0.491489 -0.756930
3.042072 0.487272 -0.740291
3.055561 0.487023 -0.742648
3.157217 0.600483 -0.676787
3.147703 0.596869 -0.679880
3.146302 0.606091 -0.665101
3.155780 0.605750 -0.659956
3.156151 0.558683 -0.657723
3.146637 0.555070 -0.660815
3.145236 0.564292 -0.646037
3.154713 0.563951 -0.640892
3.143789 0.608001 -0.608972
3.150025 0.608998 -0.607595
3.154417 0.607814 -0.650707
3.144939 0.608155 -0.655852
3.145445 0.562081 -0.608345
3.151680 0.563078 -0.606968
3.156072 0.561894 -0.650080
3.146595 0.562235 -0.655225
3.121665 0.595996 -0.656399
3.124926 0.596891 -0.609584
3.129389 0.602250 -0.608454
3.130540 0.602404 -0.655334
3.152105 0.561572 -0.656813
3.155367 0.562467 -0.609998
3.159830 0.567826 -0.608867
3.160980 0.567980 -0.655748
3.153842 0.601178 -0.698523
3.144131 0.598090 -0.696964
3.139697 0.597665 -0.671461
3.149211 0.601279 -0.668369
3.168795 0.557779 -0.696340
3.159083 0.554692 -0.694782
3.154650 0.554267 -0.669278
3.164164 0.557880 -0.666186
3.147830 0.605321 -0.694049
3.149796 0.593944 -0.681171
3.159507 0.597032 -0.682730
3.159192 0.605169 -0.693394
3.151456 0.570225 -0.723492
3.153422 0.558848 -0.710614
3.163133 0.561936 -0.712172
3.162817 0.570072 -0.722837
3.126158 0.595547 -0.668114
3.135033 0.601955 -0.667048
3.136434 0.592734 -0.681826
3.147615 0.562016 -0.645156
3.156490 0.568425 -0.644090
3.157891 0.559203 -0.658868
3.127982 0.594905 -0.697043
3.139145 0.589882 -0.682078
3.137179 0.601259 -0.694956
3.152892 0.567931 -0.724678
3.164055 0.562908 -0.709713
3.162089 0.574285 -0.722590
3.150413 0.610741 -0.709012
3.161774 0.610588 -0.708357
3.161614 0.610054 -0.741549
3.151299 0.610627 -0.741068
3.148872 0.564815 -0.708573
3.160234 0.564662 -0.707918
3.160074 0.564128 -0.741110
3.149759 0.564701 -0.740629
3.151262 0.610623 -0.741385
3.161577 0.610050 -0.741866
3.161210 0.609545 -0.776067
3.152184 0.609637 -0.774387
3.149797 0.564704 -0.740378
3.160112 0.564131 -0.740859
3.159745 0.563626 -0.775060
3.150719 0.563718 -0.773381
3.120743 0.593256 -0.710465
3.119744 0.589968 -0.745251
3.105796 0.569116 -0.729941
3.108080 0.569253 -0.706645
3.160103 0.569553 -0.711293
3.159104 0.566265 -0.746079
3.145157 0.545413 -0.730768
3.147441 0.545550 -0.707473
3.107908 0.568594 -0.704131
3.105624 0.568458 -0.727426
3.093084 0.544742 -0.713237
3.095960 0.544250 -0.700094
3.147588 0.546162 -0.709968
3.145304 0.546025 -0.733264
3.132763 0.522309 -0.719074
3.135639 0.521818 -0.705932
3.097169 0.545127 -0.697130
3.094293 0.545618 -0.710273
3.080785 0.521271 -0.699852
3.085659 0.521116 -0.687091
3.134405 0.520893 -0.708876
3.131529 0.521385 -0.722019
3.118021 0.497038 -0.711598
3.122895 0.496882 -0.698836
3.121217 0.592132 -0.745495
3.120233 0.588828 -0.780292
3.104982 0.571158 -0.753422
3.107270 0.571280 -0.730184
3.157628 0.564099 -0.745893
3.156644 0.560795 -0.780690
3.141392 0.543124 -0.753820
3.143680 0.543246 -0.730582
3.106479 0.569888 -0.727591
3.104191 0.569766 -0.750829
3.090715 0.546304 -0.727944
3.093938 0.546172 -0.713402
3.144443 0.544595 -0.733136
3.142156 0.544473 -0.756374
3.128680 0.521011 -0.733488
3.131903 0.520879 -0.718946
3.118419 0.592456 -0.656857
3.104449 0.569239 -0.659132
3.103896 0.573317 -0.632034
3.121681 0.593351 -0.610042
3.155328 0.565084 -0.656368
3.141358 0.541866 -0.658643
3.140805 0.545944 -0.631545
3.158590 0.565979 -0.609553
3.103295 0.566792 -0.663041
3.093508 0.542342 -0.669833
3.090339 0.547647 -0.653803
3.102743 0.570870 -0.635943
3.142484 0.544267 -0.654759
3.132697 0.519817 -0.661551
3.129528 0.525122 -0.645520
3.141932 0.548345 -0.627660
3.095059 0.543140 -0.673237
3.084913 0.520255 -0.685736
3.079359 0.520400 -0.672135
3.091890 0.548445 -0.657206
3.131124 0.518970 -0.658173
3.120978 0.496084 -0.670672
3.115423 0.496230 -0.657071
3.127954 0.524275 -0.642142
3.132071 0.585935 -0.684522
3.120647 0.562954 -0.687754
3.107824 0.565530 -0.673084
3.121795 0.588748 -0.670809
3.162239 0.565974 -0.656181
3.150814 0.542992 -0.659413
3.137992 0.545569 -0.644743
3.151963 0.568787 -0.642468
3.120526 0.563841 -0.686948
3.104909 0.541224 -0.689637
3.097916 0.541968 -0.679070
3.107703 0.566418 -0.672278
3.150910 0.542058 -0.660226
3.135293 0.519442 -0.662915
3.128301 0.520185 -0.652348
3.138088 0.544635 -0.645556
3.131916 0.588119 -0.697548
3.116378 0.565507 -0.697129
3.116058 0.564713 -0.675276
3.127482 0.587694 -0.672044
3.171275 0.564637 -0.694201
3.155738 0.542025 -0.693782
3.155417 0.541231 -0.671929
3.166841 0.564212 -0.668697
3.117121 0.566775 -0.695273
3.101535 0.544120 -0.694928
3.101184 0.543365 -0.676109
3.116800 0.565981 -0.673420
3.154966 0.540711 -0.695641
3.139381 0.518055 -0.695295
3.139029 0.517300 -0.676476
3.154646 0.539917 -0.673787
3.102089 0.544887 -0.695379
3.085928 0.522820 -0.693211
3.084599 0.521990 -0.678492
3.101738 0.544132 -0.676560
3.138794 0.517243 -0.694845
3.122633 0.495175 -0.692678
3.121304 0.494346 -0.677959
3.138443 0.516488 -0.676026
3.125594 0.591672 -0.696630
3.112931 0.567668 -0.692810
3.121219 0.564037 -0.681247
3.136756 0.586649 -0.681665
3.155264 0.571135 -0.725085
3.142602 0.547132 -0.721265
3.150890 0.543500 -0.709701
3.166427 0.566112 -0.710120
3.112180 0.567743 -0.693695
3.100232 0.543399 -0.689658
3.104882 0.541456 -0.681786
3.120468 0.564112 -0.682132
3.143325 0.547010 -0.720376
3.131377 0.522666 -0.716339
3.136028 0.520723 -0.708467
3.151613 0.543378 -0.708812
3.135667 0.605998 -0.709698
3.136554 0.605884 -0.741754
3.125471 0.596356 -0.746572
3.126470 0.599644 -0.711786
3.163597 0.569550 -0.707890
3.164483 0.569436 -0.739947
3.153401 0.559908 -0.744764
3.154400 0.563196 -0.709978
3.135571 0.605075 -0.741973
3.136493 0.604089 -0.774975
3.123504 0.592243 -0.781587
3.124488 0.595547 -0.746790
3.165466 0.570242 -0.739796
3.166388 0.569256 -0.772798
3.153399 0.557410 -0.779410
3.154383 0.560714 -0.744613
3.015077 0.532352 -0.695450
3.030676 0.528141 -0.691477
3.034396 0.528201 -0.702137
3.019428 0.531662 -0.707472
3.004617 0.487673 -0.697930
3.020217 0.483462 -0.693956
3.023937 0.483522 -0.704616
3.008969 0.486983 -0.709952
3.018411 0.531769 -0.706198
3.033379 0.528308 -0.700862
3.040422 0.528205 -0.711182
3.026019 0.531448 -0.716517
3.009997 0.486875 -0.711248
3.024966 0.483414 -0.705912
3.032008 0.483311 -0.716232
3.017605 0.486554 -0.721567
3.022777 0.531401 -0.714022
3.037181 0.528158 -0.708687
3.046515 0.531547 -0.719188
3.032135 0.531567 -0.722908
3.020863 0.486603 -0.724081
3.035266 0.483359 -0.718746
3.044600 0.486748 -0.729247
3.030221 0.486768 -0.732967
3.021285 0.527994 -0.688476
3.031575 0.527007 -0.687177
3.037275 0.532005 -0.693730
3.025005 0.528054 -0.699136
3.029634 0.483607 -0.696949
3.039924 0.482619 -0.695650
3.045624 0.487617 -0.702203
3.033355 0.483666 -0.707608
3.029406 0.528090 -0.709187
3.041676 0.532042 -0.703781
3.049139 0.526728 -0.713656
3.036449 0.527987 -0.719506
3.028966 0.483629 -0.697577
3.041235 0.487581 -0.692171
3.048699 0.482267 -0.702046
3.036009 0.483526 -0.707896
3.039095 0.527833 -0.708022
3.051785 0.526574 -0.702172
3.061044 0.526433 -0.713615
3.048429 0.531222 -0.718523
3.033380 0.483679 -0.719401
3.046070 0.482420 -0.713551
3.055329 0.482279 -0.724995
3.042713 0.487068 -0.729902
3.047762 0.531248 -0.718332
3.060378 0.526459 -0.713424
3.071189 0.530979 -0.725994
3.058194 0.531199 -0.730391
3.043400 0.487046 -0.730117
3.056015 0.482257 -0.725209
3.066827 0.486777 -0.737779
3.053832 0.486996 -0.742176
3.016622 0.531962 -0.697172
3.015490 0.533295 -0.676500
3.034071 0.526969 -0.679751
3.032222 0.527751 -0.693199
3.003068 0.488064 -0.696179
3.001935 0.489397 -0.675508
3.020516 0.483070 -0.678758
3.018667 0.483853 -0.692206
3.027675 0.528640 -0.691548
3.029524 0.527857 -0.678101
3.042866 0.526677 -0.681876
3.037965 0.527652 -0.690250
3.023243 0.482958 -0.693857
3.025092 0.482176 -0.680409
3.038435 0.480996 -0.684185
3.033533 0.481971 -0.692558
3.037448 0.526055 -0.682817
3.042349 0.525080 -0.674443
3.052310 0.524418 -0.681691
3.043148 0.531053 -0.689370
3.034070 0.483569 -0.699999
3.038971 0.482594 -0.691626
3.048932 0.481932 -0.698873
3.039770 0.488567 -0.706552
3.049525 0.531311 -0.697131
3.058688 0.524676 -0.689452
3.068355 0.524345 -0.699465
3.056989 0.525997 -0.707006
3.033409 0.488308 -0.698808
3.042571 0.481673 -0.691129
3.052239 0.481342 -0.701142
3.040872 0.482995 -0.708683
3.051176 0.527309 -0.706287
3.062542 0.525656 -0.698746
3.072405 0.525532 -0.710718
3.060435 0.527168 -0.717730
3.046703 0.481680 -0.709424
3.058070 0.480028 -0.701882
3.067933 0.479904 -0.713855
3.055963 0.481540 -0.720867
3.055997 0.526136 -0.712333
3.067967 0.524501 -0.705322
3.078953 0.530537 -0.718793
3.066808 0.530656 -0.724904
3.060421 0.482577 -0.726288
3.072391 0.480941 -0.719276
3.083378 0.486977 -0.732748
3.071232 0.487097 -0.738859
3.016257 0.532876 -0.678737
3.025160 0.532625 -0.660948
3.042723 0.525016 -0.667706
3.034838 0.526549 -0.681988
3.001177 0.489816 -0.673238
3.010080 0.489566 -0.655448
3.027644 0.481956 -0.662206
3.019758 0.483489 -0.676488
3.029656 0.527843 -0.678089
3.037542 0.526310 -0.663807
3.052099 0.525137 -0.670106
3.042999 0.526663 -0.681864
3.024971 0.482187 -0.680398
3.032857 0.480654 -0.666115
3.047414 0.479480 -0.672415
3.038314 0.481007 -0.684173
3.042864 0.526678 -0.681886
3.051963 0.525151 -0.670128
3.063613 0.524516 -0.678509
3.052824 0.526016 -0.689133
3.038474 0.480991 -0.684164
3.047574 0.479464 -0.672406
3.059223 0.478829 -0.680787
3.048435 0.480329 -0.691411
3.052745 0.526022 -0.689101
3.063533 0.524522 -0.678477
3.073762 0.524086 -0.689116
3.062413 0.525691 -0.699114
3.048535 0.480322 -0.691461
3.059323 0.478822 -0.680837
3.069551 0.478386 -0.691476
3.058202 0.479991 -0.701474
3.062547 0.525667 -0.698918
3.073895 0.524062 -0.688919
3.083438 0.523783 -0.701480
3.072409 0.525543 -0.710890
3.058088 0.480014 -0.701693
3.069437 0.478409 -0.691695
3.078980 0.478130 -0.704255
3.067951 0.479890 -0.713666
3.065576 0.524023 -0.705023
3.076605 0.522263 -0.695613
3.086765 0.530163 -0.709569
3.076563 0.530060 -0.718494
3.074805 0.481417 -0.719559
3.085833 0.479656 -0.710149
3.095993 0.487557 -0.724105
3.085791 0.487453 -0.733030
3.020234 0.533176 -0.663983
3.032252 0.532434 -0.647090
3.050527 0.531656 -0.656173
3.037798 0.525567 -0.670741
3.015027 0.489017 -0.652381
3.027046 0.488274 -0.635489
3.045320 0.487496 -0.644572
3.032591 0.481407 -0.659139
3.039451 0.524922 -0.672038
3.052181 0.531012 -0.657471
3.066179 0.522011 -0.664857
3.054007 0.523749 -0.678338
3.030970 0.482042 -0.657857
3.043699 0.488131 -0.643289
3.057697 0.479131 -0.650675
3.045526 0.480869 -0.664156
3.051864 0.525162 -0.670152
3.064036 0.523424 -0.656671
3.075364 0.522827 -0.666184
3.063513 0.524526 -0.678533
3.047695 0.479450 -0.672358
3.059866 0.477712 -0.658877
3.071195 0.477115 -0.668390
3.059344 0.478815 -0.680739
3.063767 0.524503 -0.678554
3.075617 0.522803 -0.666206
3.085666 0.522215 -0.677394
3.073995 0.524067 -0.689193
3.059112 0.478837 -0.680737
3.070963 0.477138 -0.668388
3.081011 0.476550 -0.679576
3.069340 0.478402 -0.691376
3.074315 0.524025 -0.689056
3.085985 0.522174 -0.677257
3.094117 0.521803 -0.690322
3.083858 0.523746 -0.701617
3.069040 0.478443 -0.691537
3.080711 0.476591 -0.679738
3.088842 0.476220 -0.692803
3.078583 0.478163 -0.704098
3.073404 0.521076 -0.694997
3.083664 0.519133 -0.683702
3.091561 0.529256 -0.697852
3.083564 0.528977 -0.708953
3.089054 0.480841 -0.710744
3.099313 0.478898 -0.699449
3.107211 0.489020 -0.713599
3.099214 0.488742 -0.724700
3.051711 0.531464 -0.656248
3.052934 0.530789 -0.640829
3.073216 0.530616 -0.645649
3.065709 0.522464 -0.663634
3.044185 0.487684 -0.644482
3.045408 0.487009 -0.629063
3.065691 0.486836 -0.633883
3.058184 0.478684 -0.651867
3.057061 0.521757 -0.665181
3.064569 0.529910 -0.647196
3.080969 0.529697 -0.658304
3.068390 0.521160 -0.674694
3.066862 0.479386 -0.650337
3.074370 0.487538 -0.632352
3.090770 0.487325 -0.643460
3.078191 0.478788 -0.659850
3.066723 0.521047 -0.673652
3.079302 0.529584 -0.657262
3.090790 0.529372 -0.670972
3.076771 0.520460 -0.684840
3.079883 0.478900 -0.660915
3.092462 0.487437 -0.644525
3.103950 0.487225 -0.658236
3.089931 0.478313 -0.672103
3.074257 0.519865 -0.683553
3.088276 0.528777 -0.669686
3.093830 0.528631 -0.683287
3.082389 0.519494 -0.696618
3.092463 0.478907 -0.673416
3.106482 0.487819 -0.659548
3.112036 0.487673 -0.673149
3.100595 0.478536 -0.686481
3.001263 0.544169 -0.729713
2.979187 0.545614 -0.727399
2.979783 0.545692 -0.711822
3.000207 0.544414 -0.713235
2.998362 0.498308 -0.729292
2.976285 0.499753 -0.726978
2.976881 0.499832 -0.711401
2.997305 0.498553 -0.712814
2.999852 0.544433 -0.713280
2.979429 0.545711 -0.711867
2.980122 0.545578 -0.696193
2.998812 0.544963 -0.696808
2.997659 0.498534 -0.712736
2.977235 0.499813 -0.711324
2.977929 0.499679 -0.695650
2.996619 0.499065 -0.696264
3.024119 0.531268 -0.728939
3.014909 0.538506 -0.728033
3.013853 0.538751 -0.711554
3.024877 0.528456 -0.712213
2.993957 0.496723 -0.731882
2.984747 0.503961 -0.730975
2.983691 0.504206 -0.714497
2.994715 0.493910 -0.715156
3.025744 0.527704 -0.712877
3.014720 0.538000 -0.712218
3.013679 0.538530 -0.695746
3.025780 0.526543 -0.695904
2.993847 0.494660 -0.714458
2.982823 0.504956 -0.713799
2.981783 0.505486 -0.697327
2.993883 0.493499 -0.697485
3.017329 0.531687 -0.695229
3.021680 0.530997 -0.707251
3.017293 0.532849 -0.712202
3.002348 0.488343 -0.698163
3.006699 0.487653 -0.710185
3.002313 0.489504 -0.715136
3.019718 0.531363 -0.705300
3.027326 0.531042 -0.715619
3.014573 0.536027 -0.726977
3.015331 0.533214 -0.710251
3.008666 0.487288 -0.712159
3.016274 0.486967 -0.722478
3.003522 0.491952 -0.733836
3.004279 0.489140 -0.717110
3.029592 0.536196 -0.743624
3.018016 0.541044 -0.759185
3.006722 0.544018 -0.758349
3.014043 0.536070 -0.726476
3.019597 0.492048 -0.751552
3.008022 0.496896 -0.767113
2.996727 0.499870 -0.766277
3.004048 0.491922 -0.734404
3.010491 0.543695 -0.780815
3.007594 0.544158 -0.761972
3.018888 0.541184 -0.762808
2.998743 0.499274 -0.781532
2.995845 0.499737 -0.762689
3.007139 0.496763 -0.763525
3.087530 0.521079 -0.689327
3.097676 0.543964 -0.676828
3.104668 0.543220 -0.687395
3.118373 0.495265 -0.667099
3.128519 0.518150 -0.654600
3.135512 0.517406 -0.665167
3.089070 0.521324 -0.680928
3.105231 0.543392 -0.683095
3.100580 0.545335 -0.690967
3.119495 0.496680 -0.704985
3.135656 0.518748 -0.707152
3.131005 0.520691 -0.715024
3.078109 0.516914 -0.686237
3.090880 0.526880 -0.687625
3.086006 0.527036 -0.700387
3.104884 0.481120 -0.696899
3.117655 0.491087 -0.698287
3.112781 0.491242 -0.711049
3.077345 0.517116 -0.691817
3.088786 0.526253 -0.678486
3.090116 0.527082 -0.693205
3.105650 0.480917 -0.691300
3.117092 0.490055 -0.677969
3.118421 0.490884 -0.692688
3.031077 0.533271 -0.640387
3.050575 0.531817 -0.634051
3.049352 0.532493 -0.649470
3.028240 0.487439 -0.642170
3.047737 0.485986 -0.635834
3.046514 0.486661 -0.651253
3.039375 0.527896 -0.631798
3.066732 0.544326 -0.630258
3.063047 0.534047 -0.641518
3.058302 0.494070 -0.607113
3.085658 0.510500 -0.605573
3.081973 0.500221 -0.616833
3.082855 0.523404 -0.698581
3.096363 0.547751 -0.709002
3.093140 0.547883 -0.723544
3.074858 0.523125 -0.709683
3.115942 0.494906 -0.712895
3.129450 0.519253 -0.723316
3.126227 0.519385 -0.737857
3.107945 0.494627 -0.723997
3.078025 0.525773 -0.708872
3.096307 0.550530 -0.722733
3.081645 0.539778 -0.732470
3.067823 0.525669 -0.717797
3.104760 0.491974 -0.724830
3.123042 0.516731 -0.738691
3.108380 0.505980 -0.748428
3.094558 0.491870 -0.733755
3.035499 0.531303 -0.723555
3.028937 0.536249 -0.743175
3.013389 0.536123 -0.726027
3.026141 0.531138 -0.714669
3.026833 0.487038 -0.732341
3.020271 0.491983 -0.751962
3.004722 0.491857 -0.734813
3.017475 0.486872 -0.723455
3.138905 0.582997 -0.801986
3.151894 0.594842 -0.795373
3.160920 0.594750 -0.797053
3.158957 0.569481 -0.804883
3.138013 0.566647 -0.759048
3.151002 0.578493 -0.752435
3.160027 0.578401 -0.754115
3.158064 0.553131 -0.761945
3.031085 0.532139 -0.727442
3.045465 0.532120 -0.723722
3.042408 0.532319 -0.733425
3.031283 0.486197 -0.728448
3.045662 0.486177 -0.724728
3.042606 0.486377 -0.734431
3.056484 0.532069 -0.735967
3.042996 0.532318 -0.733610
3.046052 0.532118 -0.723907
3.055524 0.486129 -0.736608
3.042035 0.486378 -0.734251
3.045091 0.486179 -0.724548
