2.890834 1.212809 0.869250
2.914296 1.212288 0.869066
2.915255 1.329831 0.842216
2.893170 1.330333 0.842477
2.890544 1.208369 0.849771
2.914006 1.207849 0.849587
2.914965 1.325392 0.822738
2.892880 1.325893 0.822999
2.924122 1.209819 0.858589
2.922909 1.206210 0.843142
2.923854 1.323750 0.816304
2.925081 1.327362 0.831740
2.904202 1.210313 0.860048
2.902989 1.206704 0.844601
2.903933 1.324244 0.817763
2.905160 1.327857 0.833198
2.912792 1.204236 0.834125
2.889307 1.204756 0.834316
2.890210 1.322316 0.807553
2.913737 1.321776 0.807287
2.913081 1.208675 0.853603
2.889597 1.209194 0.853794
2.890500 1.326754 0.827031
2.914026 1.326215 0.826765
2.887248 1.036784 0.904047
2.910796 1.036263 0.903747
2.914292 1.211853 0.869158
2.890830 1.212373 0.869342
2.886961 1.032923 0.884446
2.910508 1.032401 0.884146
2.914005 1.207991 0.849557
2.890542 1.208511 0.849741
2.920622 1.033991 0.893227
2.919381 1.030381 0.877792
2.922906 1.205971 0.843190
2.924119 1.209580 0.858637
2.900704 1.034670 0.894651
2.899464 1.031059 0.879215
2.902988 1.206649 0.844614
2.904201 1.210259 0.860061
2.909267 1.028787 0.868695
2.885741 1.029312 0.868988
2.889306 1.204897 0.834285
2.912791 1.204377 0.834094
2.909554 1.032650 0.888296
2.886028 1.033175 0.888589
2.889593 1.208759 0.853886
2.913078 1.208240 0.853695
1.953373 0.682025 0.933789
1.967194 0.563508 0.923230
1.990716 0.562998 0.922986
1.976863 0.681509 0.933613
1.953233 0.683788 0.913888
1.967055 0.565271 0.903328
1.990577 0.564760 0.903085
1.976724 0.683271 0.913711
1.947938 1.565797 0.791578
1.971428 1.565278 0.791338
1.980825 1.679327 0.746499
1.957304 1.679846 0.746737
1.947588 1.558513 0.772977
1.971078 1.557994 0.772736
1.980474 1.672042 0.727898
1.956953 1.672562 0.728136
1.938357 1.550724 0.766615
1.937806 1.562656 0.781478
1.947171 1.676706 0.736637
1.947769 1.664787 0.721820
1.958248 1.549710 0.768201
1.957697 1.561642 0.783063
1.967062 1.675691 0.738222
1.967661 1.663772 0.723405
1.971655 1.546054 0.757884
1.948140 1.546570 0.758099
1.957552 1.660633 0.713303
1.981048 1.660103 0.713045
1.972004 1.553335 0.776487
1.948489 1.553851 0.776702
1.957902 1.667914 0.731906
1.981397 1.667384 0.731648
1.935530 1.375596 0.853594
1.957589 1.375106 0.853387
1.971403 1.564570 0.791590
1.947914 1.565089 0.791831
1.935206 1.369424 0.834594
1.957265 1.368933 0.834387
1.971080 1.558398 0.772590
1.947590 1.558917 0.772831
1.926008 1.360991 0.828556
1.925402 1.372918 0.843366
1.937785 1.562411 0.781603
1.938336 1.550479 0.766740
1.945919 1.360163 0.829998
1.945312 1.372090 0.844808
1.957696 1.561583 0.783045
1.958247 1.549651 0.768182
1.959309 1.356964 0.819518
1.935813 1.357483 0.819770
1.948141 1.546971 0.757954
1.971656 1.546455 0.757739
1.959634 1.363138 0.838517
1.936138 1.363658 0.838769
1.948466 1.553146 0.776953
1.971981 1.552630 0.776738
1.931730 1.257120 0.880826
1.955220 1.256609 0.880601
1.957560 1.374095 0.853668
1.935501 1.374586 0.853875
1.931447 1.252661 0.861352
1.954937 1.252150 0.861127
1.957277 1.369636 0.834194
1.935219 1.370127 0.834401
1.922168 1.243154 0.855664
1.921604 1.255081 0.870531
1.925376 1.372546 0.843581
1.925983 1.360619 0.828771
1.942114 1.242763 0.856766
1.941550 1.254689 0.871632
1.945322 1.372155 0.844682
1.945928 1.360228 0.829872
1.955528 1.240206 0.846279
1.932012 1.240725 0.846470
1.935827 1.358190 0.819576
1.959322 1.357670 0.819324
1.955810 1.244661 0.865754
1.932294 1.245180 0.865945
1.936108 1.362645 0.839051
1.959604 1.362125 0.838799
1.928206 1.081093 0.915576
1.951727 1.080561 0.915286
1.955225 1.256163 0.880695
1.931735 1.256673 0.880921
1.927906 1.077234 0.895974
1.951426 1.076702 0.895684
1.954925 1.252304 0.861094
1.931435 1.252814 0.861319
1.918622 1.067342 0.890490
1.918066 1.079267 0.905304
1.921595 1.254847 0.870648
1.922159 1.242921 0.855782
1.938579 1.067124 0.891418
1.938023 1.079049 0.906232
1.941552 1.254629 0.871576
1.942116 1.242703 0.856710
1.951957 1.064764 0.880823
1.928462 1.065297 0.881146
1.931999 1.240875 0.846438
1.955515 1.240356 0.846247
1.952257 1.068625 0.900424
1.928763 1.069158 0.900747
1.932300 1.244736 0.866039
1.955816 1.244217 0.865848
1.942340 0.690769 0.903204
1.943334 0.682070 0.923837
1.932872 0.789166 0.926641
1.930846 0.811753 0.905530
1.962228 0.692684 0.903200
1.963222 0.683985 0.923833
1.952760 0.791081 0.926637
1.950734 0.813668 0.905525
1.930812 0.812205 0.905719
1.932838 0.789618 0.926830
1.922888 0.941227 0.921640
1.921987 0.952304 0.902283
1.950748 0.813476 0.905334
1.952774 0.790890 0.926446
1.942824 0.942499 0.921255
1.941922 0.953576 0.901898
1.921963 0.952763 0.902190
1.922865 0.941686 0.921547
1.918060 1.078695 0.905900
1.918616 1.066770 0.891087
1.941932 0.953388 0.901973
1.942834 0.942311 0.921330
1.938029 1.079320 0.905683
1.938585 1.067395 0.890869
1.952212 0.691913 0.893204
1.940717 0.812897 0.895529
1.964213 0.812388 0.895258
1.975727 0.691382 0.893062
1.952379 0.691555 0.913180
1.940885 0.812539 0.915505
1.964381 0.812031 0.915234
1.975894 0.691025 0.913038
1.940670 0.812596 0.895530
1.931845 0.952696 0.892094
1.955359 0.952164 0.891822
1.964166 0.812088 0.895259
1.940912 0.813101 0.915502
1.932086 0.953201 0.912066
1.955601 0.952669 0.911794
1.964408 0.812593 0.915231
1.931811 0.952100 0.892132
1.928464 1.066107 0.881028
1.951959 1.065575 0.880705
1.955326 0.951569 0.891860
1.932107 0.954050 0.912014
1.928760 1.068057 0.900910
1.952255 1.067524 0.900587
1.955622 0.953519 0.911742
1.942905 0.789863 0.936636
1.953367 0.682767 0.933832
1.976858 0.682250 0.933655
1.966427 0.789326 0.936426
1.942752 0.790368 0.916663
1.953215 0.683272 0.913859
1.976705 0.682755 0.913682
1.966274 0.789831 0.916453
1.932987 0.942207 0.931440
1.942937 0.790598 0.936631
1.966458 0.790060 0.936422
1.956475 0.941683 0.931131
1.932750 0.941501 0.911474
1.942700 0.789892 0.916665
1.966222 0.789355 0.916456
1.956239 0.940977 0.911164
1.967883 0.561294 0.882557
1.952240 0.692415 0.893228
1.975755 0.691885 0.893087
1.991378 0.560779 0.882289
1.968021 0.559681 0.902472
1.952378 0.690801 0.913142
1.975893 0.690271 0.913001
1.991516 0.559165 0.902203
1.958018 0.559324 0.892430
1.957191 0.563228 0.913174
1.943370 0.681745 0.923734
1.942376 0.690444 0.903101
1.977862 0.561650 0.892620
1.977035 0.565554 0.913364
1.963213 0.684071 0.923923
1.962219 0.692770 0.903290
1.951729 1.079613 0.915434
1.928209 1.080145 0.915724
1.933013 0.943137 0.931371
1.956502 0.942612 0.931061
1.951425 1.077337 0.895586
1.927905 1.077869 0.895876
1.932709 0.940861 0.911523
1.956197 0.940336 0.911213
