3.068327 0.882562 0.918751
3.062254 0.882761 0.916593
3.066907 0.882388 0.903465
3.075558 0.882293 0.905290
3.071168 1.002937 0.917112
3.065095 1.003136 0.914954
3.069748 1.002762 0.901827
3.078399 1.002668 0.903652
3.076668 0.882278 0.905361
3.068017 0.882373 0.903536
3.072674 0.882075 0.890407
3.083903 0.882115 0.891898
3.077300 1.002682 0.903554
3.068650 1.002777 0.901730
3.073306 1.002479 0.888601
3.084536 1.002519 0.890092
3.084270 0.882121 0.892275
3.073041 0.882081 0.890783
3.077016 0.881798 0.877515
3.089677 0.881883 0.880971
3.084179 1.002512 0.889690
3.072950 1.002472 0.888198
3.076925 1.002190 0.874930
3.089587 1.002274 0.878386
3.087364 0.881971 0.882340
3.074703 0.881886 0.878884
3.073559 0.881704 0.864629
3.085889 0.880912 0.866488
3.091903 1.002185 0.876990
3.079241 1.002101 0.873534
3.078097 1.001918 0.859279
3.090427 1.001127 0.861138
3.085591 0.881322 0.856397
3.073261 0.882114 0.854538
3.074874 0.883654 0.841307
3.088536 0.883051 0.841680
3.090726 1.000718 0.871200
3.078396 1.001509 0.869341
3.080009 1.003050 0.856110
3.093672 1.002447 0.856483
3.061202 0.882798 0.916790
3.055132 0.883050 0.914631
3.057221 0.882708 0.901834
3.065855 0.882425 0.903663
3.066132 1.003099 0.914753
3.060061 1.003351 0.912594
3.062150 1.003009 0.899797
3.070785 1.002726 0.901626
3.066312 0.882403 0.903360
3.057678 0.882686 0.901531
3.059770 0.882445 0.888717
3.070969 0.882105 0.890231
3.070335 1.002747 0.901902
3.061700 1.003030 0.900074
3.063792 1.002788 0.887259
3.074992 1.002449 0.888773
3.072116 0.882109 0.891552
3.060917 0.882448 0.890038
3.062663 0.881752 0.877189
3.076091 0.881826 0.878284
3.073851 1.002445 0.887426
3.062651 1.002784 0.885912
3.064398 1.002089 0.873062
3.077825 1.002162 0.874158
3.075670 0.881802 0.875502
3.062242 0.881728 0.874407
3.061590 0.882273 0.861067
3.074526 0.881620 0.861247
3.078248 1.002186 0.876913
3.064821 1.002112 0.875817
3.064168 1.002656 0.862477
3.077104 1.002003 0.862658
3.073142 0.882075 0.854898
3.060205 0.882729 0.854717
3.061092 0.884218 0.841294
3.074755 0.883616 0.841666
3.078489 1.001549 0.868980
3.065552 1.002202 0.868799
3.066439 1.003692 0.855376
3.080102 1.003089 0.855749
3.054000 0.883103 0.914368
3.047931 0.883382 0.912209
3.047474 0.883308 0.899736
3.056089 0.882761 0.901571
3.061179 1.003299 0.912853
3.055110 1.003578 0.910695
3.054653 1.003504 0.898222
3.063268 1.002957 0.900056
3.057748 0.882729 0.903240
3.049133 0.883276 0.901406
3.048597 0.882436 0.888767
3.059840 0.882487 0.890426
3.061610 1.002988 0.898362
3.052995 1.003535 0.896527
3.052459 1.002694 0.883889
3.063702 1.002746 0.885547
3.061688 0.882500 0.891337
3.050445 0.882449 0.889679
3.050005 0.881736 0.877387
3.063435 0.881805 0.878487
3.061855 1.002732 0.884611
3.050612 1.002680 0.882952
3.050172 1.001967 0.870661
3.063601 1.002036 0.871761
3.062391 0.881867 0.870926
3.048961 0.881798 0.869826
3.048801 0.883065 0.857405
3.061738 0.882411 0.857586
3.064646 1.001974 0.879297
3.051217 1.001905 0.878197
3.051057 1.003172 0.865776
3.063993 1.002518 0.865957
3.060178 0.882677 0.855177
3.047242 0.883331 0.854997
3.047402 0.884770 0.841380
3.061065 0.884167 0.841754
3.065553 1.002255 0.868339
3.052616 1.002908 0.868158
3.052777 1.004348 0.854541
3.066440 1.003744 0.854916
3.125075 0.885255 0.828408
3.125475 0.881694 0.834117
3.110764 0.883870 0.836584
3.111412 0.885857 0.828035
3.139194 0.996620 0.871988
3.139594 0.993060 0.877697
3.124884 0.995235 0.880164
3.125531 0.997223 0.871615
3.114345 0.882515 0.838681
3.113697 0.880527 0.847230
3.099092 0.881154 0.851520
3.100682 0.883119 0.838308
3.122570 1.000567 0.860972
3.121923 0.998579 0.869521
3.107318 0.999206 0.873811
3.108908 1.001171 0.860599
3.101566 0.882611 0.841059
3.099976 0.880646 0.854271
3.084958 0.881485 0.855403
3.087903 0.883213 0.840686
3.107995 1.001680 0.857850
3.106405 0.999715 0.871062
3.091387 1.000554 0.872194
3.094332 1.002283 0.857477
3.112594 0.879605 0.856290
3.113600 0.878785 0.863111
3.099895 0.880147 0.872401
3.097988 0.880232 0.860579
3.123027 0.999499 0.860482
3.124033 0.998678 0.867303
3.110328 1.000040 0.876593
3.108422 1.000125 0.864771
3.098202 0.880239 0.865399
3.100109 0.880154 0.877221
3.084659 0.882136 0.882383
3.083183 0.881078 0.866531
3.108179 1.000121 0.859962
3.110086 1.000036 0.871783
3.094636 1.002018 0.876946
3.093161 1.000960 0.861094
3.175695 1.021074 0.802402
3.174616 1.005770 0.803298
3.166768 1.004275 0.797339
3.167017 1.019180 0.797128
3.107172 1.027708 0.901202
3.106093 1.012404 0.902099
3.098246 1.010909 0.896139
3.098494 1.025814 0.895928
3.180019 1.005293 0.807559
3.178805 0.990001 0.808584
3.171932 0.988893 0.801826
3.172171 1.003798 0.801599
3.100689 1.012851 0.897839
3.099475 0.997558 0.898864
3.092602 0.996451 0.892106
3.092841 1.011356 0.891879
3.183834 0.990321 0.813527
3.182751 0.975019 0.814425
3.176716 0.974307 0.806986
3.176960 0.989213 0.806769
3.094445 0.997208 0.893921
3.093363 0.981906 0.894819
3.087328 0.981194 0.887380
3.087572 0.996100 0.887163
3.075413 1.097458 0.910320
3.081958 1.096476 0.896118
3.073617 1.096806 0.894225
3.069524 1.097177 0.905645
3.072605 0.977183 0.915507
3.079150 0.976201 0.901305
3.070809 0.976531 0.899412
3.066715 0.976902 0.910832
3.083164 1.096464 0.896902
3.089655 1.095827 0.884156
3.078966 1.096211 0.882345
3.074823 1.096794 0.895010
3.077954 0.976211 0.900495
3.084445 0.975574 0.887749
3.073757 0.975958 0.885938
3.069613 0.976541 0.898602
3.089440 1.095833 0.884066
3.095933 1.095195 0.871319
3.082908 1.095640 0.869548
3.078752 1.096218 0.882255
3.084671 0.975567 0.887813
3.091164 0.974929 0.875066
3.078139 0.975374 0.873295
3.073982 0.975951 0.886002
3.096054 1.095026 0.868367
3.097837 1.093875 0.854407
3.084220 1.094307 0.853249
3.083028 1.095471 0.866596
3.091051 0.975096 0.877992
3.092834 0.973945 0.864031
3.079217 0.974377 0.862874
3.078026 0.975541 0.876221
3.097655 1.093835 0.853843
3.098263 1.092544 0.839594
3.084835 1.093009 0.839079
3.084038 1.094266 0.852686
3.093018 0.973983 0.864568
3.093626 0.972693 0.850318
3.080197 0.973158 0.849803
3.079401 0.974415 0.863410
3.071571 1.097135 0.906897
3.075664 1.096764 0.895478
3.067205 1.097090 0.893603
3.065529 1.097585 0.906168
3.064653 0.976945 0.909575
3.068747 0.976573 0.898155
3.060287 0.976900 0.896281
3.058612 0.977395 0.908845
3.074808 1.096787 0.894773
3.078951 1.096204 0.882108
3.068023 1.096593 0.880335
3.066348 1.097114 0.892898
3.069610 0.976549 0.898835
3.073753 0.975966 0.886171
3.062825 0.976354 0.884398
3.061150 0.976875 0.896961
3.078707 1.096213 0.882062
3.082864 1.095636 0.869355
3.069465 1.096079 0.867641
3.067779 1.096601 0.880289
3.074003 0.975956 0.886192
3.078159 0.975379 0.873485
3.064760 0.975823 0.871771
3.063075 0.976345 0.884419
3.083010 1.095443 0.866253
3.084201 1.094279 0.852906
3.070599 1.094714 0.851759
3.069611 1.095887 0.864539
3.078018 0.975570 0.876561
3.079209 0.974405 0.863214
3.065607 0.974840 0.862067
3.064619 0.976013 0.874848
3.084029 1.094258 0.852597
3.084826 1.093002 0.838991
3.071397 1.093464 0.838474
3.070427 1.094693 0.851451
3.079383 0.974423 0.863496
3.080180 0.973167 0.849890
3.066751 0.973628 0.849373
3.065782 0.974858 0.862350
3.064252 1.097632 0.905660
3.065928 1.097137 0.893095
3.057348 1.097441 0.891241
3.058254 1.097741 0.903690
3.059874 0.977349 0.909350
3.061550 0.976854 0.896786
3.052970 0.977158 0.894931
3.053876 0.977458 0.907380
3.066327 1.097110 0.892775
3.068002 1.096589 0.880212
3.056837 1.097007 0.878475
3.057747 1.097414 0.890921
3.061151 0.976879 0.897080
3.062826 0.976358 0.884517
3.051661 0.976776 0.882780
3.052572 0.977183 0.895226
3.067820 1.096589 0.880009
3.069506 1.096067 0.867361
3.055779 1.096518 0.865820
3.056655 1.097007 0.878271
3.063009 0.976357 0.884696
3.064695 0.975835 0.872048
3.050968 0.976286 0.870507
3.051844 0.976775 0.882958
3.069554 1.095863 0.864246
3.070542 1.094690 0.851466
3.056957 1.095114 0.850327
3.055827 1.096314 0.862705
3.064649 0.976038 0.875138
3.065637 0.974865 0.862358
3.052052 0.975288 0.861219
3.050922 0.976489 0.873597
3.070401 1.094687 0.851372
3.071371 1.093458 0.838396
3.057943 1.093923 0.837882
3.056815 1.095111 0.850233
3.065781 0.974865 0.862426
3.066751 0.973636 0.849450
3.053323 0.974101 0.848936
3.052195 0.975289 0.861287
3.059515 1.029171 0.783513
3.072942 1.028706 0.784027
3.070966 1.013958 0.785483
3.058592 1.014276 0.784262
3.051751 1.038837 0.903293
3.065179 1.038371 0.903807
3.063202 1.023624 0.905262
3.050829 1.023941 0.904041
3.072842 1.025560 0.784358
3.086270 1.025098 0.784875
3.083238 1.010494 0.787034
3.070865 1.010813 0.785814
3.065306 1.041516 0.903478
3.078734 1.041054 0.903994
3.075702 1.026450 0.906153
3.063329 1.026769 0.904933
3.086150 1.021974 0.785370
3.099578 1.021509 0.785885
3.095492 1.007052 0.788749
3.083119 1.007370 0.787529
3.078879 1.044178 0.903501
3.092307 1.043713 0.904016
3.088221 1.029256 0.906881
3.075848 1.029573 0.905660
3.101657 1.019635 0.786433
3.112646 1.020030 0.787474
3.109945 1.004860 0.790517
3.097571 1.005179 0.789298
3.090253 1.045586 0.903469
3.101242 1.045981 0.904510
3.098541 1.030810 0.907553
3.086167 1.031129 0.906334
3.111747 1.019883 0.787426
3.122789 1.020131 0.788139
3.121419 1.004395 0.791688
3.109046 1.004713 0.790469
3.102164 1.046128 0.904560
3.113206 1.046376 0.905272
3.111836 1.030640 0.908821
3.099463 1.030958 0.907603
3.120294 1.037387 0.786682
3.130675 1.036567 0.791705
3.135027 1.026640 0.786503
3.118924 1.021652 0.790231
3.115725 1.029121 0.906731
3.126106 1.028302 0.911754
3.130459 1.018375 0.906552
3.114356 1.013386 0.910280
3.060078 1.016111 0.784257
3.072452 1.015793 0.785478
3.071787 1.000842 0.786067
3.059156 1.001218 0.785012
3.049340 1.022077 0.904048
3.061714 1.021759 0.905269
3.061049 1.006808 0.905858
3.048418 1.007184 0.904803
3.072474 1.016570 0.785446
3.084848 1.016251 0.786667
3.084441 1.001244 0.787085
3.071809 1.001619 0.786035
3.061717 1.020982 0.905303
3.074090 1.020663 0.906523
3.073683 1.005656 0.906941
3.061051 1.006031 0.905892
3.084895 1.017022 0.786647
3.097268 1.016704 0.787868
3.097119 1.001639 0.788119
3.084488 1.002015 0.787065
3.074068 1.019892 0.906545
3.086441 1.019575 0.907765
3.086292 1.004510 0.908017
3.073661 1.004885 0.906963
3.097285 1.017471 0.787856
3.109659 1.017152 0.789075
3.109767 1.002031 0.789156
3.097136 1.002406 0.788107
3.086449 1.018807 0.907779
3.098823 1.018488 0.908998
3.098932 1.003367 0.909079
3.086300 1.003742 0.908031
3.109700 1.017916 0.789075
3.122073 1.017598 0.790293
3.122439 1.002419 0.790207
3.109808 1.002795 0.789156
3.098808 1.017724 0.909000
3.111180 1.017407 0.910219
3.111547 1.002228 0.910133
3.098916 1.002603 0.909081
3.103425 1.017210 0.791514
3.119528 1.022198 0.787786
3.119280 1.007293 0.787997
3.103792 1.002031 0.791428
3.129856 1.017800 0.908996
3.145959 1.022789 0.905268
3.145711 1.007884 0.905479
3.130223 1.002621 0.908909
3.058234 1.001210 0.784937
3.070865 1.000834 0.785991
3.070199 0.985884 0.786585
3.057310 0.986317 0.785707
3.049338 1.007162 0.904880
3.061969 1.006787 0.905934
3.061304 0.991836 0.906528
3.048414 0.992269 0.905649
3.070903 1.001607 0.785961
3.083535 1.001233 0.787011
3.083127 0.986225 0.787437
3.070238 0.986657 0.786554
3.061956 1.006013 0.905967
3.074588 1.005638 0.907016
3.074180 0.990630 0.907443
3.061291 0.991063 0.906560
3.083576 1.001998 0.786990
3.096207 1.001623 0.788044
3.096057 0.986559 0.788296
3.083168 0.986991 0.787417
3.074572 1.004872 0.907038
3.087204 1.004496 0.908092
3.087054 0.989432 0.908344
3.074165 0.989864 0.907465
3.096231 1.002388 0.788033
3.108862 1.002013 0.789081
3.108971 0.986892 0.789164
3.096081 0.987324 0.788284
3.087205 1.003730 0.908106
3.099836 1.003355 0.909154
3.099945 0.988234 0.909237
3.087055 0.988666 0.908358
3.108910 1.002765 0.789081
3.121541 1.002390 0.790132
3.121907 0.987211 0.790044
3.109018 0.987644 0.789164
3.099814 1.002603 0.909156
3.112446 1.002227 0.910208
3.112812 0.987049 0.910120
3.099923 0.987481 0.909239
3.104428 1.001987 0.791289
3.119916 1.007250 0.787858
3.119676 0.992345 0.788084
3.104794 0.986809 0.791201
3.129587 1.002635 0.909049
3.145074 1.007897 0.905618
3.144835 0.992992 0.905844
3.129953 0.987456 0.908961
3.056413 0.986367 0.785644
3.069303 0.985934 0.786523
3.068637 0.970984 0.787114
3.055490 0.971473 0.786407
3.049309 0.992189 0.905713
3.062199 0.991757 0.906591
3.061533 0.976806 0.907182
3.048386 0.977296 0.906475
3.069369 0.986685 0.786495
3.082258 0.986253 0.787377
3.081851 0.971246 0.787799
3.068704 0.971735 0.787086
3.062158 0.991005 0.906621
3.075047 0.990572 0.907503
3.074640 0.975565 0.907925
3.061493 0.976054 0.907212
3.082279 0.987002 0.787356
3.095167 0.986570 0.788236
3.095018 0.971506 0.788486
3.081871 0.971995 0.787778
3.075053 0.989822 0.907526
3.087942 0.989390 0.908405
3.087793 0.974326 0.908655
3.074646 0.974815 0.907948
3.095217 0.987311 0.788226
3.108107 0.986879 0.789105
3.108215 0.971758 0.789188
3.095068 0.972247 0.788476
3.087919 0.988648 0.908416
3.100809 0.988216 0.909296
3.100917 0.973095 0.909379
3.087770 0.973584 0.908667
3.108149 0.987611 0.789104
3.121038 0.987179 0.789985
3.121404 0.972001 0.789899
3.108257 0.972490 0.789187
3.100793 0.987483 0.909299
3.113682 0.987051 0.910179
3.114048 0.971873 0.910093
3.100901 0.972362 0.909381
3.105484 0.986813 0.791057
3.120366 0.992349 0.787941
3.120123 0.977443 0.788157
3.105851 0.971635 0.790971
3.129263 0.987421 0.909104
3.144145 0.992958 0.905988
3.143901 0.978051 0.906204
3.129629 0.972244 0.909018
3.054646 0.971504 0.786361
3.067794 0.971015 0.787068
3.067128 0.956064 0.787660
3.053723 0.956610 0.787121
3.049228 0.977235 0.906522
3.062375 0.976746 0.907229
3.061710 0.961795 0.907821
3.048305 0.962341 0.907282
3.067857 0.971748 0.787040
3.081004 0.971258 0.787754
3.080596 0.956251 0.788175
3.067191 0.956797 0.787633
3.062339 0.976012 0.907258
3.075486 0.975523 0.907971
3.075078 0.960515 0.908392
3.061673 0.961061 0.907850
3.081027 0.971992 0.787733
3.094174 0.971503 0.788441
3.094025 0.956439 0.788694
3.080619 0.956985 0.788154
3.075489 0.974787 0.907993
3.088636 0.974298 0.908701
3.088486 0.959234 0.908953
3.075081 0.959780 0.908414
3.094232 0.972231 0.788431
3.107379 0.971741 0.789143
3.107487 0.956620 0.789225
3.094082 0.957166 0.788684
3.088605 0.973570 0.908712
3.101753 0.973081 0.909424
3.101860 0.957960 0.909506
3.088456 0.958506 0.908964
3.107426 0.972461 0.789142
3.120574 0.971972 0.789854
3.120939 0.956794 0.789768
3.107534 0.957340 0.789224
3.101732 0.972360 0.909427
3.114879 0.971871 0.910138
3.115244 0.956693 0.910053
3.101840 0.957239 0.909509
3.113811 0.966742 0.790138
3.128083 0.972550 0.787324
3.127581 0.951017 0.790595
3.114177 0.951564 0.790053
3.121669 0.977103 0.909853
3.135941 0.982911 0.907039
3.135439 0.961379 0.910310
3.122034 0.961925 0.909768
3.052924 0.956664 0.787087
3.066329 0.956118 0.787627
3.065664 0.941167 0.788213
3.052001 0.941770 0.787839
3.049102 0.962258 0.907316
3.062507 0.961712 0.907856
3.061842 0.946761 0.908442
3.048179 0.947364 0.908068
3.066375 0.956832 0.787600
3.079780 0.956286 0.788142
3.079373 0.941278 0.788558
3.065710 0.941880 0.788186
3.062488 0.960997 0.907884
3.075893 0.960451 0.908426
3.075486 0.945444 0.908843
3.061823 0.946046 0.908471
3.079819 0.956997 0.788123
3.093224 0.956451 0.788662
3.093074 0.941386 0.788912
3.079412 0.941990 0.788539
3.075881 0.959738 0.908446
3.089286 0.959192 0.908986
3.089137 0.944128 0.909236
3.075474 0.944731 0.908863
3.093274 0.957156 0.788651
3.106679 0.956610 0.789193
3.106787 0.941489 0.789275
3.093124 0.942092 0.788902
3.089264 0.958486 0.908997
3.102669 0.957940 0.909538
3.102777 0.942819 0.909620
3.089114 0.943421 0.909247
3.106729 0.957323 0.789191
3.120134 0.956777 0.789736
3.120499 0.941598 0.789646
3.106837 0.942202 0.789273
3.102646 0.957226 0.909541
3.116051 0.956680 0.910086
3.116416 0.941502 0.909996
3.102754 0.942105 0.909623
3.120174 0.957485 0.789742
3.133578 0.956938 0.790284
3.134202 0.941704 0.790025
3.120540 0.942306 0.789652
3.116037 0.955971 0.910081
3.129442 0.955424 0.910623
3.130066 0.940189 0.910364
3.116403 0.940792 0.909991
3.101257 1.094750 0.871391
3.113957 1.092429 0.865355
3.113990 1.092600 0.854382
3.103041 1.093599 0.857431
3.085872 0.975371 0.874964
3.098571 0.973050 0.868928
3.098604 0.973221 0.857955
3.087655 0.974219 0.861004
3.107495 1.092910 0.868904
3.118547 1.092761 0.861205
3.118724 1.093082 0.855288
3.107528 1.093081 0.857931
3.105056 0.972567 0.865370
3.116109 0.972418 0.857671
3.116285 0.972739 0.851754
3.105089 0.972738 0.854397
3.125629 1.092124 0.862911
3.136007 1.090878 0.859496
3.125805 1.092445 0.856994
3.109045 0.973055 0.855960
3.119424 0.971809 0.852545
3.109222 0.973376 0.850043
3.096742 1.094035 0.856354
3.107691 1.093036 0.853305
3.108339 1.093139 0.843145
3.097350 1.092744 0.842104
3.093955 0.973782 0.862057
3.104904 0.972784 0.859008
3.105552 0.972887 0.848848
3.094563 0.972492 0.847807
3.105771 1.093096 0.857728
3.116967 1.093098 0.855085
3.117461 1.093448 0.848281
3.106419 1.093200 0.847568
3.106846 0.972723 0.854583
3.118042 0.972724 0.851940
3.118535 0.973074 0.845136
3.107494 0.972826 0.844423
3.121428 1.092434 0.861692
3.131630 1.090867 0.864194
3.132302 1.091964 0.859911
3.121921 1.092784 0.854887
3.113603 0.973387 0.845336
3.123806 0.971820 0.847839
3.124478 0.972917 0.843555
3.114097 0.973737 0.838532
3.201232 1.066668 0.863845
3.201459 1.066441 0.870312
3.200806 1.055929 0.870368
3.200812 1.056527 0.855040
3.080954 1.072313 0.865278
3.081181 1.072086 0.871745
3.080527 1.061573 0.871801
3.080533 1.062172 0.856474
3.201414 1.067070 0.874049
3.200818 1.067079 0.880637
3.200241 1.055834 0.889286
3.200761 1.056558 0.874104
3.081225 1.071455 0.868030
3.080629 1.071464 0.874619
3.080052 1.060219 0.883268
3.080572 1.060943 0.868086
3.200872 1.059424 0.856864
3.200866 1.058826 0.872191
3.200603 1.044751 0.872634
3.201188 1.045884 0.855695
3.080473 1.059250 0.854645
3.080467 1.058652 0.869973
3.080204 1.044577 0.870415
3.080790 1.045710 0.853477
3.200865 1.058666 0.872210
3.200346 1.057942 0.887392
3.200524 1.043555 0.889735
3.200602 1.044591 0.872653
3.080467 1.058810 0.869986
3.079947 1.058086 0.885168
3.080125 1.043699 0.887511
3.080203 1.044735 0.870428
3.201188 1.045722 0.855725
3.200602 1.044589 0.872663
3.200841 1.030611 0.873250
3.200935 1.032085 0.854388
3.080790 1.045845 0.853446
3.080204 1.044712 0.870385
3.080443 1.030734 0.870971
3.080537 1.032208 0.852109
3.200603 1.044796 0.872584
3.200525 1.043760 0.889666
3.200307 1.029278 0.891892
3.200842 1.030819 0.873170
3.080202 1.044501 0.870500
3.080124 1.043466 0.887582
3.079906 1.028984 0.889808
3.080441 1.030524 0.871086
3.200885 1.034256 0.854951
3.200790 1.032783 0.873813
3.200793 1.021589 0.873969
3.201586 1.026523 0.853518
3.080588 1.030014 0.851544
3.080494 1.028540 0.870406
3.080496 1.017346 0.870562
3.081289 1.022281 0.850111
3.200815 1.030141 0.874140
3.200280 1.028600 0.892862
3.200019 1.014045 0.893835
3.200818 1.018948 0.874296
3.080468 1.031175 0.870118
3.079932 1.029634 0.888840
3.079671 1.015078 0.889813
3.080470 1.019981 0.870274
3.201631 1.022980 0.851683
3.200838 1.018045 0.872133
3.201216 1.003320 0.872670
3.200552 1.007675 0.852579
3.081245 1.025800 0.851947
3.080451 1.020866 0.872397
3.080830 1.006140 0.872934
3.080166 1.010496 0.852843
3.200740 1.019501 0.875983
3.199941 1.014598 0.895523
3.199575 1.000256 0.895175
3.201118 1.004775 0.876520
3.080548 1.019400 0.868587
3.079749 1.014497 0.888127
3.079383 1.000155 0.887779
3.080926 1.004675 0.869124
3.200330 1.005213 0.849017
3.200995 1.000857 0.869108
3.200166 0.987676 0.864663
3.199117 0.989920 0.850041
3.080386 1.012929 0.856405
3.081050 1.008573 0.876496
3.080221 0.995392 0.872052
3.079172 0.997637 0.857430
3.200888 0.999524 0.876616
3.199344 0.995004 0.895271
3.199040 0.984476 0.885183
3.200059 0.986343 0.872172
3.081157 1.009900 0.869021
3.079613 1.005380 0.887676
3.079309 0.994852 0.877588
3.080328 0.996719 0.864577
3.198975 0.989151 0.848831
3.200025 0.986906 0.863453
3.198672 0.974210 0.859189
3.197893 0.973849 0.849729
3.079311 0.998378 0.858636
3.080360 0.996133 0.873258
3.079008 0.983437 0.868994
3.078229 0.983076 0.859534
3.200332 0.988666 0.868993
3.199313 0.986799 0.882005
3.199712 0.976225 0.871850
3.198979 0.975969 0.864729
3.080054 0.994372 0.867741
3.079035 0.992505 0.880752
3.079434 0.981932 0.870597
3.078701 0.981675 0.863476
3.109129 0.879580 0.859517
3.108123 0.880400 0.852695
3.122833 0.878225 0.850228
3.128528 0.997881 0.870887
3.127521 0.998702 0.864065
3.142232 0.996527 0.861598
