-0.648814 0.559539 0.494255
-0.690487 0.559489 0.493716
-0.691377 0.558098 0.461070
-0.649321 0.558372 0.461030
-0.649041 0.622169 0.491827
-0.690714 0.622119 0.491288
-0.691604 0.620728 0.458642
-0.649549 0.621001 0.458602
-0.692499 0.559540 0.491448
-0.734168 0.559488 0.490870
-0.735462 0.563184 0.458967
-0.693389 0.558148 0.458802
-0.688787 0.622071 0.493555
-0.730457 0.622020 0.492977
-0.731750 0.625716 0.461074
-0.689677 0.620680 0.460909
-0.732105 0.559784 0.487150
-0.773517 0.558333 0.486544
-0.775052 0.564363 0.455196
-0.733399 0.563479 0.455247
-0.732603 0.621727 0.496697
-0.774014 0.620277 0.496091
-0.775550 0.626307 0.464743
-0.733897 0.625423 0.464794
-0.754782 0.564406 0.490337
-0.789936 0.543521 0.489907
-0.791107 0.537927 0.457639
-0.756318 0.570436 0.458989
-0.792826 0.614178 0.492297
-0.827980 0.593293 0.491867
-0.829151 0.587699 0.459599
-0.794362 0.620208 0.460949
-0.787738 0.545554 0.493947
-0.818173 0.517083 0.494278
-0.819711 0.511340 0.460805
-0.788908 0.539960 0.461679
-0.830245 0.591206 0.487826
-0.860680 0.562735 0.488157
-0.862218 0.556992 0.454684
-0.831415 0.585612 0.455558
-0.828604 0.510708 0.494798
-0.863749 0.496423 0.493600
-0.866699 0.492331 0.460536
-0.830142 0.504965 0.461325
-0.850315 0.569067 0.487636
-0.885460 0.554782 0.486438
-0.888410 0.550690 0.453374
-0.851853 0.563324 0.454163
-0.872176 0.494433 0.492262
-0.906045 0.490265 0.492035
-0.907273 0.488321 0.445961
-0.875126 0.490341 0.459198
-0.877102 0.556755 0.487768
-0.910971 0.552587 0.487541
-0.912199 0.550643 0.441467
-0.880052 0.552663 0.454704
-0.908581 0.490109 0.490991
-0.943063 0.490003 0.491524
-0.944185 0.488277 0.442312
-0.909809 0.488165 0.444917
-0.908502 0.552740 0.488577
-0.942985 0.552634 0.489110
-0.944107 0.550908 0.439898
-0.909730 0.550796 0.442503
-0.943459 0.490002 0.491400
-0.977960 0.490429 0.492089
-0.979399 0.488743 0.441707
-0.944582 0.488275 0.442188
-0.942657 0.552636 0.489233
-0.977157 0.553064 0.489922
-0.978597 0.551377 0.439540
-0.943779 0.550910 0.440021
-0.977989 0.490428 0.492045
-1.012492 0.490855 0.492729
-1.014244 0.489197 0.441185
-0.979429 0.488742 0.441664
-0.977198 0.553066 0.489965
-1.011701 0.553493 0.490650
-1.013453 0.551835 0.439105
-0.978637 0.551379 0.439584
-0.649289 0.590239 0.524388
-0.649021 0.616891 0.524869
-0.690162 0.617153 0.524456
-0.690962 0.590189 0.523849
-0.648566 0.591497 0.461728
-0.648298 0.618150 0.462209
-0.689438 0.618411 0.461796
-0.690238 0.591447 0.461189
-0.691000 0.590007 0.523844
-0.690200 0.616970 0.524452
-0.731375 0.617325 0.524090
-0.732670 0.589956 0.523266
-0.690283 0.591630 0.461192
-0.689483 0.618594 0.461800
-0.730659 0.618948 0.461438
-0.731953 0.591579 0.460614
-0.732730 0.589772 0.523260
-0.731435 0.617141 0.524084
-0.772444 0.616523 0.523632
-0.774141 0.588322 0.522655
-0.731976 0.591762 0.460619
-0.730682 0.619131 0.461443
-0.771690 0.618513 0.460991
-0.773387 0.590312 0.460014
-0.773445 0.588141 0.522649
-0.771748 0.616342 0.523626
-0.807993 0.603200 0.523605
-0.808599 0.567256 0.522218
-0.774160 0.590475 0.460019
-0.772463 0.618676 0.460996
-0.808709 0.605533 0.460975
-0.809315 0.569590 0.459588
-0.807755 0.567293 0.522198
-0.807148 0.603236 0.523584
-0.838885 0.577857 0.523801
-0.838189 0.538822 0.522530
-0.810227 0.569509 0.459609
-0.809620 0.605453 0.460995
-0.841357 0.580073 0.461212
-0.840661 0.541038 0.459940
-0.840159 0.538910 0.522549
-0.840855 0.577945 0.523821
-0.876878 0.560014 0.522400
-0.875305 0.524625 0.521351
-0.838758 0.540907 0.459919
-0.839454 0.579942 0.461191
-0.875477 0.562010 0.459771
-0.873904 0.526622 0.458721
-0.874577 0.524553 0.521356
-0.876151 0.559941 0.522406
-0.909784 0.556872 0.522520
-0.908446 0.520385 0.521129
-0.874700 0.526675 0.458715
-0.876274 0.562063 0.459764
-0.909907 0.558994 0.459878
-0.908569 0.522506 0.458488
-0.908071 0.520284 0.521122
-0.909409 0.556772 0.522513
-0.943504 0.557048 0.523016
-0.942554 0.520178 0.521655
-0.909012 0.522603 0.458495
-0.910350 0.559091 0.459886
-0.944444 0.559367 0.460389
-0.943494 0.522498 0.459028
-0.942500 0.520247 0.521657
-0.943450 0.557117 0.523018
-0.977534 0.557750 0.523588
-0.977000 0.520674 0.522346
-0.943616 0.522430 0.459028
-0.944567 0.559299 0.460388
-0.978651 0.559932 0.460959
-0.978116 0.522857 0.459716
-0.977038 0.520774 0.522350
-0.977572 0.557850 0.523592
-1.011626 0.558419 0.524155
-1.011541 0.521202 0.523034
-0.978147 0.522758 0.459714
-0.978682 0.559833 0.460956
-1.012736 0.560402 0.461519
-1.012650 0.523185 0.460398
-0.648892 0.616938 0.524872
-0.648638 0.645589 0.525319
-0.688949 0.645468 0.525129
-0.690032 0.617199 0.524459
-0.648426 0.618158 0.462208
-0.648172 0.646809 0.462656
-0.688483 0.646688 0.462465
-0.689566 0.618420 0.461795
-0.690061 0.616986 0.524453
-0.688978 0.645254 0.525124
-0.729255 0.645048 0.524915
-0.731237 0.617340 0.524092
-0.689619 0.618634 0.461799
-0.688536 0.646902 0.462470
-0.728813 0.646695 0.462261
-0.730795 0.618988 0.461438
-0.731283 0.617098 0.524084
-0.729301 0.644805 0.524907
-0.769488 0.644159 0.524729
-0.772292 0.616479 0.523632
-0.730830 0.619230 0.461445
-0.728848 0.646938 0.462268
-0.769035 0.646292 0.462090
-0.771839 0.618612 0.460993
-0.771480 0.616084 0.523611
-0.768677 0.643764 0.524708
-0.806701 0.630721 0.524993
-0.807725 0.602942 0.523590
-0.772728 0.618993 0.461014
-0.769925 0.646674 0.462111
-0.807950 0.633630 0.462396
-0.808973 0.605851 0.460992
-0.807383 0.603062 0.523586
-0.806359 0.630842 0.524990
-0.840361 0.609418 0.524908
-0.839120 0.577683 0.523803
-0.809386 0.605694 0.460996
-0.808362 0.633473 0.462400
-0.842363 0.612050 0.462318
-0.841122 0.580314 0.461213
-0.840996 0.577976 0.523819
-0.842237 0.609711 0.524924
-0.879792 0.598094 0.523423
-0.877019 0.560044 0.522398
-0.839316 0.579983 0.461196
-0.840557 0.611719 0.462301
-0.878112 0.600102 0.460800
-0.875339 0.562052 0.459775
-0.875743 0.559992 0.522404
-0.878516 0.598042 0.523428
-0.911637 0.595680 0.524138
-0.909376 0.556923 0.522518
-0.876686 0.562087 0.459769
-0.879459 0.600137 0.460793
-0.912580 0.597774 0.461503
-0.910319 0.559018 0.459883
-0.909471 0.556721 0.522512
-0.911733 0.595478 0.524132
-0.945058 0.595266 0.524514
-0.943566 0.556997 0.523015
-0.910291 0.559217 0.459890
-0.912552 0.597974 0.461509
-0.945878 0.597761 0.461892
-0.944385 0.559493 0.460393
-0.943577 0.557099 0.523019
-0.945069 0.595368 0.524518
-0.978424 0.595411 0.524902
-0.977661 0.557732 0.523590
-0.944441 0.559392 0.460390
-0.945933 0.597660 0.461888
-0.979288 0.597703 0.462272
-0.978525 0.560025 0.460961
-0.977696 0.557859 0.523595
-0.978459 0.595538 0.524907
-1.011843 0.595641 0.525295
-1.011750 0.558428 0.524157
-0.978558 0.559898 0.460957
-0.979321 0.597577 0.462269
-1.012705 0.597680 0.462656
-1.012612 0.560467 0.461519
-0.648488 0.645656 0.525321
-0.648223 0.673302 0.525746
-0.688006 0.673505 0.525723
-0.688800 0.645536 0.525131
-0.648320 0.646798 0.462655
-0.648055 0.674444 0.463079
-0.687838 0.674646 0.463056
-0.688632 0.646677 0.462465
-0.688838 0.645337 0.525127
-0.688045 0.673306 0.525718
-0.727827 0.673494 0.525716
-0.729115 0.645130 0.524918
-0.688673 0.646876 0.462469
-0.687880 0.674845 0.463060
-0.727662 0.675033 0.463058
-0.728950 0.646669 0.462260
-0.729128 0.644924 0.524912
-0.727841 0.673288 0.525710
-0.767599 0.669487 0.525608
-0.769315 0.644279 0.524734
-0.729017 0.646873 0.462265
-0.727729 0.675237 0.463063
-0.767487 0.671435 0.462961
-0.769204 0.646227 0.462087
-0.768652 0.644094 0.524721
-0.766935 0.669302 0.525595
-0.806066 0.666995 0.526339
-0.806677 0.631051 0.525007
-0.769946 0.646402 0.462100
-0.768230 0.671610 0.462974
-0.807360 0.669303 0.463717
-0.807971 0.633359 0.462385
-0.806887 0.631133 0.525013
-0.806276 0.667077 0.526345
-0.841579 0.648747 0.526133
-0.840888 0.609710 0.524932
-0.807834 0.633249 0.462379
-0.807224 0.669193 0.463711
-0.842527 0.650863 0.463499
-0.841836 0.611825 0.462297
-0.842353 0.609775 0.524922
-0.843044 0.648813 0.526124
-0.881481 0.633547 0.524470
-0.879908 0.598159 0.523421
-0.840444 0.611727 0.462305
-0.841135 0.650764 0.463506
-0.879572 0.635498 0.461852
-0.877999 0.600110 0.460804
-0.878091 0.598095 0.523421
-0.879664 0.633483 0.524470
-0.912552 0.632216 0.525533
-0.911213 0.595733 0.524130
-0.879887 0.600158 0.460803
-0.881460 0.635547 0.461852
-0.914347 0.634280 0.462916
-0.913008 0.597796 0.461513
-0.911813 0.595603 0.524137
-0.913151 0.632087 0.525540
-0.946090 0.632266 0.525858
-0.945138 0.595391 0.524520
-0.912475 0.597923 0.461507
-0.913814 0.634407 0.462910
-0.946753 0.634585 0.463227
-0.945800 0.597711 0.461889
-0.945201 0.595475 0.524523
-0.946154 0.632349 0.525862
-0.979090 0.632588 0.526124
-0.978556 0.595518 0.524907
-0.945803 0.597627 0.461886
-0.946755 0.634502 0.463224
-0.979692 0.634741 0.463487
-0.979158 0.597671 0.462270
-0.978586 0.595622 0.524911
-0.979120 0.632692 0.526128
-1.012054 0.632948 0.526396
-1.011970 0.595725 0.525299
-0.979195 0.597568 0.462267
-0.979729 0.634638 0.463484
-1.012663 0.634894 0.463752
-1.012579 0.597671 0.462655
-1.012713 0.671642 0.449410
-1.012300 0.664988 0.499330
-0.979366 0.664732 0.499062
-0.978390 0.671824 0.449289
-1.012830 0.609552 0.440848
-1.012418 0.602898 0.490768
-0.979483 0.602642 0.490500
-0.978508 0.609734 0.440728
-0.978356 0.671785 0.449561
-0.979332 0.664693 0.499334
-0.946395 0.664454 0.499072
-0.944037 0.671952 0.449442
-0.978474 0.609773 0.440455
-0.979450 0.602681 0.490228
-0.946513 0.602442 0.489966
-0.944155 0.609939 0.440336
-0.944015 0.671916 0.449680
-0.946373 0.664418 0.499310
-0.913434 0.664239 0.498992
-0.909702 0.672046 0.449641
-0.944110 0.609975 0.440097
-0.946468 0.602478 0.489727
-0.913529 0.602299 0.489409
-0.909797 0.610106 0.440058
-0.910123 0.672095 0.449297
-0.913856 0.664288 0.498648
-0.880968 0.665555 0.497585
-0.875856 0.671596 0.451157
-0.909308 0.610057 0.440403
-0.913041 0.602251 0.489754
-0.880153 0.603518 0.488690
-0.875041 0.609558 0.442263
-0.889768 0.668048 0.451394
-0.894880 0.662007 0.497821
-0.856443 0.677273 0.499476
-0.864011 0.682696 0.471076
-0.861064 0.613122 0.442037
-0.866175 0.607081 0.488464
-0.827738 0.622346 0.490118
-0.835307 0.627769 0.461719
-0.863445 0.682018 0.475035
-0.855877 0.676596 0.503434
-0.820574 0.694926 0.503646
-0.828513 0.699502 0.476206
-0.835805 0.628479 0.457772
-0.828237 0.623057 0.486171
-0.792934 0.641387 0.486384
-0.800873 0.645962 0.458943
-0.817359 0.703088 0.474920
-0.809419 0.698513 0.502360
-0.770289 0.700820 0.501617
-0.776710 0.708100 0.474790
-0.811952 0.642397 0.460230
-0.804013 0.637822 0.487670
-0.764882 0.640129 0.486926
-0.771303 0.647409 0.460099
-0.775398 0.708399 0.473859
-0.768977 0.701119 0.500686
-0.729219 0.704920 0.500788
-0.733330 0.708368 0.474017
-0.772534 0.647116 0.461030
-0.766113 0.639835 0.487856
-0.726354 0.643637 0.487959
-0.730466 0.647085 0.461188
-0.732343 0.708661 0.472601
-0.728232 0.705214 0.499372
-0.688450 0.705025 0.499374
-0.690290 0.710093 0.472866
-0.731371 0.646794 0.462604
-0.727259 0.643346 0.489376
-0.687477 0.643158 0.489378
-0.689317 0.648226 0.462869
-0.689345 0.710013 0.473342
-0.687505 0.704946 0.499850
-0.647722 0.704743 0.499873
-0.647283 0.709080 0.473480
-0.690180 0.648305 0.462393
-0.688340 0.643238 0.488902
-0.648557 0.643035 0.488925
-0.648117 0.647372 0.462531
-0.650029 0.579527 -0.501564
-0.650729 0.575167 -0.468416
-0.692779 0.576007 -0.468621
-0.691703 0.579796 -0.501210
-0.649191 0.641720 -0.493832
-0.649891 0.637360 -0.460684
-0.691941 0.638200 -0.460889
-0.690865 0.641989 -0.493477
-0.691674 0.579750 -0.500820
-0.692750 0.575961 -0.468231
-0.734810 0.576630 -0.468554
-0.733348 0.580014 -0.500478
-0.690978 0.642036 -0.493867
-0.692054 0.638248 -0.461278
-0.734114 0.638917 -0.461601
-0.732652 0.642301 -0.493525
-0.732661 0.579939 -0.499712
-0.734123 0.576554 -0.467787
-0.775769 0.576654 -0.467942
-0.774089 0.578809 -0.499381
-0.733423 0.642376 -0.494291
-0.734885 0.638992 -0.462367
-0.776531 0.639092 -0.462521
-0.774851 0.641247 -0.493960
-0.760290 0.582287 -0.499972
-0.761970 0.580132 -0.468533
-0.796920 0.559749 -0.468408
-0.795605 0.566683 -0.500420
-0.788726 0.637751 -0.493370
-0.790407 0.635596 -0.461931
-0.825357 0.615213 -0.461806
-0.824042 0.622146 -0.493818
-0.788697 0.571641 -0.501220
-0.790012 0.564708 -0.469208
-0.820816 0.536081 -0.469674
-0.819365 0.543464 -0.502817
-0.831016 0.617141 -0.493019
-0.832331 0.610208 -0.461007
-0.863136 0.581581 -0.461473
-0.861685 0.588964 -0.494616
-0.826655 0.538472 -0.503239
-0.828106 0.531088 -0.470097
-0.864835 0.513873 -0.469846
-0.861929 0.519444 -0.502710
-0.854462 0.593910 -0.494194
-0.855913 0.586527 -0.461052
-0.892642 0.569311 -0.460801
-0.889736 0.574883 -0.493665
-0.873739 0.516096 -0.501793
-0.876646 0.510524 -0.468929
-0.908786 0.508339 -0.455700
-0.907643 0.512203 -0.501650
-0.877995 0.578210 -0.494575
-0.880901 0.572639 -0.461711
-0.913042 0.570453 -0.448483
-0.911898 0.574317 -0.494432
-0.910068 0.512025 -0.500585
-0.911211 0.508161 -0.454635
-0.945580 0.508357 -0.451943
-0.944551 0.512227 -0.501039
-0.909541 0.574492 -0.495490
-0.910684 0.570628 -0.449540
-0.945053 0.570825 -0.446848
-0.944024 0.574695 -0.495944
-0.945040 0.512224 -0.500906
-0.946068 0.508354 -0.451810
-0.980877 0.509205 -0.451214
-0.979536 0.512963 -0.501484
-0.943605 0.574698 -0.496075
-0.944634 0.570829 -0.446980
-0.979442 0.571679 -0.446383
-0.978102 0.575438 -0.496654
-0.979546 0.512956 -0.501385
-0.980886 0.509197 -0.451114
-1.015691 0.509987 -0.450520
-1.014049 0.513701 -0.501959
-0.978162 0.575447 -0.496753
-0.979502 0.571688 -0.446482
-1.014306 0.572477 -0.445888
-1.012665 0.576191 -0.497327
-0.649853 0.610818 -0.529052
-0.691527 0.611086 -0.528697
-0.690514 0.637051 -0.528586
-0.649377 0.636470 -0.528880
-0.649366 0.610460 -0.466377
-0.691040 0.610729 -0.466023
-0.690027 0.636693 -0.465911
-0.648890 0.636112 -0.466205
-0.691574 0.611041 -0.528697
-0.733248 0.611305 -0.528355
-0.731733 0.637677 -0.528264
-0.690561 0.637005 -0.528586
-0.691076 0.610775 -0.466022
-0.732750 0.611040 -0.465680
-0.731235 0.637411 -0.465590
-0.690063 0.636739 -0.465911
-0.733270 0.611256 -0.528355
-0.774697 0.610127 -0.528024
-0.772772 0.637329 -0.527997
-0.731754 0.637627 -0.528264
-0.732811 0.611089 -0.465680
-0.774239 0.609959 -0.465349
-0.772314 0.637161 -0.465321
-0.731296 0.637460 -0.465589
-0.774086 0.610018 -0.528022
-0.809401 0.594413 -0.528470
-0.808509 0.625385 -0.528493
-0.772161 0.637220 -0.527995
-0.774928 0.610054 -0.465351
-0.810243 0.594449 -0.465799
-0.809350 0.625421 -0.465822
-0.773003 0.637256 -0.465323
-0.808509 0.594526 -0.528445
-0.839177 0.566349 -0.530042
-0.839561 0.600409 -0.529759
-0.807616 0.625497 -0.528468
-0.811203 0.594297 -0.465826
-0.841871 0.566120 -0.467423
-0.842255 0.600180 -0.467140
-0.810310 0.625268 -0.465849
-0.841243 0.566517 -0.530063
-0.876517 0.547489 -0.529534
-0.877799 0.582902 -0.529104
-0.841627 0.600577 -0.529780
-0.839873 0.565906 -0.467403
-0.875147 0.546879 -0.466874
-0.876429 0.582292 -0.466444
-0.840256 0.599967 -0.467120
-0.875878 0.547412 -0.529542
-0.909782 0.543519 -0.529398
-0.910817 0.580042 -0.529281
-0.877160 0.582825 -0.529112
-0.875855 0.546935 -0.466866
-0.909759 0.543042 -0.466723
-0.910794 0.579565 -0.466605
-0.877137 0.582348 -0.466436
-0.909415 0.543414 -0.529397
-0.943898 0.543616 -0.529851
-0.944543 0.580516 -0.529673
-0.910450 0.579937 -0.529279
-0.910193 0.543144 -0.466725
-0.944677 0.543346 -0.467179
-0.945322 0.580246 -0.467002
-0.911229 0.579667 -0.466607
-0.943838 0.543683 -0.529850
-0.978335 0.544423 -0.530428
-0.978562 0.581522 -0.530143
-0.944482 0.580583 -0.529672
-0.944806 0.543280 -0.467181
-0.979303 0.544019 -0.467760
-0.979530 0.581119 -0.467474
-0.945451 0.580180 -0.467004
-0.978372 0.544509 -0.530428
-1.012875 0.545254 -0.531002
-1.012646 0.582484 -0.530606
-0.978599 0.581609 -0.530143
-0.979334 0.543935 -0.467761
-1.013837 0.544679 -0.468335
-1.013609 0.581909 -0.467939
-0.979561 0.581034 -0.467475
-0.649315 0.636579 -0.528879
-0.690452 0.637160 -0.528585
-0.689142 0.666426 -0.528399
-0.648828 0.666227 -0.528587
-0.648949 0.636059 -0.466205
-0.690086 0.636639 -0.465911
-0.688776 0.665905 -0.465725
-0.648462 0.665706 -0.465913
-0.690492 0.637023 -0.528586
-0.731664 0.637694 -0.528265
-0.729459 0.666396 -0.528245
-0.689181 0.666289 -0.528399
-0.690128 0.636777 -0.465910
-0.731301 0.637448 -0.465589
-0.729095 0.666150 -0.465569
-0.688818 0.666043 -0.465723
-0.731685 0.637546 -0.528265
-0.772703 0.637247 -0.527997
-0.769667 0.665925 -0.528091
-0.729480 0.666247 -0.528245
-0.731361 0.637597 -0.465589
-0.772379 0.637298 -0.465321
-0.769343 0.665976 -0.465415
-0.729156 0.666299 -0.465568
-0.772012 0.637028 -0.527992
-0.808360 0.625193 -0.528490
-0.807098 0.656990 -0.528780
-0.768976 0.665706 -0.528086
-0.773148 0.637507 -0.465327
-0.809496 0.625672 -0.465825
-0.808233 0.657469 -0.466115
-0.770112 0.666185 -0.465421
-0.807943 0.625371 -0.528481
-0.839888 0.600283 -0.529772
-0.840867 0.632046 -0.529562
-0.806681 0.657168 -0.528770
-0.809983 0.625459 -0.465837
-0.841928 0.600371 -0.467128
-0.842907 0.632135 -0.466918
-0.808721 0.657256 -0.466126
-0.841790 0.600615 -0.529775
-0.877963 0.582940 -0.529099
-0.880418 0.621021 -0.528530
-0.842769 0.632378 -0.529566
-0.840096 0.600000 -0.467124
-0.876268 0.582325 -0.466448
-0.878724 0.620406 -0.465879
-0.841075 0.631763 -0.466915
-0.876733 0.582871 -0.529108
-0.910390 0.580088 -0.529278
-0.912332 0.618896 -0.529298
-0.879189 0.620953 -0.528539
-0.877568 0.582376 -0.466439
-0.911224 0.579593 -0.466608
-0.913166 0.618401 -0.466628
-0.880024 0.620458 -0.465870
-0.910513 0.579870 -0.529280
-0.944606 0.580449 -0.529674
-0.945780 0.618759 -0.529611
-0.912455 0.618678 -0.529300
-0.911169 0.579809 -0.466606
-0.945262 0.580388 -0.467001
-0.946436 0.618697 -0.466937
-0.913111 0.618617 -0.466627
-0.944601 0.580544 -0.529674
-0.978681 0.581484 -0.530145
-0.979129 0.619190 -0.529922
-0.945776 0.618854 -0.529611
-0.945333 0.580293 -0.467002
-0.979412 0.581233 -0.467472
-0.979861 0.618939 -0.467250
-0.946508 0.618603 -0.466938
-0.978717 0.581611 -0.530144
-1.012764 0.582486 -0.530608
-1.012550 0.619712 -0.530230
-0.979165 0.619317 -0.529922
-0.979444 0.581107 -0.467473
-1.013491 0.581982 -0.467937
-1.013276 0.619208 -0.467559
-0.979892 0.618813 -0.467251
-0.648739 0.666231 -0.528587
-0.689052 0.666429 -0.528399
-0.688039 0.692395 -0.528272
-0.648260 0.691880 -0.528330
-0.648550 0.665758 -0.465912
-0.688864 0.665956 -0.465724
-0.687850 0.691922 -0.465596
-0.648072 0.691407 -0.465654
-0.689095 0.666315 -0.528399
-0.729373 0.666422 -0.528245
-0.727859 0.692792 -0.528177
-0.688081 0.692281 -0.528272
-0.688901 0.666071 -0.465723
-0.729179 0.666179 -0.465568
-0.727665 0.692548 -0.465500
-0.687888 0.692037 -0.465596
-0.729408 0.666345 -0.528245
-0.769595 0.666023 -0.528092
-0.767670 0.693227 -0.528094
-0.727895 0.692714 -0.528177
-0.729223 0.666256 -0.465568
-0.769411 0.665934 -0.465415
-0.767486 0.693138 -0.465417
-0.727710 0.692626 -0.465500
-0.768932 0.665898 -0.528086
-0.807054 0.657183 -0.528780
-0.806156 0.689151 -0.528868
-0.767007 0.693103 -0.528089
-0.770152 0.666052 -0.465421
-0.808274 0.657336 -0.466115
-0.807376 0.689304 -0.466202
-0.768227 0.693256 -0.465423
-0.807099 0.657261 -0.528781
-0.841286 0.632139 -0.529573
-0.841677 0.663205 -0.529441
-0.806201 0.689229 -0.528869
-0.808302 0.657226 -0.466116
-0.842488 0.632105 -0.466907
-0.842879 0.663171 -0.466776
-0.807404 0.689195 -0.466203
-0.842927 0.632319 -0.529562
-0.880576 0.620962 -0.528526
-0.881857 0.656376 -0.528149
-0.843319 0.663385 -0.529430
-0.840919 0.631891 -0.466918
-0.878569 0.620533 -0.465882
-0.879850 0.655947 -0.465506
-0.841311 0.662956 -0.466787
-0.878759 0.620969 -0.528530
-0.911901 0.618913 -0.529289
-0.912936 0.655432 -0.529208
-0.880040 0.656383 -0.528154
-0.880458 0.620515 -0.465878
-0.913600 0.618459 -0.466637
-0.914635 0.654978 -0.466555
-0.881739 0.655929 -0.465501
-0.912518 0.618787 -0.529301
-0.945844 0.618867 -0.529611
-0.946489 0.655774 -0.529469
-0.913553 0.655306 -0.529219
-0.913049 0.618584 -0.466626
-0.946375 0.618664 -0.466937
-0.947021 0.655570 -0.466794
-0.914084 0.655103 -0.466545
-0.945901 0.618940 -0.529612
-0.979254 0.619276 -0.529923
-0.979481 0.656368 -0.529663
-0.946547 0.655846 -0.529469
-0.946384 0.618592 -0.466937
-0.979736 0.618928 -0.467249
-0.979963 0.656020 -0.466988
-0.947029 0.655498 -0.466794
-0.979285 0.619368 -0.529923
-1.012670 0.619763 -0.530231
-1.012442 0.657002 -0.529861
-0.979512 0.656460 -0.529662
-0.979772 0.618837 -0.467250
-1.013156 0.619231 -0.467558
-1.012929 0.656470 -0.467188
-0.979999 0.655928 -0.466989
-1.012660 0.692623 -0.451407
-0.978335 0.692519 -0.451341
-0.979444 0.687403 -0.501353
-1.012374 0.687945 -0.501552
-1.013283 0.630247 -0.445302
-0.978958 0.630143 -0.445236
-0.980067 0.625027 -0.495248
-1.012997 0.625569 -0.495447
-0.978302 0.692491 -0.451616
-0.943983 0.692369 -0.451551
-0.946477 0.686853 -0.501434
-0.979411 0.687375 -0.501628
-0.978924 0.630171 -0.444961
-0.944604 0.630049 -0.444896
-0.947098 0.624533 -0.494779
-0.980032 0.625055 -0.494973
-0.943971 0.692342 -0.451799
-0.909657 0.692210 -0.451819
-0.913528 0.686359 -0.501432
-0.946464 0.686826 -0.501682
-0.944549 0.630076 -0.444648
-0.910236 0.629945 -0.444668
-0.914107 0.624093 -0.494282
-0.947043 0.624560 -0.494531
-0.910083 0.692247 -0.451491
-0.875821 0.691568 -0.453441
-0.881057 0.687346 -0.500050
-0.913953 0.686395 -0.501104
-0.909743 0.629908 -0.444997
-0.875481 0.629229 -0.446947
-0.880718 0.625007 -0.493556
-0.913614 0.624056 -0.494610
-0.883485 0.690509 -0.453918
-0.857690 0.697769 -0.473211
-0.850183 0.693296 -0.501808
-0.888721 0.686287 -0.500527
-0.867751 0.630296 -0.446481
-0.841956 0.637556 -0.465774
-0.834449 0.633083 -0.494371
-0.872988 0.626074 -0.493090
-0.867515 0.692123 -0.477889
-0.832406 0.717330 -0.478334
-0.824532 0.713673 -0.505913
-0.860008 0.687650 -0.506486
-0.832064 0.643236 -0.461107
-0.796954 0.668442 -0.461552
-0.789080 0.664786 -0.489131
-0.824556 0.638762 -0.489703
-0.816425 0.724064 -0.472728
-0.775743 0.724765 -0.472552
-0.769403 0.724359 -0.499528
-0.808551 0.720407 -0.500307
-0.812859 0.661736 -0.467158
-0.772177 0.662437 -0.466982
-0.765837 0.662032 -0.493957
-0.804985 0.658080 -0.494736
-0.773308 0.724934 -0.469788
-0.731248 0.723849 -0.470080
-0.727192 0.724016 -0.496846
-0.766968 0.724529 -0.496763
-0.774531 0.662269 -0.469746
-0.732471 0.661184 -0.470038
-0.728416 0.661351 -0.496804
-0.768191 0.661863 -0.496721
-0.732424 0.723819 -0.471448
-0.690361 0.725898 -0.471678
-0.688591 0.723474 -0.498309
-0.728368 0.723985 -0.498214
-0.731213 0.661215 -0.468670
-0.689151 0.663294 -0.468900
-0.687380 0.660870 -0.495531
-0.727158 0.661381 -0.495436
-0.689392 0.725795 -0.473222
-0.647334 0.725436 -0.473467
-0.647844 0.722857 -0.499911
-0.687622 0.723372 -0.499853
-0.690037 0.663397 -0.467356
-0.647979 0.663037 -0.467601
-0.648489 0.660458 -0.494046
-0.688267 0.660973 -0.493988
