3.097241 0.351467 0.531950
3.101011 0.354535 0.547991
3.145435 0.308377 0.550774
3.140461 0.304311 0.534148
3.124719 0.296775 0.536539
3.128489 0.299843 0.552580
3.103034 0.355445 0.547812
3.099264 0.352377 0.531771
3.082764 0.345835 0.533885
3.085355 0.348138 0.549111
3.126433 0.298918 0.552763
3.122663 0.295850 0.536722
3.106162 0.289307 0.538835
3.108753 0.291611 0.554062
3.089079 0.349362 0.548648
3.086488 0.347059 0.533422
3.069265 0.342703 0.535475
3.070622 0.344510 0.550801
3.104994 0.290375 0.554528
3.102403 0.288072 0.539302
3.085180 0.283716 0.541355
3.086537 0.285523 0.556681
3.071729 0.344893 0.552226
3.070372 0.343086 0.536900
3.053243 0.339977 0.538659
3.053441 0.340107 0.554471
3.085394 0.285132 0.555260
3.084037 0.283325 0.539934
3.066908 0.280216 0.541693
3.067106 0.280345 0.557505
3.131111 0.368419 0.532156
3.123162 0.364844 0.513916
3.108485 0.358943 0.518900
3.114079 0.359573 0.533480
3.156418 0.312597 0.528866
3.148469 0.309022 0.510626
3.133792 0.303121 0.515610
3.139386 0.303751 0.530190
3.114631 0.359560 0.535966
3.109037 0.358930 0.521386
3.094366 0.352402 0.525024
3.098889 0.352025 0.538357
3.138804 0.303750 0.527711
3.133210 0.303119 0.513130
3.118539 0.296591 0.516768
3.123062 0.296214 0.530102
3.099285 0.352270 0.537793
3.094763 0.352647 0.524460
3.080100 0.345731 0.526602
3.082785 0.345727 0.539907
3.122635 0.295955 0.530671
3.118112 0.296332 0.517337
3.103450 0.289415 0.519479
3.106135 0.289412 0.532784
3.086981 0.347301 0.537722
3.084296 0.347304 0.524417
3.068249 0.343185 0.525067
3.069758 0.342945 0.539776
3.101906 0.287828 0.534972
3.099221 0.287831 0.521667
3.083174 0.283712 0.522317
3.084683 0.283472 0.537025
3.070699 0.343197 0.538330
3.069191 0.343437 0.523621
3.054714 0.339693 0.522822
3.053570 0.340088 0.540089
3.083708 0.283213 0.538473
3.082200 0.283453 0.523764
3.067723 0.279709 0.522965
3.066579 0.280104 0.540232
3.141364 0.377795 0.553709
3.139672 0.371469 0.546906
3.121817 0.361935 0.550716
3.123606 0.367313 0.556893
3.171822 0.334415 0.584658
3.170130 0.328089 0.577855
3.152275 0.318555 0.581664
3.154064 0.323933 0.587842
3.124570 0.368697 0.558017
3.122782 0.363319 0.551840
3.104650 0.354024 0.554192
3.106531 0.358549 0.560299
3.153063 0.322529 0.586723
3.151275 0.317152 0.580546
3.133143 0.307857 0.582897
3.135024 0.312381 0.589005
3.109401 0.360384 0.560816
3.107521 0.355859 0.554709
3.088605 0.347834 0.555279
3.090505 0.351779 0.561326
3.132117 0.310529 0.588490
3.130236 0.306004 0.582382
3.111321 0.297980 0.582952
3.113220 0.301924 0.589000
3.094822 0.351578 0.558406
3.092923 0.347634 0.552359
3.073101 0.342211 0.553681
3.074465 0.347079 0.559274
3.108863 0.302112 0.591921
3.106964 0.298167 0.585874
3.087142 0.292745 0.587196
3.088506 0.297613 0.592789
3.074948 0.344266 0.555571
3.073584 0.339398 0.549979
3.053871 0.334008 0.551293
3.054590 0.339769 0.556427
3.087982 0.300416 0.596493
3.086619 0.295548 0.590901
3.066906 0.290158 0.592215
3.067625 0.295919 0.597349
3.136449 0.493761 0.544633
3.138748 0.477038 0.544264
3.125144 0.471817 0.546065
3.122993 0.486287 0.545911
3.143140 0.494298 0.605643
3.145439 0.477575 0.605275
3.131834 0.472354 0.607076
3.129683 0.486824 0.606921
3.137843 0.477554 0.544377
3.140593 0.454914 0.543737
3.126287 0.448311 0.545737
3.124239 0.472333 0.546178
3.146349 0.477020 0.605161
3.149098 0.454379 0.604521
3.134793 0.447777 0.606521
3.132744 0.471799 0.606962
3.140333 0.454951 0.543775
3.143239 0.435325 0.543075
3.127915 0.428859 0.545342
3.126028 0.448348 0.545775
3.149362 0.454300 0.604482
3.152268 0.434674 0.603783
3.136944 0.428208 0.606049
3.135057 0.447697 0.606482
3.142845 0.435312 0.543137
3.144813 0.415576 0.542454
3.129042 0.407238 0.545066
3.127522 0.428846 0.545403
3.152666 0.434647 0.603721
3.154633 0.414911 0.603039
3.138863 0.406573 0.605650
3.137342 0.428181 0.605987
3.144277 0.415527 0.542546
3.146049 0.395767 0.541877
3.130014 0.385695 0.544817
3.128506 0.407190 0.545157
3.155173 0.414918 0.602946
3.156945 0.395157 0.602278
3.140910 0.385085 0.605218
3.139402 0.406580 0.605558
3.145264 0.396674 0.542052
3.147640 0.376968 0.540774
3.130885 0.366672 0.543808
3.129229 0.386601 0.544993
3.157734 0.394211 0.602101
3.160109 0.374505 0.600822
3.143355 0.364209 0.603856
3.141698 0.384138 0.605041
3.147502 0.377336 0.540821
3.150218 0.357737 0.539211
3.132460 0.347255 0.542395
3.130747 0.367040 0.543854
3.160252 0.374097 0.600773
3.162968 0.354499 0.599163
3.145209 0.344017 0.602347
3.143497 0.363802 0.603807
3.123851 0.485291 0.545854
3.126002 0.470821 0.546009
3.112392 0.464500 0.547637
3.109553 0.477486 0.547065
3.128798 0.487807 0.606981
3.130949 0.473336 0.607136
3.117339 0.467016 0.608764
3.114500 0.480001 0.608193
3.124652 0.472236 0.546123
3.126701 0.448214 0.545681
3.112279 0.441123 0.547497
3.111043 0.465915 0.547751
3.132302 0.471884 0.607022
3.134351 0.447862 0.606580
3.119929 0.440771 0.608396
3.118692 0.465563 0.608650
3.126464 0.448187 0.545712
3.128351 0.428698 0.545279
3.113223 0.420824 0.547327
3.112042 0.441097 0.547528
3.134591 0.447844 0.606549
3.136478 0.428355 0.606116
3.121350 0.420481 0.608164
3.120169 0.440754 0.608365
3.128130 0.428586 0.545309
3.129651 0.406978 0.544972
3.114365 0.397852 0.547169
3.113002 0.420713 0.547356
3.136703 0.428424 0.606086
3.138223 0.406817 0.605748
3.122937 0.397690 0.607945
3.121574 0.420551 0.608133
3.129405 0.406944 0.545007
3.130913 0.385449 0.544668
3.115491 0.374848 0.547012
3.114119 0.397818 0.547204
3.138472 0.406806 0.605712
3.139980 0.385311 0.605373
3.124558 0.374710 0.607717
3.123186 0.397680 0.607909
3.130093 0.386975 0.544844
3.131750 0.367046 0.543659
3.115158 0.356728 0.545874
3.114672 0.376374 0.547189
3.140801 0.383743 0.605195
3.142458 0.363814 0.604010
3.125866 0.353497 0.606225
3.125380 0.373142 0.607540
3.132041 0.367343 0.543626
3.133753 0.347558 0.542167
3.115714 0.337410 0.544449
3.115449 0.357025 0.545842
3.142169 0.363478 0.604040
3.143882 0.343693 0.602581
3.125842 0.333545 0.604862
3.125578 0.353160 0.606255
3.112651 0.477318 0.546980
3.115489 0.464333 0.547551
3.101510 0.454530 0.547802
3.098217 0.470654 0.546899
3.111375 0.480153 0.608280
3.114213 0.467168 0.608851
3.100234 0.457365 0.609102
3.096941 0.473488 0.608199
3.113851 0.465746 0.547528
3.115087 0.440954 0.547275
3.101197 0.431937 0.547926
3.099872 0.455943 0.547779
3.115856 0.465716 0.608874
3.117092 0.440924 0.608621
3.103201 0.431908 0.609272
3.101877 0.455914 0.609125
3.114473 0.441070 0.547301
3.115655 0.420798 0.547100
3.101854 0.410767 0.547815
3.100582 0.432054 0.547952
3.117709 0.440763 0.608594
3.118890 0.420490 0.608393
3.105089 0.410459 0.609108
3.103818 0.431746 0.609245
3.115688 0.420905 0.547099
3.117050 0.398045 0.546911
3.103072 0.387941 0.547448
3.101887 0.410874 0.547814
3.118859 0.420340 0.608393
3.120222 0.397479 0.608205
3.106243 0.387376 0.608742
3.105059 0.410308 0.609108
3.117521 0.398143 0.546892
3.118893 0.375173 0.546700
3.104195 0.365610 0.546948
3.103542 0.388040 0.547428
3.119754 0.397335 0.608224
3.121126 0.374365 0.608033
3.106427 0.364801 0.608281
3.105775 0.387232 0.608761
3.118235 0.376813 0.546797
3.118722 0.357168 0.545483
3.101782 0.347700 0.545786
3.103536 0.367249 0.547045
3.121785 0.372683 0.607934
3.122271 0.353037 0.606619
3.105331 0.343570 0.606922
3.107086 0.363119 0.608182
3.118734 0.357203 0.545484
3.118998 0.337588 0.544092
3.100102 0.328983 0.544601
3.101794 0.347735 0.545787
3.122258 0.352963 0.606615
3.122522 0.333348 0.605222
3.103626 0.324744 0.605732
3.105318 0.343496 0.606918
3.096985 0.470805 0.546892
3.100278 0.454682 0.547794
3.085147 0.447319 0.548080
3.083864 0.465685 0.547653
3.098145 0.473322 0.608207
3.101438 0.457199 0.609110
3.086307 0.449836 0.609395
3.085024 0.468202 0.608969
3.100552 0.455872 0.547765
3.101877 0.431866 0.547911
3.086262 0.424722 0.547956
3.085421 0.448510 0.548050
3.101167 0.455968 0.609140
3.102492 0.431962 0.609287
3.086877 0.424818 0.609332
3.086036 0.448605 0.609426
3.102021 0.432090 0.547911
3.103292 0.410803 0.547774
3.086068 0.403834 0.547813
3.086406 0.424946 0.547956
3.102349 0.431693 0.609287
3.103621 0.410406 0.609150
3.086396 0.403436 0.609189
3.086734 0.424549 0.609332
3.103095 0.410946 0.547777
3.104280 0.388013 0.547410
3.085017 0.382394 0.547652
3.085870 0.403976 0.547816
3.103819 0.410220 0.609147
3.105003 0.387288 0.608780
3.085741 0.381669 0.609022
3.086594 0.403251 0.609186
3.104046 0.388241 0.547418
3.104698 0.365810 0.546937
3.083730 0.361495 0.547278
3.084783 0.382622 0.547660
3.105237 0.387016 0.608772
3.105889 0.364585 0.608292
3.084921 0.360270 0.608633
3.085975 0.381397 0.609014
3.104207 0.367024 0.547000
3.102453 0.347475 0.545740
3.081763 0.342650 0.546325
3.083239 0.362709 0.547340
3.106378 0.363330 0.608228
3.104624 0.343780 0.606969
3.083934 0.338955 0.607553
3.085410 0.359015 0.608569
3.102036 0.347451 0.545756
3.100343 0.328699 0.544570
3.079986 0.324200 0.545437
3.081346 0.342626 0.546341
3.105038 0.343766 0.606950
3.103345 0.325014 0.605764
3.082988 0.320515 0.606632
3.084347 0.338941 0.607535
3.083484 0.466759 0.547637
3.084768 0.448394 0.548064
3.069779 0.440970 0.548209
3.069097 0.461146 0.548473
3.085374 0.467115 0.608986
3.086658 0.448749 0.609412
3.071670 0.441326 0.609557
3.070987 0.461502 0.609821
3.085491 0.448783 0.548050
3.086331 0.424995 0.547957
3.071042 0.417827 0.547921
3.070502 0.441359 0.548196
3.085936 0.448317 0.609426
3.086777 0.424530 0.609332
3.071487 0.417361 0.609296
3.070948 0.440894 0.609571
3.086440 0.424854 0.547955
3.086102 0.403742 0.547812
3.068607 0.397221 0.547919
3.071151 0.417685 0.547919
3.086667 0.424627 0.609333
3.086329 0.403515 0.609190
3.068834 0.396994 0.609297
3.071378 0.417458 0.609297
3.085836 0.403740 0.547815
3.084983 0.382158 0.547651
3.065530 0.376866 0.547949
3.068341 0.397219 0.547921
3.086592 0.403475 0.609188
3.085739 0.381893 0.609024
3.066286 0.376601 0.609322
3.069097 0.396954 0.609294
3.084705 0.382561 0.547660
3.083652 0.361434 0.547278
3.063020 0.356877 0.547656
3.065252 0.377269 0.547958
3.086012 0.381448 0.609015
3.084959 0.360321 0.608633
3.064327 0.355764 0.609011
3.066560 0.376156 0.609312
3.083234 0.362288 0.547318
3.081757 0.342229 0.546302
3.061236 0.337246 0.546917
3.062602 0.357731 0.547696
3.085374 0.359426 0.608592
3.083898 0.339367 0.607577
3.063376 0.334384 0.608191
3.064742 0.354869 0.608970
3.081396 0.342198 0.546315
3.080036 0.323771 0.545412
3.059679 0.319275 0.546268
3.060875 0.337214 0.546930
3.084256 0.339360 0.607562
3.082896 0.320934 0.606658
3.062539 0.316437 0.607514
3.063735 0.334377 0.608176
3.059935 0.336877 0.552844
3.059216 0.331117 0.547710
3.037146 0.330717 0.549058
3.037681 0.337188 0.553548
3.062237 0.298806 0.600933
3.061518 0.293045 0.595800
3.039448 0.292646 0.597147
3.039983 0.299117 0.601638
3.037571 0.334177 0.551450
3.037035 0.327705 0.546959
3.014967 0.327302 0.548307
3.015315 0.334489 0.552147
3.040049 0.302128 0.603738
3.039513 0.295657 0.599248
3.017445 0.295253 0.600595
3.017793 0.302441 0.604435
3.015229 0.331450 0.550515
3.014881 0.324262 0.546676
2.992808 0.323863 0.548021
2.992976 0.331763 0.551210
3.017835 0.305481 0.606068
3.017487 0.298293 0.602229
2.995415 0.297894 0.603573
2.995582 0.305793 0.606763
2.994288 0.330420 0.550591
2.994120 0.322520 0.547402
2.975151 0.322884 0.547482
2.976310 0.330501 0.550656
2.994230 0.307136 0.607382
2.994062 0.299236 0.604193
2.975093 0.299600 0.604273
2.976253 0.307217 0.607447
2.976299 0.330804 0.550782
2.975140 0.323188 0.547609
2.956171 0.323548 0.547691
2.958319 0.330883 0.550839
2.976227 0.306914 0.607321
2.975067 0.299297 0.604147
2.956098 0.299658 0.604229
2.958247 0.306992 0.607377
2.958322 0.331191 0.550971
2.956174 0.323857 0.547823
2.937201 0.324223 0.547893
2.940347 0.331273 0.551020
2.958207 0.306684 0.607245
2.956059 0.299350 0.604097
2.937086 0.299716 0.604167
2.940232 0.306765 0.607294
3.179303 0.499731 0.523234
3.179171 0.482295 0.523937
3.162174 0.480784 0.533675
3.161515 0.499794 0.533483
3.209814 0.501480 0.576463
3.209682 0.484044 0.577167
3.192686 0.482533 0.586904
3.192026 0.501543 0.586712
3.178981 0.483285 0.524033
3.179924 0.465980 0.523241
3.163702 0.463017 0.532830
3.161985 0.481774 0.533771
3.209874 0.483017 0.577070
3.210817 0.465711 0.576278
3.194595 0.462749 0.585867
3.192877 0.481506 0.586808
3.179394 0.466245 0.523560
3.180797 0.448908 0.522170
3.165278 0.444542 0.531823
3.163172 0.463283 0.533149
3.211351 0.465409 0.575957
3.212754 0.448072 0.574567
3.197235 0.443706 0.584220
3.195128 0.462447 0.585546
3.180241 0.448789 0.522516
3.181398 0.431448 0.521344
3.166468 0.426777 0.531057
3.164723 0.444422 0.532169
3.213313 0.448157 0.574218
3.214469 0.430816 0.573047
3.199540 0.426145 0.582760
3.197794 0.443791 0.583872
3.180931 0.431306 0.521647
3.181899 0.413910 0.520683
3.167592 0.409153 0.530359
3.166002 0.426635 0.531360
3.214939 0.430923 0.572742
3.215907 0.413527 0.571778
3.201600 0.408770 0.581454
3.200009 0.426252 0.582455
3.181322 0.414364 0.521085
3.182756 0.397054 0.519422
3.168471 0.391470 0.529467
3.167015 0.409607 0.530760
3.216487 0.413037 0.571374
3.217921 0.395727 0.569712
3.203635 0.390143 0.579757
3.202180 0.408281 0.581050
3.182265 0.397153 0.519776
3.183899 0.379808 0.517843
3.169380 0.372965 0.528410
3.167980 0.391569 0.529821
3.218415 0.395593 0.569355
3.220049 0.378248 0.567422
3.205529 0.371405 0.577989
3.204129 0.390009 0.579400
3.162722 0.500057 0.532820
3.163381 0.481047 0.533012
3.146307 0.478721 0.541738
3.144715 0.499061 0.542208
3.190785 0.501277 0.587394
3.191444 0.482267 0.587586
3.174371 0.479941 0.596312
3.172779 0.500281 0.596781
3.163317 0.481553 0.533038
3.165035 0.462796 0.532098
3.148666 0.459343 0.540684
3.146244 0.479227 0.541764
3.191511 0.481722 0.587558
3.193228 0.462965 0.586618
3.176859 0.459513 0.595204
3.174437 0.479396 0.596284
3.164626 0.462862 0.532313
3.166733 0.444121 0.530987
3.150936 0.439638 0.539657
3.148257 0.459409 0.540899
3.193642 0.462861 0.586400
3.195749 0.444120 0.585074
3.179952 0.439637 0.593744
3.177273 0.459408 0.594986
3.166317 0.444138 0.531214
3.168063 0.426492 0.530102
3.152552 0.421467 0.538846
3.150520 0.439655 0.539885
3.196169 0.444066 0.584844
3.197915 0.426421 0.583732
3.182404 0.421395 0.592476
3.180372 0.439583 0.593515
3.167806 0.426456 0.530247
3.169397 0.408973 0.529246
3.154125 0.403270 0.538021
3.152295 0.421430 0.538991
3.198175 0.426422 0.583586
3.199765 0.408940 0.582585
3.184494 0.403236 0.591360
3.182664 0.421396 0.592330
3.169011 0.409401 0.529473
3.170467 0.391264 0.528180
3.155323 0.384687 0.537101
3.153740 0.403698 0.538248
3.200154 0.408475 0.582356
3.201610 0.390338 0.581063
3.186466 0.383760 0.589984
3.184883 0.402771 0.591131
3.170110 0.391398 0.528396
3.171510 0.372795 0.526985
3.156483 0.365272 0.536060
3.154966 0.384821 0.537317
3.201970 0.390166 0.580844
3.203370 0.371562 0.579433
3.188343 0.364040 0.588508
3.186826 0.383588 0.589765
3.149798 0.499395 0.540142
3.151390 0.479055 0.539673
3.133179 0.477038 0.545406
3.130880 0.493761 0.545775
3.167660 0.499942 0.598862
3.169252 0.479602 0.598392
3.151041 0.477585 0.604126
3.148742 0.494308 0.604494
3.150707 0.479318 0.539888
3.153129 0.459435 0.538807
3.135245 0.454661 0.544981
3.132496 0.477301 0.545621
3.169939 0.479298 0.598175
3.172361 0.459415 0.597095
3.154478 0.454641 0.603269
3.151728 0.477282 0.603909
3.152299 0.459345 0.539095
3.154978 0.439574 0.537853
3.137320 0.434945 0.544569
3.134415 0.454571 0.545269
3.173198 0.459464 0.596806
3.175877 0.439693 0.595564
3.158219 0.435065 0.602280
3.155314 0.454690 0.602979
3.154253 0.439732 0.538126
3.156285 0.421544 0.537087
3.138564 0.415368 0.544160
3.136596 0.435104 0.544842
3.176606 0.439496 0.595289
3.178637 0.421308 0.594251
3.160916 0.415131 0.601323
3.158948 0.434867 0.602006
3.155854 0.421531 0.537260
3.157684 0.403371 0.536290
3.139905 0.395595 0.543664
3.138132 0.415355 0.544332
3.179072 0.421283 0.594077
3.180902 0.403122 0.593107
3.163123 0.395346 0.600481
3.161351 0.415106 0.601149
3.157193 0.403756 0.536500
3.158776 0.384745 0.535353
3.141790 0.376274 0.542596
3.139414 0.395980 0.543874
3.181397 0.402698 0.592895
3.182980 0.383687 0.591748
3.165993 0.375216 0.598991
3.163618 0.394922 0.600269
3.158423 0.384903 0.535511
3.159940 0.365354 0.534253
3.144153 0.356834 0.541144
3.141437 0.376432 0.542753
3.183337 0.383490 0.591588
3.184854 0.363941 0.590330
3.169067 0.355421 0.597221
3.166351 0.375019 0.598830
3.070175 0.461519 0.548459
3.070857 0.441343 0.548195
3.053489 0.441992 0.548252
3.053713 0.461509 0.548242
3.069878 0.461123 0.609835
3.070560 0.440947 0.609572
3.053192 0.441596 0.609629
3.053416 0.461113 0.609619
3.070408 0.441321 0.548196
3.070947 0.417788 0.547921
3.052744 0.416459 0.548209
3.053039 0.441970 0.548253
3.071010 0.440925 0.609570
3.071549 0.417392 0.609295
3.053346 0.416063 0.609583
3.053641 0.441574 0.609627
3.053690 0.461086 0.548242
3.053465 0.441569 0.548252
3.036109 0.441751 0.548303
3.037229 0.461078 0.548034
3.053406 0.461537 0.609619
3.053181 0.442020 0.609628
3.035825 0.442201 0.609679
3.036945 0.461528 0.609410
3.053010 0.441678 0.548253
3.052716 0.416167 0.548209
3.034465 0.416539 0.548518
3.035654 0.441860 0.548304
3.053635 0.441865 0.609628
3.053340 0.416354 0.609584
3.035090 0.416726 0.609893
3.036279 0.442047 0.609679
3.037209 0.460656 0.548040
3.036090 0.441329 0.548309
3.018734 0.441511 0.548360
3.020748 0.460648 0.547832
3.036931 0.461950 0.609404
3.035811 0.442623 0.609673
3.018456 0.442805 0.609724
3.020470 0.461942 0.609196
3.035630 0.441555 0.548306
3.034441 0.416234 0.548521
3.016191 0.416606 0.548833
3.018274 0.441737 0.548357
3.036268 0.442353 0.609677
3.035079 0.417032 0.609891
3.016829 0.417404 0.610203
3.018912 0.442535 0.609727
3.020737 0.460211 0.547844
3.018722 0.441074 0.548372
3.001367 0.441256 0.548423
3.004275 0.460202 0.547628
3.020447 0.462379 0.609184
3.018433 0.443242 0.609712
3.001077 0.443424 0.609762
3.003986 0.462371 0.608967
3.018254 0.441427 0.548363
3.016170 0.416296 0.548839
2.997920 0.416668 0.549148
3.000898 0.441609 0.548414
3.018897 0.442845 0.609722
3.016814 0.417714 0.610197
2.998563 0.418086 0.610507
3.001541 0.443027 0.609773
3.182730 0.398645 0.528983
3.179778 0.392443 0.524159
3.165639 0.385184 0.533722
3.168210 0.391802 0.539550
3.221218 0.359387 0.556275
3.218266 0.353186 0.551451
3.204127 0.345927 0.561014
3.206698 0.352544 0.566842
3.168951 0.392094 0.538962
3.166380 0.385476 0.533134
3.151706 0.377822 0.541379
3.153924 0.384571 0.548037
3.205928 0.352237 0.567448
3.203357 0.345620 0.561621
3.188684 0.337966 0.569865
3.190901 0.344715 0.576523
3.154950 0.385089 0.547488
3.152732 0.378341 0.540830
3.137470 0.370242 0.547576
3.139162 0.376568 0.554378
3.189845 0.344181 0.577088
3.187627 0.337432 0.570430
3.172365 0.329334 0.577176
3.174057 0.335660 0.583978
3.186805 0.474314 0.536065
3.169017 0.474377 0.546314
3.168365 0.478343 0.538749
3.186780 0.478336 0.528762
3.202312 0.526920 0.563624
3.184524 0.526983 0.573873
3.183871 0.530950 0.566308
3.202286 0.530942 0.556321
3.171562 0.473498 0.546833
3.153556 0.472502 0.556220
3.152305 0.476340 0.548544
3.170910 0.477465 0.539268
3.181942 0.527860 0.573374
3.163936 0.526864 0.582761
3.162685 0.530702 0.575085
3.181290 0.531827 0.565809
3.156388 0.476303 0.549755
3.137469 0.470669 0.555387
3.135999 0.478739 0.549286
3.155136 0.480141 0.542078
3.161067 0.523059 0.589243
3.142149 0.517425 0.594875
3.140678 0.525495 0.588774
3.159816 0.526897 0.581566
3.186904 0.479820 0.496251
3.188919 0.477041 0.510912
3.170573 0.476730 0.522369
3.168341 0.477961 0.509385
3.188990 0.540572 0.504742
3.191005 0.537794 0.519404
3.172659 0.537482 0.530860
3.170427 0.538714 0.517877
3.188678 0.476879 0.512397
3.190958 0.475498 0.526070
3.172579 0.475339 0.536807
3.170332 0.476568 0.523853
3.191250 0.537952 0.517947
3.193529 0.536571 0.531620
3.175151 0.536412 0.542357
3.172904 0.537641 0.529403
3.190816 0.475502 0.526098
3.193102 0.474110 0.539771
3.174687 0.474118 0.549758
3.172438 0.475343 0.536835
3.193675 0.536565 0.531619
3.195961 0.535173 0.545292
3.177546 0.535181 0.555279
3.175297 0.536406 0.542356
3.169780 0.477795 0.510664
3.172011 0.476563 0.523648
3.153452 0.475276 0.534221
3.151209 0.476447 0.521949
3.168952 0.538878 0.516622
3.171184 0.537646 0.529605
3.152625 0.536359 0.540179
3.150381 0.537530 0.527907
3.172024 0.476560 0.523681
3.174270 0.475331 0.536636
3.155692 0.474120 0.546538
3.153465 0.475273 0.534255
3.171176 0.537647 0.529596
3.173423 0.536418 0.542550
3.154844 0.535207 0.552453
3.152617 0.536360 0.540170
3.174254 0.475328 0.536670
3.176503 0.474103 0.549593
3.157898 0.472978 0.558869
3.155675 0.474117 0.546573
3.173444 0.536420 0.542541
3.175693 0.535194 0.555464
3.157088 0.534069 0.564739
3.154865 0.535208 0.552443
3.153606 0.476563 0.522070
3.155850 0.475392 0.534342
3.136139 0.473113 0.541431
3.133631 0.473821 0.529083
3.147945 0.537410 0.527805
3.150189 0.536239 0.540077
3.130478 0.533960 0.547166
3.127970 0.534668 0.534818
3.155233 0.475327 0.534491
3.157460 0.474175 0.546774
3.138037 0.472339 0.553930
3.135522 0.473048 0.541580
3.150810 0.536302 0.539952
3.153037 0.535150 0.552234
3.133614 0.533314 0.559390
3.131099 0.534023 0.547041
3.156849 0.474123 0.546924
3.159072 0.472984 0.559220
3.139935 0.471582 0.566428
3.137426 0.472288 0.554080
3.153653 0.535199 0.552109
3.155876 0.534060 0.564405
3.136739 0.532658 0.571613
3.134230 0.533364 0.559265
3.276253 0.503328 0.445402
3.275956 0.488214 0.446338
3.261170 0.487376 0.456127
3.261326 0.502669 0.455357
3.310115 0.505694 0.496539
3.309819 0.490580 0.497476
3.295033 0.489742 0.507265
3.295189 0.505035 0.506495
3.276016 0.489163 0.446273
3.275583 0.474037 0.446737
3.261195 0.473175 0.456164
3.261230 0.488325 0.456062
3.309759 0.489601 0.497542
3.309326 0.474475 0.498006
3.294938 0.473612 0.507433
3.294973 0.488763 0.507331
3.275648 0.474830 0.446700
3.275089 0.459694 0.446746
3.261331 0.458901 0.455708
3.261259 0.473967 0.456127
3.309261 0.473652 0.498043
3.308702 0.458516 0.498089
3.294944 0.457723 0.507051
3.294873 0.472789 0.507470
3.275169 0.459167 0.446687
3.274659 0.444047 0.446994
3.260967 0.443065 0.455870
3.261411 0.458375 0.455649
3.308621 0.459012 0.498148
3.308111 0.443892 0.498455
3.294419 0.442910 0.507331
3.294863 0.458220 0.507110
3.274699 0.443859 0.446968
3.274196 0.428726 0.447353
3.260409 0.427481 0.456285
3.261008 0.442878 0.455844
3.308069 0.444048 0.498482
3.307566 0.428915 0.498867
3.293779 0.427670 0.507800
3.294378 0.443067 0.507358
3.274041 0.428372 0.447457
3.273878 0.413234 0.447681
3.260482 0.412308 0.456629
3.260254 0.427127 0.456390
3.307720 0.429239 0.498763
3.307557 0.414100 0.498987
3.294161 0.413175 0.507935
3.293933 0.427994 0.507696
3.273398 0.413049 0.448006
3.273391 0.397789 0.448140
3.260626 0.397504 0.457110
3.260002 0.412124 0.456954
3.308037 0.414255 0.498662
3.308030 0.398995 0.498796
3.295265 0.398710 0.507766
3.294641 0.413330 0.507610
3.259792 0.502804 0.456435
3.259636 0.487511 0.457205
3.245606 0.487139 0.467788
3.245473 0.502559 0.467228
3.296694 0.504899 0.505437
3.296538 0.489606 0.506207
3.282508 0.489233 0.516790
3.282375 0.504653 0.516230
3.259628 0.488450 0.457189
3.259594 0.473300 0.457291
3.245852 0.472790 0.467620
3.245599 0.488078 0.467772
3.296545 0.488636 0.506224
3.296511 0.473485 0.506326
3.282768 0.472976 0.516655
3.282516 0.488264 0.516807
3.259636 0.474023 0.457267
3.259708 0.458957 0.456848
3.246232 0.458315 0.466914
3.245894 0.473513 0.467597
3.296468 0.472733 0.506349
3.296540 0.457667 0.505930
3.283064 0.457025 0.515996
3.282726 0.472223 0.516679
3.259788 0.458521 0.456781
3.259344 0.443211 0.457002
3.246148 0.442435 0.466797
3.246312 0.457879 0.466846
3.296460 0.458072 0.505997
3.296016 0.442762 0.506218
3.282820 0.441985 0.516013
3.282984 0.457430 0.516063
3.259437 0.443042 0.456931
3.258838 0.427646 0.457373
3.245895 0.426752 0.466895
3.246241 0.442266 0.466726
3.295922 0.442900 0.506289
3.295323 0.427504 0.506730
3.282380 0.426609 0.516252
3.282726 0.442123 0.516084
3.258986 0.426964 0.457272
3.259214 0.412145 0.457511
3.246458 0.411114 0.466800
3.246043 0.426070 0.466793
3.295175 0.428155 0.506832
3.295403 0.413336 0.507071
3.282647 0.412305 0.516361
3.282232 0.427261 0.516354
3.259375 0.411794 0.457405
3.259999 0.397174 0.457561
3.247379 0.396083 0.466638
3.246619 0.410763 0.466694
3.295243 0.413658 0.507177
3.295867 0.399038 0.507333
3.283247 0.397946 0.516410
3.282487 0.412627 0.516467
3.244397 0.502456 0.468081
3.244530 0.487036 0.468641
3.231051 0.487016 0.479839
3.230507 0.502506 0.479455
3.283423 0.504756 0.515399
3.283556 0.489336 0.515959
3.270077 0.489316 0.527157
3.269533 0.504806 0.526773
3.244426 0.488069 0.468700
3.244679 0.472781 0.468548
3.231371 0.472545 0.479618
3.230947 0.488049 0.479898
3.283661 0.488272 0.515900
3.283914 0.472984 0.515749
3.270606 0.472747 0.526819
3.270182 0.488252 0.527098
3.244672 0.473497 0.468562
3.245010 0.458299 0.467879
3.231723 0.457776 0.478916
3.231364 0.473260 0.479632
3.283921 0.472238 0.515734
3.284259 0.457040 0.515051
3.270972 0.456517 0.526089
3.270614 0.472001 0.526804
3.245038 0.457966 0.467849
3.244874 0.442521 0.467800
3.232041 0.441925 0.478422
3.231751 0.457443 0.478887
3.284231 0.457342 0.515080
3.284068 0.441897 0.515031
3.271235 0.441301 0.525653
3.270945 0.456819 0.526118
3.244896 0.442372 0.467780
3.244550 0.426858 0.467948
3.232351 0.426277 0.478049
3.232063 0.441776 0.478403
3.284046 0.442016 0.515050
3.283700 0.426502 0.515218
3.271501 0.425921 0.525319
3.271213 0.441420 0.525672
3.244841 0.426507 0.467710
3.245256 0.411551 0.467717
3.233055 0.410406 0.477336
3.232642 0.425926 0.477811
3.283409 0.426822 0.515457
3.283824 0.411866 0.515464
3.271623 0.410721 0.525083
3.271210 0.426241 0.525558
3.245967 0.411372 0.467161
3.246727 0.396691 0.467105
3.234254 0.394780 0.476285
3.233766 0.410227 0.476780
3.283113 0.412016 0.516019
3.283874 0.397335 0.515962
3.271400 0.395424 0.525143
3.270913 0.410870 0.525638
3.313157 0.503544 0.429778
3.312602 0.492153 0.430777
3.301620 0.487533 0.434730
3.303039 0.503329 0.433027
3.332024 0.507961 0.488018
3.331469 0.496570 0.489016
3.320487 0.491950 0.492970
3.321906 0.507747 0.491267
3.312817 0.492979 0.430657
3.312258 0.481588 0.431642
3.300768 0.472927 0.435394
3.301835 0.488360 0.434611
3.331253 0.495716 0.489138
3.330694 0.484325 0.490123
3.319203 0.475664 0.493875
3.320271 0.491097 0.493091
3.311165 0.483798 0.431990
3.309158 0.464857 0.432053
3.299006 0.460095 0.435625
3.299675 0.475138 0.435742
3.331785 0.482084 0.489776
3.329778 0.463143 0.489839
3.319626 0.458380 0.493411
3.320294 0.473423 0.493528
3.308555 0.464574 0.432268
3.306999 0.445591 0.432277
3.297398 0.444612 0.436101
3.298403 0.459812 0.435840
3.330378 0.463392 0.489624
3.328822 0.444409 0.489632
3.319221 0.443430 0.493457
3.320226 0.458629 0.493196
3.306225 0.445389 0.432580
3.305047 0.426379 0.432678
3.295489 0.429172 0.436768
3.296624 0.444411 0.436405
3.329593 0.444576 0.489330
3.328416 0.425566 0.489428
3.318858 0.428359 0.493518
3.319993 0.443598 0.493155
3.304865 0.425886 0.432750
3.303757 0.411932 0.433340
3.294756 0.413258 0.437020
3.295307 0.428680 0.436841
3.328596 0.426026 0.489356
3.327487 0.412071 0.489945
3.318486 0.413398 0.493625
3.319038 0.428820 0.493446
3.304338 0.411866 0.433103
3.303245 0.397911 0.433721
3.295029 0.397545 0.436844
3.295337 0.413193 0.436783
3.326905 0.412107 0.490182
3.325812 0.398152 0.490800
3.317596 0.397786 0.493923
3.317904 0.413434 0.493862
3.301062 0.503480 0.433731
3.299644 0.487684 0.435435
3.290204 0.487363 0.439253
3.291243 0.503082 0.437690
3.323862 0.507593 0.490570
3.322444 0.491797 0.492273
3.313004 0.491475 0.496091
3.314042 0.507195 0.494529
3.299466 0.489018 0.435441
3.298399 0.473586 0.436225
3.289391 0.473384 0.439935
3.290027 0.488697 0.439260
3.322619 0.490431 0.492268
3.321552 0.474999 0.493052
3.312544 0.474797 0.496762
3.313180 0.490110 0.496087
3.298019 0.474846 0.436380
3.297350 0.459803 0.436263
3.288707 0.459660 0.440014
3.289011 0.474645 0.440090
3.321931 0.473708 0.492897
3.321262 0.458665 0.492781
3.312620 0.458523 0.496531
3.312923 0.473507 0.496607
3.296856 0.459405 0.436472
3.295851 0.444205 0.436733
3.287443 0.444143 0.440548
3.288214 0.459262 0.440222
3.321755 0.459034 0.492572
3.320750 0.443834 0.492833
3.312342 0.443772 0.496649
3.313112 0.458891 0.496323
3.295345 0.444125 0.436962
3.294210 0.428886 0.437326
3.286040 0.428894 0.441230
3.286937 0.444062 0.440778
3.321254 0.443885 0.492604
3.320119 0.428647 0.492968
3.311948 0.428654 0.496872
3.312846 0.443823 0.496420
3.293787 0.428813 0.437527
3.293236 0.413391 0.437706
3.285261 0.413537 0.441621
3.285617 0.428821 0.441430
3.320540 0.428689 0.492768
3.319989 0.413267 0.492947
3.312014 0.413413 0.496863
3.312370 0.428696 0.496671
3.292942 0.413384 0.437850
3.292635 0.397737 0.437911
3.284814 0.398029 0.441855
3.284968 0.413530 0.441766
3.320282 0.413243 0.492803
3.319974 0.397596 0.492864
3.312153 0.397888 0.496808
3.312307 0.413389 0.496719
3.288967 0.503506 0.438684
3.287928 0.487787 0.440247
3.279233 0.487766 0.444470
3.279529 0.502880 0.443533
3.316300 0.506770 0.493544
3.315261 0.491051 0.495106
3.306566 0.491030 0.499330
3.306862 0.506144 0.498393
3.288331 0.488833 0.440008
3.287696 0.473521 0.440683
3.279204 0.473686 0.444695
3.279636 0.488812 0.444231
3.314857 0.489973 0.495347
3.314222 0.474661 0.496022
3.305729 0.474826 0.500034
3.306162 0.489953 0.499570
3.287851 0.474479 0.440606
3.287548 0.459495 0.440530
3.278800 0.459509 0.444664
3.279359 0.474645 0.444618
3.314066 0.473672 0.496099
3.313762 0.458688 0.496023
3.305014 0.458702 0.500157
3.305573 0.473837 0.500112
3.287404 0.459057 0.440595
3.286634 0.443939 0.440921
3.278146 0.443951 0.445037
3.278656 0.459071 0.444729
3.313904 0.459095 0.495958
3.313134 0.443977 0.496284
3.304646 0.443988 0.500400
3.305156 0.459109 0.500092
3.286327 0.443809 0.441070
3.285430 0.428641 0.441522
3.277335 0.428688 0.445571
3.277839 0.443821 0.445186
3.313440 0.444076 0.496135
3.312542 0.428907 0.496587
3.304448 0.428954 0.500636
3.304952 0.444088 0.500251
3.285078 0.428623 0.441698
3.284722 0.413339 0.441889
3.276821 0.413532 0.445971
3.276984 0.428670 0.445747
3.312893 0.428895 0.496412
3.312537 0.413611 0.496603
3.304636 0.413804 0.500684
3.304799 0.428942 0.500460
3.284376 0.413337 0.442068
3.284222 0.397836 0.442157
3.276467 0.398270 0.446283
3.276475 0.413530 0.446149
3.312883 0.413582 0.496424
3.312729 0.398081 0.496513
3.304974 0.398515 0.500640
3.304982 0.413775 0.500506
3.368110 0.425445 0.423072
3.367786 0.411747 0.423172
3.349782 0.412723 0.423918
3.350473 0.427497 0.423741
3.370587 0.425954 0.484399
3.370263 0.412255 0.484499
3.352259 0.413231 0.485244
3.352950 0.428005 0.485068
3.347080 0.427584 0.424066
3.346389 0.412811 0.424243
3.328625 0.412146 0.426957
3.329551 0.426376 0.426729
3.356307 0.427918 0.484746
3.355616 0.413144 0.484923
3.337852 0.412480 0.487637
3.338778 0.426709 0.487409
3.327061 0.426187 0.427214
3.326135 0.411957 0.427443
3.308549 0.411646 0.431781
3.309658 0.425601 0.431191
3.341234 0.426897 0.486930
3.340307 0.412667 0.487158
3.322722 0.412356 0.491496
3.323830 0.426310 0.490907
3.367691 0.411689 0.423177
3.367372 0.397985 0.423296
3.349034 0.397837 0.424123
3.349686 0.412665 0.423922
3.370358 0.412284 0.484495
3.370039 0.398581 0.484613
3.351701 0.398433 0.485441
3.352353 0.413260 0.485240
3.346332 0.412704 0.424252
3.345680 0.397877 0.424453
3.327642 0.397796 0.427257
3.328568 0.412040 0.426967
3.355671 0.413221 0.484914
3.355019 0.398393 0.485114
3.336982 0.398312 0.487918
3.337907 0.412557 0.487628
3.325647 0.411883 0.427564
3.324722 0.397638 0.427854
3.306969 0.397616 0.432519
3.308062 0.411571 0.431901
3.340792 0.412714 0.487039
3.339867 0.398469 0.487329
3.322114 0.398447 0.491994
3.323207 0.412402 0.491376
3.302635 0.423856 0.421531
3.301333 0.425834 0.409918
3.290959 0.426103 0.413924
3.294406 0.423162 0.427128
3.298279 0.363647 0.410428
3.296976 0.365626 0.398815
3.286603 0.365895 0.402821
3.290049 0.362953 0.416025
3.291894 0.423436 0.425924
3.288448 0.426377 0.412719
3.278730 0.424621 0.416652
3.282967 0.423804 0.430310
3.292542 0.362678 0.417238
3.289096 0.365620 0.404034
3.279378 0.363863 0.407967
3.283615 0.363047 0.421625
3.282544 0.424103 0.426333
3.278307 0.424920 0.412675
3.268815 0.423895 0.416004
3.273413 0.424593 0.430353
3.284020 0.362747 0.425610
3.279782 0.363563 0.411952
3.270291 0.362539 0.415280
3.274889 0.363237 0.429629
3.313579 0.421160 0.457300
3.308135 0.422059 0.437016
3.300156 0.422567 0.441584
3.305887 0.421599 0.460609
3.309063 0.359969 0.455677
3.303620 0.360869 0.435392
3.295640 0.361376 0.439961
3.301372 0.360409 0.458986
3.305818 0.421602 0.460693
3.300086 0.422570 0.441668
3.292049 0.423018 0.445995
3.298659 0.421989 0.465127
3.301426 0.360407 0.458910
3.295695 0.361375 0.439886
3.287657 0.361823 0.444212
3.294267 0.360794 0.463344
3.298555 0.421996 0.465128
3.291944 0.423026 0.445996
3.283936 0.423430 0.450261
3.291620 0.422363 0.469597
3.294357 0.360787 0.463351
3.287746 0.361817 0.444219
3.279738 0.362221 0.448484
3.287422 0.361154 0.467820
3.306968 0.422048 0.438492
3.301557 0.424332 0.418303
3.293327 0.423638 0.423901
3.298989 0.422556 0.443061
3.304776 0.360882 0.433877
3.299365 0.363167 0.413688
3.291135 0.362472 0.419285
3.296797 0.361390 0.438445
3.299887 0.422580 0.441786
3.294226 0.423662 0.422626
3.285299 0.424031 0.427012
3.291849 0.423028 0.446113
3.295882 0.361367 0.439729
3.290220 0.362449 0.420569
3.281294 0.362818 0.424955
3.287844 0.361815 0.444056
3.291876 0.423030 0.445999
3.285326 0.424033 0.426898
3.276195 0.424523 0.430918
3.283868 0.423435 0.450263
3.287800 0.361814 0.444179
3.281250 0.362817 0.425078
3.272119 0.363307 0.429098
3.279792 0.362219 0.448443
3.348361 0.420143 0.450242
3.344133 0.418873 0.432168
3.325145 0.419333 0.433401
3.330011 0.420235 0.452560
3.347809 0.358879 0.453951
3.343581 0.357609 0.435877
3.324593 0.358069 0.437110
3.329459 0.358971 0.456269
3.332696 0.420138 0.453635
3.327830 0.419236 0.434476
3.308870 0.421997 0.435420
3.314313 0.421098 0.455705
3.326738 0.359070 0.455197
3.321871 0.358167 0.436038
3.302912 0.360928 0.436982
3.308355 0.360029 0.457267
3.360495 0.418745 0.425884
3.357792 0.417944 0.415043
3.339418 0.417756 0.414069
3.343526 0.418865 0.432054
3.361184 0.357494 0.429780
3.358481 0.356693 0.418940
3.340108 0.356505 0.417966
3.344215 0.357615 0.435951
3.347238 0.418743 0.434135
3.343130 0.417633 0.416150
3.323686 0.421432 0.416553
3.328250 0.419202 0.435368
3.340467 0.357739 0.433873
3.336359 0.356630 0.415888
3.316916 0.360429 0.416291
3.321479 0.358199 0.435106
3.329232 0.418983 0.437620
3.324669 0.421214 0.418806
3.304862 0.424029 0.418376
3.310273 0.421744 0.438565
3.320458 0.358422 0.432855
3.315895 0.360653 0.414040
3.296088 0.363468 0.413610
3.301499 0.361183 0.433799
3.365713 0.411152 0.426258
3.363424 0.403323 0.421780
3.345116 0.402396 0.424410
3.347375 0.411004 0.427085
3.371695 0.385392 0.481647
3.369405 0.377563 0.477170
3.351097 0.376636 0.479800
3.353357 0.385244 0.482475
3.346351 0.408989 0.426361
3.344091 0.400382 0.423686
3.325741 0.400474 0.426004
3.328313 0.408908 0.429165
3.354345 0.387258 0.483204
3.352086 0.378650 0.480529
3.333736 0.378742 0.482847
3.336308 0.387177 0.486008
3.327904 0.414106 0.431811
3.325332 0.405672 0.428650
3.306950 0.406631 0.430720
3.310151 0.414084 0.436476
3.336681 0.381979 0.483368
3.334109 0.373544 0.480207
3.315727 0.374503 0.482276
3.318928 0.381957 0.488033
3.277425 0.417464 0.453435
3.276231 0.410843 0.448697
3.262506 0.410724 0.456908
3.264661 0.417178 0.462405
3.303994 0.379299 0.493496
3.302799 0.372679 0.488758
3.289074 0.372559 0.496970
3.291229 0.379014 0.502466
3.264099 0.419051 0.464799
3.261944 0.412597 0.459303
3.248826 0.411973 0.468366
3.251479 0.417960 0.473876
3.291765 0.377140 0.500089
3.289609 0.370685 0.494593
3.276491 0.370061 0.503656
3.279145 0.376048 0.509166
3.250694 0.418865 0.475702
3.248040 0.412878 0.470192
3.235463 0.411814 0.480016
3.238221 0.416954 0.484883
3.279905 0.375141 0.507359
3.277252 0.369154 0.501849
3.264675 0.368089 0.511673
3.267432 0.373230 0.516540
3.306061 0.418559 0.441084
3.302860 0.411106 0.435327
3.295168 0.411546 0.438636
3.297846 0.418194 0.444207
3.322992 0.377482 0.483432
3.319791 0.370029 0.477675
3.312099 0.370468 0.480984
3.314776 0.377116 0.486555
3.295765 0.417931 0.444899
3.293088 0.411283 0.439328
3.285929 0.411670 0.443762
3.287944 0.418223 0.448843
3.316841 0.377379 0.485870
3.314164 0.370731 0.480299
3.307006 0.371118 0.484733
3.309020 0.377671 0.489814
3.286975 0.416700 0.447933
3.284960 0.410147 0.442852
3.278026 0.410513 0.447321
3.279220 0.417134 0.452060
3.309975 0.379195 0.490732
3.307960 0.372642 0.485651
3.301025 0.373009 0.490120
3.302220 0.379629 0.494859
3.270605 0.424348 0.428229
3.266007 0.423650 0.413880
3.249451 0.421766 0.426056
3.254595 0.423840 0.439930
3.277672 0.363481 0.431768
3.273074 0.362782 0.417419
3.256518 0.360898 0.429595
3.261662 0.362972 0.443469
3.247991 0.422354 0.440626
3.242846 0.420280 0.426752
3.228436 0.415502 0.440206
3.231965 0.417536 0.454992
3.268236 0.364452 0.442799
3.263091 0.362378 0.428925
3.248681 0.357599 0.442380
3.252210 0.359633 0.457165
3.230785 0.417097 0.455014
3.227256 0.415063 0.440229
3.214342 0.410617 0.455785
3.219704 0.413143 0.468515
3.253363 0.360063 0.457171
3.249834 0.358029 0.442386
3.236920 0.353583 0.457942
3.242282 0.356109 0.470672
3.244576 0.420015 0.498612
3.257153 0.421080 0.488788
3.243667 0.421881 0.476612
3.235050 0.417350 0.485505
3.255547 0.359881 0.493059
3.268124 0.360946 0.483235
3.254637 0.361746 0.471059
3.246021 0.357216 0.479952
3.228699 0.415452 0.485612
3.237316 0.419983 0.476719
3.219173 0.412800 0.472506
3.252350 0.359110 0.479826
3.260967 0.363640 0.470933
3.242824 0.356457 0.466720
3.324152 0.476736 0.452272
3.314442 0.476400 0.458095
3.311796 0.475550 0.441823
3.323482 0.475642 0.435866
3.321094 0.537947 0.448941
3.311384 0.537612 0.454764
3.308737 0.536762 0.438492
3.320424 0.536854 0.432535
3.313701 0.476353 0.457694
3.303781 0.476204 0.463125
3.299416 0.475567 0.447616
3.311055 0.475502 0.441422
3.312103 0.537659 0.455177
3.302184 0.537510 0.460608
3.297819 0.536873 0.445099
3.309457 0.536809 0.438905
3.303330 0.476186 0.462858
3.293259 0.476147 0.468049
3.287333 0.475704 0.453698
3.298965 0.475548 0.447349
3.302614 0.537528 0.460886
3.292543 0.537490 0.466077
3.286617 0.537047 0.451726
3.298249 0.536891 0.445377
3.322702 0.475616 0.435930
3.311016 0.475524 0.441887
3.308313 0.474676 0.425610
3.322036 0.474521 0.419531
3.321200 0.536877 0.432439
3.309514 0.536785 0.438396
3.306811 0.535936 0.422120
3.320534 0.535782 0.416040
3.310550 0.475497 0.441512
3.298912 0.475561 0.447705
3.294515 0.474929 0.432229
3.307847 0.474649 0.425235
3.309955 0.536812 0.438784
3.298317 0.536877 0.444978
3.293919 0.536244 0.429501
3.307252 0.535964 0.422507
3.298607 0.475550 0.447458
3.286975 0.475706 0.453807
3.281042 0.475257 0.439453
3.294210 0.474917 0.431982
3.298596 0.536888 0.445238
3.286965 0.537044 0.451587
3.281032 0.536596 0.437232
3.294199 0.536256 0.429762
3.321465 0.474515 0.419586
3.307741 0.474670 0.425666
3.304992 0.473814 0.409396
3.320793 0.473414 0.403183
3.321102 0.535785 0.415952
3.307379 0.535940 0.422032
3.304630 0.535083 0.405763
3.320431 0.534684 0.399549
3.308423 0.474687 0.425751
3.295091 0.474967 0.432744
3.290668 0.473654 0.417279
3.305674 0.473830 0.409482
3.306668 0.535923 0.421960
3.293336 0.536203 0.428954
3.288913 0.534890 0.413488
3.303919 0.535067 0.405691
3.295609 0.475051 0.433596
3.282442 0.475391 0.441067
3.276563 0.473554 0.426713
3.291187 0.473738 0.418130
3.292789 0.536120 0.428118
3.279622 0.536460 0.435589
3.273742 0.534623 0.421235
3.288366 0.534806 0.412652
3.375577 0.479438 0.446713
3.359106 0.477622 0.447793
3.358426 0.476704 0.428938
3.374978 0.478586 0.426737
3.368500 0.540354 0.444169
3.352029 0.538538 0.445250
3.351350 0.537620 0.426394
3.367901 0.539503 0.424193
3.357334 0.477478 0.448038
3.340876 0.476660 0.449766
3.340200 0.475693 0.432135
3.356655 0.476560 0.429182
3.353768 0.538678 0.445009
3.337309 0.537860 0.446738
3.336634 0.536893 0.429106
3.353088 0.537760 0.426154
3.339373 0.476627 0.450097
3.322933 0.476709 0.452445
3.322263 0.475615 0.436039
3.338697 0.475660 0.432466
3.338779 0.537892 0.446412
3.322340 0.537974 0.448760
3.321670 0.536880 0.432354
3.338104 0.536925 0.428781
3.375147 0.478606 0.426734
3.358595 0.476724 0.428935
3.357929 0.475806 0.410126
3.374556 0.477729 0.406752
3.367732 0.539481 0.424157
3.351180 0.537598 0.426358
3.350514 0.536680 0.407549
3.367141 0.538603 0.404175
3.356854 0.476572 0.429160
3.340400 0.475704 0.432112
3.339712 0.474737 0.414514
3.356188 0.475654 0.410350
3.352887 0.537747 0.426140
3.336433 0.536880 0.429093
3.335745 0.535913 0.411495
3.352222 0.536830 0.407331
3.339068 0.475664 0.432438
3.322634 0.475620 0.436011
3.321969 0.474524 0.419612
3.338381 0.474697 0.414840
3.337731 0.536919 0.428775
3.321297 0.536874 0.432347
3.320631 0.535778 0.415949
3.337044 0.535952 0.411177
3.374720 0.477749 0.406748
3.358094 0.475826 0.410121
3.357438 0.474889 0.391351
3.374146 0.476870 0.386775
3.366975 0.538581 0.404141
3.350348 0.536658 0.407515
3.349693 0.535721 0.388744
3.366401 0.537702 0.384169
3.356390 0.475668 0.410357
3.339914 0.474751 0.414522
3.339220 0.473768 0.396973
3.355735 0.474731 0.391587
3.352019 0.536814 0.407287
3.335542 0.535897 0.411451
3.334849 0.534914 0.393903
3.351363 0.535876 0.388517
3.338745 0.474707 0.414829
3.322332 0.474533 0.419601
3.321661 0.473432 0.403198
3.338051 0.473724 0.397281
3.336678 0.535940 0.411153
3.320266 0.535767 0.415925
3.319595 0.534665 0.399522
3.335985 0.534957 0.393605
3.373952 0.478439 0.444980
3.357818 0.476300 0.446048
3.358614 0.478614 0.438514
3.375085 0.480430 0.437434
3.367859 0.537370 0.461021
3.351725 0.535231 0.462090
3.352521 0.537545 0.454556
3.368992 0.539361 0.453475
3.355145 0.476317 0.445436
3.339057 0.475617 0.447417
3.339483 0.477812 0.439631
3.355941 0.478631 0.437902
3.354365 0.535211 0.462705
3.338277 0.534511 0.464685
3.338703 0.536706 0.456899
3.355161 0.537525 0.455171
3.336809 0.475255 0.448993
3.320763 0.475951 0.451830
3.320796 0.477532 0.443554
3.337235 0.477449 0.441207
3.340491 0.534873 0.463114
3.324445 0.535569 0.465951
3.324478 0.537151 0.457675
3.340917 0.537068 0.455328
3.292549 0.476155 0.468270
3.277747 0.476687 0.476322
3.271557 0.476190 0.463210
3.286623 0.475712 0.453919
3.293228 0.537483 0.465871
3.278427 0.538015 0.473923
3.272237 0.537517 0.460810
3.287302 0.537040 0.451520
3.278094 0.476680 0.476177
3.264173 0.476942 0.485521
3.257860 0.476545 0.472657
3.271904 0.476182 0.463064
3.278050 0.538023 0.474086
3.264129 0.538285 0.483431
3.257816 0.537888 0.470566
3.271860 0.537525 0.460974
3.264428 0.476930 0.484986
3.251631 0.476860 0.495959
3.244565 0.476717 0.483464
3.258115 0.476533 0.472122
3.263847 0.538298 0.483987
3.251050 0.538228 0.494960
3.243984 0.538085 0.482464
3.257533 0.537901 0.471122
3.286772 0.475708 0.453836
3.271707 0.476185 0.463126
3.265663 0.475686 0.449803
3.280839 0.475259 0.439481
3.287140 0.537043 0.451575
3.272075 0.537521 0.460866
3.266031 0.537021 0.447542
3.281207 0.536595 0.437221
3.271854 0.476186 0.463152
3.257809 0.476549 0.472745
3.251384 0.476083 0.460018
3.265811 0.475686 0.449829
3.271898 0.537521 0.460860
3.257853 0.537884 0.470452
3.251429 0.537419 0.457725
3.265855 0.537022 0.447536
3.257732 0.476538 0.472411
3.244183 0.476722 0.483754
3.237122 0.476565 0.471260
3.251308 0.476073 0.459684
3.257902 0.537895 0.470807
3.244353 0.538079 0.482149
3.237292 0.537922 0.469656
3.251477 0.537430 0.458080
3.282495 0.475456 0.441689
3.267319 0.475883 0.452011
3.261406 0.474084 0.438518
3.276616 0.473619 0.427336
3.279540 0.536395 0.434985
3.264364 0.536822 0.445306
3.258451 0.535024 0.431814
3.273660 0.534558 0.420631
3.267016 0.475860 0.451924
3.252589 0.476257 0.462113
3.246056 0.474794 0.449600
3.261103 0.474062 0.438431
3.264638 0.536846 0.445415
3.250211 0.537243 0.455604
3.243678 0.535781 0.443091
3.258725 0.535048 0.431923
3.252426 0.476208 0.461678
3.238241 0.476700 0.473254
3.231221 0.475409 0.460848
3.245892 0.474745 0.449165
3.250346 0.537293 0.456061
3.236160 0.537786 0.467637
3.229141 0.536495 0.455231
3.243812 0.535831 0.443548
3.284346 0.479112 0.456198
3.269420 0.478452 0.466154
3.269252 0.481941 0.460363
3.284054 0.481409 0.452310
3.302021 0.529929 0.485737
3.287095 0.529270 0.495692
3.286928 0.532758 0.489901
3.301729 0.532226 0.481849
3.267934 0.478818 0.466497
3.253615 0.478572 0.477289
3.253846 0.482569 0.470050
3.267767 0.482307 0.460705
3.288552 0.528904 0.495369
3.274233 0.528659 0.506161
3.274463 0.532655 0.498922
3.288384 0.532393 0.489577
3.252042 0.479131 0.477541
3.238152 0.479181 0.488915
3.239475 0.483058 0.481275
3.252273 0.483128 0.470302
3.275778 0.528100 0.505931
3.261888 0.528150 0.517305
3.263212 0.532026 0.509665
3.276009 0.532096 0.498692
3.320411 0.475864 0.452315
3.310293 0.475649 0.455564
3.310733 0.477109 0.449862
3.320444 0.477445 0.444039
3.324771 0.535657 0.465473
3.314653 0.535442 0.468721
3.315094 0.536902 0.463020
3.324804 0.537238 0.457197
3.308733 0.476612 0.452620
3.298913 0.476214 0.456579
3.299254 0.477923 0.452350
3.309173 0.478072 0.446919
3.316194 0.534479 0.471674
3.306374 0.534081 0.475633
3.306714 0.535790 0.471403
3.316634 0.535939 0.465973
3.296680 0.478164 0.452758
3.287243 0.477537 0.457608
3.286951 0.479835 0.453720
3.297021 0.479873 0.448528
3.308587 0.532130 0.479464
3.299149 0.531504 0.484314
3.298857 0.533801 0.480426
3.308927 0.533839 0.475235
2.952386 0.341331 0.523307
2.968822 0.338968 0.530935
2.979338 0.338330 0.530767
2.970933 0.338688 0.523676
2.945498 0.280341 0.523654
2.961935 0.277978 0.531283
2.972451 0.277340 0.531115
2.964045 0.277698 0.524023
2.968798 0.338849 0.523290
2.977203 0.338491 0.530382
2.987831 0.338173 0.530258
2.987365 0.337947 0.524101
2.966209 0.277535 0.524409
2.974615 0.277177 0.531501
2.985242 0.276859 0.531377
2.984777 0.276633 0.525221
2.986514 0.337975 0.524494
2.986979 0.338201 0.530651
2.997558 0.337854 0.530471
3.005138 0.337919 0.525338
2.985657 0.276604 0.524828
2.986123 0.276830 0.530985
2.996701 0.276482 0.530806
3.004281 0.276547 0.525672
2.947797 0.337349 0.561283
2.967172 0.338092 0.544689
2.967598 0.338891 0.534521
2.951162 0.341254 0.526893
2.943342 0.276512 0.554480
2.962717 0.277255 0.537887
2.963143 0.278054 0.527719
2.946706 0.280417 0.520090
3.070844 0.417281 0.547923
3.049364 0.394389 0.548453
3.038585 0.394613 0.548550
3.052641 0.415952 0.548211
3.071635 0.417852 0.609294
3.050155 0.394959 0.609824
3.039376 0.395183 0.609920
3.053432 0.416523 0.609581
3.052588 0.416112 0.548210
3.038532 0.394772 0.548549
3.027753 0.394997 0.548648
3.034338 0.416484 0.548520
3.053456 0.416363 0.609582
3.039400 0.395023 0.609921
3.028620 0.395248 0.610020
3.035206 0.416735 0.609892
3.034328 0.416639 0.548520
3.027742 0.395152 0.548648
3.016963 0.395376 0.548743
3.016078 0.417010 0.548832
3.035187 0.416580 0.609892
3.028602 0.395093 0.610020
3.017822 0.395318 0.610115
3.016937 0.416952 0.610204
3.016066 0.417166 0.548832
3.016951 0.395531 0.548743
3.006171 0.395755 0.548841
2.997815 0.417538 0.549142
3.016920 0.416797 0.610204
3.017805 0.395162 0.610115
3.007026 0.395386 0.610213
2.998670 0.417169 0.610514
3.063226 0.357280 0.547663
3.041054 0.365598 0.548320
3.035919 0.382143 0.548814
3.050668 0.382625 0.548720
3.064068 0.355365 0.609006
3.041896 0.363682 0.609663
3.036761 0.380228 0.610157
3.051510 0.380710 0.610062
3.041085 0.365338 0.548312
3.018366 0.365477 0.548647
3.021202 0.381402 0.548918
3.035950 0.381884 0.548806
3.041827 0.363945 0.609671
3.019108 0.364083 0.610005
3.021944 0.380008 0.610276
3.036692 0.380491 0.610165
3.018356 0.365239 0.548642
2.995440 0.360067 0.548901
3.006443 0.380682 0.549015
3.021192 0.381164 0.548913
3.019081 0.364318 0.610010
2.996165 0.359146 0.610269
3.007168 0.379762 0.610382
3.021917 0.380243 0.610281
2.997468 0.417482 0.549149
3.005824 0.395699 0.548848
2.996745 0.400596 0.549095
2.998999 0.417222 0.610507
3.007355 0.395439 0.610207
