2.830917 1.127690 0.866214
2.816004 1.145025 0.866123
2.813514 1.128306 0.866722
2.819864 1.123487 0.866608
2.830315 1.127133 0.846250
2.815401 1.144467 0.846159
2.812912 1.127748 0.846759
2.819261 1.122930 0.846645
2.820156 1.123507 0.866594
2.813806 1.128325 0.866708
2.811938 1.111030 0.867476
2.815317 1.112718 0.867104
2.818959 1.122886 0.846660
2.812610 1.127704 0.846773
2.810742 1.110408 0.847542
2.814121 1.112097 0.847169
2.815319 1.112910 0.867096
2.811940 1.111222 0.867468
2.812739 1.093535 0.868256
2.819532 1.101856 0.867496
2.814118 1.111877 0.847179
2.810739 1.110188 0.847551
2.811538 1.092502 0.848339
2.818331 1.100823 0.847579
2.819271 1.101919 0.867505
2.812479 1.093598 0.868265
2.813777 1.075416 0.869266
2.830063 1.097068 0.867467
2.818600 1.100734 0.847572
2.811808 1.092413 0.848332
2.813106 1.074230 0.849332
2.829393 1.095883 0.847534
2.816108 1.145142 0.866115
2.801187 1.162473 0.865920
2.806856 1.133543 0.866948
2.813618 1.128423 0.866714
2.815276 1.144373 0.846167
2.800355 1.161704 0.845972
2.806025 1.132774 0.847000
2.812786 1.127654 0.846766
2.813808 1.128386 0.866706
2.807047 1.133507 0.866939
2.805997 1.109543 0.867880
2.811940 1.111091 0.867474
2.812596 1.127646 0.846776
2.805835 1.132767 0.847010
2.804785 1.108803 0.847951
2.810728 1.110351 0.847545
2.811940 1.111189 0.867470
2.805997 1.109642 0.867876
2.805499 1.085606 0.869118
2.812740 1.093503 0.868258
2.810727 1.110211 0.847551
2.804784 1.108663 0.847957
2.804286 1.084628 0.849199
2.811526 1.092525 0.848339
2.812574 1.093495 0.868267
2.805334 1.085598 0.869128
2.797579 1.053655 0.870946
2.813873 1.075312 0.869268
2.811689 1.092487 0.848332
2.804448 1.084591 0.849193
2.796694 1.052647 0.851011
2.812987 1.074305 0.849333
2.807036 1.133568 0.866937
2.801367 1.162498 0.865909
2.799554 1.108064 0.868474
2.805987 1.109605 0.867879
2.805832 1.132721 0.847012
2.800163 1.161651 0.845984
2.798350 1.107217 0.848548
2.804783 1.108758 0.847953
2.806011 1.109594 0.867877
2.799578 1.108053 0.868473
2.797759 1.053615 0.870939
2.805513 1.085559 0.869120
2.804756 1.108690 0.847957
2.798323 1.107149 0.848553
2.796504 1.052711 0.851019
2.804258 1.084655 0.849200
2.830837 1.127709 0.866215
2.845585 1.127274 0.866038
2.855482 1.144022 0.865233
2.815924 1.145044 0.866124
2.830429 1.127124 0.846248
2.845177 1.126688 0.846071
2.855074 1.143437 0.845266
2.815516 1.144459 0.846157
2.845638 1.127320 0.866036
2.860377 1.126880 0.865704
2.895097 1.143047 0.864362
2.855535 1.144069 0.865230
2.845178 1.126640 0.846073
2.859918 1.126200 0.845741
2.894638 1.142368 0.844399
2.855075 1.143389 0.845267
2.815943 1.145059 0.866123
2.855501 1.144037 0.865232
2.865405 1.160790 0.864549
2.801022 1.162389 0.865928
2.815492 1.144478 0.846157
2.855050 1.143456 0.845266
2.864955 1.160209 0.844583
2.800571 1.161809 0.845961
2.855577 1.144057 0.865230
2.895139 1.143036 0.864361
2.929854 1.159198 0.862903
2.865481 1.160810 0.864547
2.855078 1.143433 0.845266
2.894641 1.142412 0.844397
2.929355 1.158575 0.842939
2.864983 1.160186 0.844583
2.859506 1.096099 0.866942
2.844767 1.096542 0.867305
2.853565 1.073978 0.868215
2.893404 1.072640 0.867315
2.859012 1.095084 0.846993
2.844273 1.095527 0.847357
2.853070 1.072963 0.848267
2.892909 1.071624 0.847367
2.844735 1.096605 0.867302
2.829987 1.097039 0.867471
2.813701 1.075387 0.869270
2.853533 1.074041 0.868212
2.844250 1.095466 0.847361
2.829502 1.095900 0.847529
2.813216 1.074247 0.849328
2.853047 1.072902 0.848270
2.893446 1.072621 0.867315
2.853607 1.073960 0.868215
2.862411 1.051400 0.869239
2.927337 1.049154 0.867506
2.892910 1.071597 0.847368
2.853071 1.072935 0.848268
2.861874 1.050376 0.849292
2.926800 1.048130 0.847559
2.853569 1.074011 0.868213
2.813737 1.075356 0.869271
2.797444 1.053699 0.870949
2.862373 1.051452 0.869237
2.853003 1.072888 0.848272
2.813172 1.074233 0.849330
2.796878 1.052576 0.851009
2.861807 1.050329 0.849297
2.860372 1.126956 0.865702
2.871171 1.122108 0.865748
2.892309 1.126249 0.865063
2.895092 1.143124 0.864359
2.859954 1.126112 0.845744
2.870753 1.121264 0.845790
2.891891 1.125405 0.845105
2.894675 1.142280 0.844401
2.871164 1.122089 0.865749
2.875372 1.111030 0.866033
2.892339 1.108743 0.865882
2.892302 1.126230 0.865064
2.870767 1.121259 0.845790
2.874975 1.110200 0.846075
2.891941 1.107913 0.845923
2.891905 1.125400 0.845105
2.875363 1.111007 0.866035
2.870530 1.100220 0.866643
2.891462 1.090933 0.866544
2.892329 1.108719 0.865883
2.874984 1.110196 0.846075
2.870150 1.099410 0.846683
2.891083 1.090123 0.846584
2.891950 1.107908 0.845923
2.870525 1.100203 0.866644
2.859464 1.095997 0.866947
2.893362 1.072538 0.867321
2.891458 1.090915 0.866545
2.870147 1.099402 0.846683
2.859086 1.095196 0.846987
2.892984 1.071737 0.847360
2.891080 1.090115 0.846585
2.895105 1.143145 0.864358
2.892322 1.126270 0.865062
2.910808 1.130750 0.864590
2.929819 1.159307 0.862899
2.894716 1.142279 0.844400
2.891933 1.125405 0.845105
2.910420 1.129885 0.844632
2.929431 1.158442 0.842942
2.892318 1.126237 0.865064
2.892355 1.108750 0.865882
2.910341 1.106485 0.865544
2.910805 1.130717 0.864591
2.891926 1.125394 0.845105
2.891963 1.107908 0.845923
2.909949 1.105643 0.845585
2.910412 1.129874 0.844633
2.892352 1.108716 0.865883
2.891484 1.090930 0.866544
2.909704 1.082159 0.866631
2.910337 1.106450 0.865545
2.891965 1.107901 0.845923
2.891098 1.090115 0.846584
2.909318 1.081344 0.846672
2.909951 1.105636 0.845585
2.891485 1.090892 0.866545
2.893389 1.072514 0.867321
2.927279 1.049047 0.867512
2.909705 1.082121 0.866633
2.891106 1.090106 0.846584
2.893010 1.071728 0.847360
2.926900 1.048261 0.847551
2.909326 1.081335 0.846672
2.910822 1.130730 0.864590
2.910359 1.106499 0.865543
2.928572 1.104217 0.865379
2.929833 1.159287 0.862900
2.910432 1.129875 0.844633
2.909968 1.105644 0.845585
2.928181 1.103362 0.845421
2.929442 1.158432 0.842942
2.910358 1.106431 0.865545
2.909724 1.082140 0.866632
2.927299 1.049066 0.867511
2.928571 1.104150 0.865381
2.909967 1.105632 0.845585
2.909333 1.081340 0.846672
2.926908 1.048266 0.847551
2.928180 1.103351 0.845421
2.800650 1.162531 0.865926
2.790308 1.134076 0.867210
2.789730 1.110102 0.868207
2.798837 1.108097 0.868490
2.800864 1.161618 0.845968
2.790522 1.133164 0.847252
2.789944 1.109190 0.848249
2.799051 1.107184 0.848532
2.798826 1.108072 0.868491
2.789719 1.110078 0.868208
2.788690 1.086056 0.869411
2.797006 1.053634 0.870957
2.799060 1.107130 0.848535
2.789953 1.109136 0.848251
2.788924 1.085114 0.849455
2.797240 1.052693 0.851001
2.800730 1.162514 0.865927
2.780199 1.146233 0.866673
2.780578 1.129432 0.867295
2.790388 1.134059 0.867212
2.800770 1.161664 0.845965
2.780239 1.145383 0.846712
2.780617 1.128583 0.847333
2.790428 1.133210 0.847250
2.790289 1.134028 0.867212
2.780479 1.129401 0.867295
2.781042 1.112036 0.868020
2.789711 1.110054 0.868209
2.790522 1.133197 0.847251
2.780711 1.128571 0.847334
2.781275 1.111205 0.848059
2.789944 1.109223 0.848247
2.789712 1.110118 0.868206
2.781044 1.112100 0.868017
2.779331 1.094488 0.868871
2.788684 1.086097 0.869409
2.789941 1.109117 0.848252
2.781272 1.111099 0.848063
2.779559 1.093487 0.848917
2.788912 1.085095 0.849456
2.788784 1.086076 0.869411
2.779431 1.094467 0.868873
2.777944 1.076364 0.869884
2.797100 1.053654 0.870957
2.788814 1.085070 0.849456
2.779461 1.093462 0.848918
2.777974 1.075358 0.849929
2.797131 1.052649 0.851002
2.780260 1.146135 0.866677
2.759724 1.129853 0.867399
2.770524 1.125006 0.867446
2.780639 1.129335 0.867298
2.780148 1.145460 0.846709
2.759612 1.129178 0.847431
2.770412 1.124331 0.847478
2.780526 1.128660 0.847330
2.780489 1.129347 0.867298
2.770375 1.125018 0.867445
2.774585 1.113963 0.867798
2.781053 1.111981 0.868022
2.780684 1.128623 0.847332
2.770569 1.124294 0.847480
2.774779 1.113239 0.847832
2.781247 1.111257 0.848056
2.781059 1.112132 0.868015
2.774591 1.114114 0.867791
2.769757 1.103327 0.868378
2.779346 1.094520 0.868869
2.781240 1.111078 0.848064
2.774772 1.113060 0.847840
2.769939 1.102273 0.848426
2.779527 1.093466 0.848918
2.779497 1.094557 0.868868
2.769908 1.103364 0.868376
2.758848 1.099161 0.868736
2.778009 1.076453 0.869879
2.779367 1.093404 0.848921
2.769778 1.102211 0.848430
2.758718 1.098008 0.848789
2.777880 1.075300 0.849933
2.695393 1.057448 0.873645
2.746366 1.055682 0.872299
2.745321 1.077728 0.870646
2.712463 1.078828 0.871457
2.694827 1.055895 0.853734
2.745800 1.054130 0.852387
2.744755 1.076176 0.850734
2.711898 1.077276 0.851546
2.746404 1.055637 0.872301
2.797376 1.053872 0.870940
2.778219 1.076582 0.869867
2.745359 1.077684 0.870648
2.745845 1.054172 0.852383
2.796817 1.052407 0.851021
2.777660 1.075116 0.849948
2.744800 1.076218 0.850730
2.712429 1.078860 0.871456
2.745287 1.077760 0.870644
2.744244 1.099806 0.869032
2.729499 1.100242 0.869251
2.711948 1.077288 0.851544
2.744805 1.076188 0.850732
2.743763 1.098234 0.849120
2.729017 1.098670 0.849339
2.745322 1.077700 0.870648
2.778182 1.076599 0.869867
2.759020 1.099306 0.868724
2.744280 1.099746 0.869036
2.744817 1.076246 0.850727
2.777677 1.075145 0.849946
2.758516 1.097852 0.848803
2.743775 1.098292 0.849115
2.699551 1.165070 0.868137
2.697758 1.111129 0.870860
2.704687 1.112653 0.870084
2.705723 1.136411 0.868997
2.697791 1.164159 0.848255
2.695998 1.110218 0.850979
2.702928 1.111742 0.850203
2.703963 1.135500 0.849116
2.697791 1.111125 0.870858
2.695999 1.057188 0.873625
2.704223 1.088817 0.871368
2.704720 1.112650 0.870081
2.695963 1.110143 0.850986
2.694171 1.056206 0.853753
2.702395 1.087834 0.851497
2.702892 1.111668 0.850210
2.699246 1.165003 0.868162
2.705417 1.136344 0.869022
2.712666 1.131302 0.868665
2.714966 1.147891 0.868044
2.698110 1.164253 0.848228
2.704282 1.135595 0.849088
2.711530 1.130553 0.848731
2.713831 1.147142 0.848110
2.705752 1.136316 0.868998
2.704717 1.112558 0.870086
2.711161 1.114081 0.869330
2.713000 1.131274 0.868641
2.703947 1.135580 0.849114
2.702912 1.111822 0.850201
2.709356 1.113345 0.849446
2.711196 1.130538 0.848756
2.704706 1.112725 0.870079
2.704209 1.088892 0.871366
2.711929 1.096686 0.870327
2.711151 1.114248 0.869324
2.702921 1.111614 0.850210
2.702423 1.087780 0.851497
2.710143 1.095574 0.850458
2.709365 1.113137 0.849455
2.703918 1.088901 0.871387
2.695694 1.057273 0.873644
2.712765 1.078653 0.871456
2.711638 1.096695 0.870348
2.702711 1.087725 0.851478
2.694487 1.056097 0.853735
2.711557 1.077477 0.851547
2.710430 1.095519 0.850439
2.714855 1.147686 0.868055
2.712554 1.131097 0.868676
2.719512 1.126368 0.868232
2.730572 1.130572 0.867882
2.713965 1.147325 0.848098
2.711664 1.130736 0.848719
2.718622 1.126008 0.848275
2.729682 1.130212 0.847925
2.713017 1.131164 0.868643
2.711177 1.113971 0.869332
2.715148 1.115653 0.868853
2.719975 1.126436 0.868199
2.711192 1.130644 0.848753
2.709352 1.113451 0.849443
2.713323 1.115133 0.848963
2.718150 1.125916 0.848310
2.711139 1.114317 0.869321
2.711917 1.096755 0.870324
2.719315 1.104941 0.869186
2.715110 1.115998 0.868841
2.709389 1.113077 0.849456
2.710167 1.095515 0.850459
2.717565 1.103700 0.849321
2.713360 1.114758 0.848977
2.711510 1.096863 0.870344
2.712638 1.078821 0.871451
2.729707 1.100204 0.869247
2.718908 1.105049 0.869206
2.710583 1.095381 0.850440
2.711710 1.077339 0.851548
2.728779 1.098721 0.849343
2.717980 1.103566 0.849302
2.730335 1.130523 0.867891
2.745081 1.130088 0.867698
2.747486 1.146782 0.867355
2.714618 1.147637 0.868064
2.729950 1.130271 0.847916
2.744696 1.129836 0.847723
2.747101 1.146530 0.847380
2.714233 1.147384 0.848089
2.745121 1.130139 0.867697
2.759861 1.129699 0.867401
2.780397 1.145981 0.866679
2.747525 1.146833 0.867353
2.744704 1.129783 0.847724
2.759445 1.129343 0.847429
2.779981 1.145626 0.846707
2.747109 1.146478 0.847381
2.714639 1.147665 0.868063
2.747507 1.146811 0.867354
2.749917 1.163508 0.867063
2.698919 1.164777 0.868181
2.714197 1.147389 0.848090
2.747065 1.146535 0.847381
2.749475 1.163231 0.847090
2.698477 1.164501 0.848208
2.747547 1.146834 0.867353
2.780420 1.145982 0.866679
2.800950 1.162263 0.865932
2.749956 1.163531 0.867062
2.747110 1.146510 0.847380
2.779982 1.145658 0.846706
2.800513 1.161939 0.845960
2.749519 1.163207 0.847089
2.698318 1.165112 0.868168
2.688326 1.136934 0.869322
2.687769 1.113162 0.870394
2.696525 1.111171 0.870891
2.699009 1.164117 0.848225
2.689018 1.135939 0.849379
2.688460 1.112167 0.850451
2.697216 1.110176 0.850948
2.696500 1.111171 0.870891
2.687744 1.113162 0.870393
2.686713 1.089345 0.871702
2.694708 1.057233 0.873658
2.697238 1.110099 0.850953
2.688482 1.112090 0.850456
2.687451 1.088273 0.851764
2.695446 1.056161 0.853721
2.698505 1.165051 0.868175
2.678530 1.148998 0.868664
2.679044 1.132327 0.869265
2.688513 1.136874 0.869329
2.698808 1.164206 0.848216
2.678833 1.148153 0.848704
2.679347 1.131482 0.849305
2.688817 1.136029 0.849370
2.688307 1.136855 0.869325
2.678838 1.132308 0.869261
2.679433 1.115048 0.869938
2.687750 1.113083 0.870397
2.689018 1.136005 0.849376
2.679548 1.131458 0.849311
2.680143 1.114198 0.849989
2.688461 1.112233 0.850448
2.687754 1.113221 0.870390
2.679437 1.115187 0.869931
2.677702 1.097695 0.870947
2.686723 1.089404 0.871699
2.688455 1.112053 0.850457
2.680138 1.114018 0.849997
2.678403 1.096526 0.851014
2.687424 1.088235 0.851765
2.686902 1.089393 0.871704
2.677881 1.097684 0.870953
2.676274 1.079721 0.872099
2.694897 1.057281 0.873661
2.687247 1.088201 0.851763
2.678225 1.096492 0.851011
2.676618 1.078529 0.852157
2.695241 1.056090 0.853719
2.678611 1.148816 0.868671
2.658637 1.132763 0.869142
2.669435 1.127914 0.869145
2.679125 1.132146 0.869272
2.678723 1.148314 0.848698
2.658749 1.132261 0.849168
2.669547 1.127412 0.849172
2.679236 1.131643 0.849299
2.678817 1.132207 0.869264
2.669127 1.127976 0.869137
2.673340 1.116924 0.869560
2.679412 1.114947 0.869941
2.679552 1.131557 0.849308
2.669863 1.127325 0.849181
2.674076 1.116273 0.849604
2.680148 1.114296 0.849985
2.679458 1.115251 0.869928
2.673387 1.117228 0.869547
2.668550 1.106441 0.870146
2.677723 1.097760 0.870944
2.680100 1.113964 0.850000
2.674029 1.115941 0.849619
2.669192 1.105153 0.850217
2.678365 1.096472 0.851016
2.678008 1.097822 0.870945
2.668835 1.106503 0.870146
2.657778 1.102303 0.870559
2.676401 1.079859 0.872091
2.678071 1.096385 0.851017
2.668898 1.105066 0.850218
2.657840 1.100866 0.850630
2.676463 1.078422 0.852163
2.596822 1.167165 0.870470
2.613102 1.150284 0.870126
2.645971 1.149431 0.869373
2.647819 1.165898 0.869382
2.596384 1.167186 0.850495
2.612664 1.150306 0.850151
2.645533 1.149453 0.849397
2.647381 1.165920 0.849406
2.647868 1.165904 0.869381
2.646019 1.149437 0.869372
2.678889 1.148583 0.868672
2.698864 1.164636 0.868183
2.647416 1.165912 0.849406
2.645568 1.149445 0.849397
2.678437 1.148591 0.848697
2.698412 1.164645 0.848208
2.613115 1.150265 0.870126
2.629394 1.133384 0.869724
2.644135 1.132945 0.869404
2.645984 1.149412 0.869372
2.612665 1.150292 0.850151
2.628944 1.133411 0.849749
2.643686 1.132972 0.849429
2.645534 1.149439 0.849397
2.645985 1.149443 0.869372
2.644136 1.132977 0.869404
2.658881 1.132536 0.869143
2.678854 1.148590 0.868673
2.645581 1.149406 0.849396
2.643732 1.132939 0.849428
2.658476 1.132499 0.849167
2.678450 1.148552 0.848697
2.597724 1.167633 0.870396
2.595956 1.114189 0.873347
2.603217 1.115652 0.872290
2.604225 1.139201 0.871173
2.595429 1.166669 0.850572
2.593661 1.113225 0.853523
2.600923 1.114688 0.852466
2.601930 1.138237 0.851349
2.596001 1.114200 0.873341
2.594234 1.060759 0.876320
2.602785 1.092053 0.873713
2.603262 1.115663 0.872284
2.593614 1.113137 0.853533
2.591847 1.059696 0.856511
2.600398 1.090989 0.853904
2.600875 1.114600 0.852476
2.597294 1.167528 0.870441
2.603795 1.139096 0.871218
2.611330 1.134068 0.870661
2.613574 1.150648 0.870097
2.595872 1.166801 0.850525
2.602373 1.138369 0.851301
2.609907 1.133341 0.850745
2.612152 1.149921 0.850181
2.604237 1.139076 0.871177
2.603229 1.115527 0.872294
2.610030 1.116986 0.871316
2.611771 1.134048 0.870620
2.601932 1.138347 0.851344
2.600924 1.114798 0.852461
2.607725 1.116257 0.851482
2.609466 1.133319 0.850787
2.603244 1.115754 0.872281
2.602767 1.092143 0.873710
2.610827 1.099820 0.872371
2.610044 1.117213 0.871303
2.600909 1.114530 0.852476
2.600431 1.090920 0.853905
2.608492 1.098596 0.852566
2.607709 1.115989 0.851497
2.602413 1.092167 0.873744
2.593862 1.060874 0.876351
2.611464 1.081985 0.873675
2.610473 1.099844 0.872405
2.600782 1.090851 0.853874
2.592231 1.059557 0.856481
2.609833 1.080668 0.853806
2.608842 1.098527 0.852535
2.613396 1.150373 0.870115
2.611152 1.133793 0.870678
2.618502 1.129028 0.870060
2.629675 1.133492 0.869713
2.612353 1.150174 0.850163
2.610109 1.133595 0.850727
2.617459 1.128829 0.850109
2.628632 1.133293 0.849761
2.611794 1.133877 0.870622
2.610052 1.116815 0.871318
2.614493 1.118408 0.870610
2.619143 1.129112 0.870005
2.609457 1.133486 0.850783
2.607716 1.116424 0.851479
2.612157 1.118017 0.850771
2.616807 1.128721 0.850166
2.610006 1.117316 0.871300
2.610789 1.099923 0.872369
2.618674 1.107988 0.870987
2.614447 1.118909 0.870592
2.607761 1.115895 0.851498
2.608544 1.098502 0.852566
2.616428 1.106568 0.851184
2.612202 1.117488 0.850790
2.610237 1.100066 0.872404
2.611228 1.082207 0.873675
2.628836 1.103326 0.871060
2.618122 1.108131 0.871022
2.609104 1.098334 0.852532
2.610095 1.080475 0.853802
2.627703 1.101594 0.851188
2.616989 1.106399 0.851150
2.593352 1.061193 0.876353
2.644323 1.059430 0.874995
2.643815 1.081209 0.872902
2.610954 1.082304 0.873678
2.592779 1.059212 0.856480
2.643749 1.057450 0.855121
2.643241 1.079228 0.853029
2.610381 1.080323 0.853804
2.644371 1.059387 0.874997
2.695343 1.057622 0.873632
2.676720 1.080062 0.872070
2.643863 1.081166 0.872905
2.643784 1.057490 0.855116
2.694757 1.055725 0.853751
2.676133 1.078165 0.852189
2.643277 1.079269 0.853024
2.610928 1.082331 0.873676
2.643789 1.081236 0.872900
2.643278 1.103010 0.870782
2.628537 1.103450 0.871061
2.610424 1.080339 0.853801
2.643284 1.079244 0.853026
2.642774 1.101018 0.850908
2.628032 1.101458 0.851187
2.643817 1.081171 0.872906
2.676673 1.080067 0.872071
2.658051 1.102511 0.870538
2.643306 1.102945 0.870787
2.643304 1.079307 0.853020
2.676160 1.078203 0.852184
2.657537 1.100647 0.850652
2.642793 1.101081 0.850901
2.596437 1.167600 0.870464
2.586972 1.139730 0.872161
2.586440 1.116159 0.872648
2.594669 1.114157 0.873414
2.596700 1.166702 0.850506
2.587235 1.138832 0.852203
2.586703 1.115261 0.852690
2.594932 1.113258 0.853456
2.594139 1.114264 0.873388
2.585910 1.116267 0.872621
2.584866 1.092656 0.874065
2.592373 1.060823 0.876366
2.595459 1.113074 0.853487
2.587230 1.115076 0.852720
2.586187 1.091466 0.854164
2.593693 1.059633 0.856465
2.596751 1.167669 0.870460
2.577591 1.151918 0.871729
2.578315 1.135336 0.872442
2.587285 1.139799 0.872157
2.596374 1.166661 0.850509
2.577214 1.150910 0.851778
2.577937 1.134328 0.852491
2.586908 1.138791 0.852206
2.586833 1.139264 0.872169
2.577862 1.134801 0.872453
2.578484 1.117693 0.871929
2.586301 1.115693 0.872656
2.587356 1.139284 0.852196
2.578386 1.134821 0.852480
2.579007 1.117713 0.851956
2.586824 1.115713 0.852682
2.585916 1.116355 0.872616
2.578099 1.118354 0.871889
2.576333 1.100958 0.873033
2.584872 1.092744 0.874060
2.587208 1.115011 0.852723
2.579391 1.117010 0.851997
2.577625 1.099615 0.853141
2.586165 1.091400 0.854167
2.585175 1.092739 0.874075
2.576635 1.100953 0.873049
2.574836 1.083070 0.874386
2.592681 1.060905 0.876376
2.585864 1.091360 0.854154
2.577324 1.099574 0.853128
2.575525 1.081691 0.854466
2.593370 1.059527 0.856456
2.577687 1.151697 0.871735
2.558529 1.135945 0.873019
2.569347 1.130996 0.872591
2.578411 1.135114 0.872448
2.577090 1.151112 0.851773
2.557932 1.135360 0.853056
2.568750 1.130412 0.852628
2.577813 1.134530 0.852486
2.577920 1.134152 0.872433
2.568856 1.130033 0.872575
2.572914 1.119205 0.871347
2.578541 1.117043 0.871908
2.578312 1.135468 0.852500
2.569249 1.131350 0.852643
2.573306 1.120521 0.851415
2.578934 1.118360 0.851976
2.578177 1.118444 0.871888
2.572550 1.120606 0.871327
2.567888 1.109675 0.871975
2.576411 1.101048 0.873032
2.579297 1.116931 0.851997
2.573670 1.119092 0.851435
2.569008 1.108162 0.852084
2.577531 1.099535 0.853141
2.576825 1.101142 0.873039
2.568302 1.109768 0.871982
2.557182 1.105426 0.872388
2.575026 1.083259 0.874376
2.577108 1.099416 0.853135
2.568584 1.108043 0.852079
2.557464 1.103701 0.852485
2.575309 1.081533 0.854473
2.465564 1.065812 0.879791
2.529407 1.063607 0.878063
2.536114 1.084886 0.875337
2.496818 1.086206 0.876340
2.464957 1.063426 0.859963
2.528801 1.061221 0.858235
2.535508 1.082500 0.855509
2.496211 1.083820 0.856513
2.529457 1.063566 0.878066
2.593303 1.061359 0.876336
2.575458 1.083523 0.874346
2.536164 1.084846 0.875340
2.528854 1.061258 0.858229
2.592700 1.059050 0.856499
2.574855 1.081215 0.854509
2.535561 1.082537 0.855503
2.496812 1.086250 0.876335
2.536108 1.084930 0.875331
2.542812 1.106205 0.872595
2.528071 1.106647 0.872893
2.496255 1.083818 0.856512
2.535552 1.082498 0.855508
2.542256 1.103773 0.852771
2.527515 1.104215 0.853069
2.536122 1.084860 0.875339
2.575415 1.083538 0.874346
2.557571 1.105705 0.872358
2.542826 1.106135 0.872603
2.535592 1.082567 0.855499
2.574886 1.081244 0.854505
2.557042 1.103411 0.852517
2.542297 1.103842 0.852762
2.466051 1.065227 0.879815
2.482894 1.095828 0.876672
2.483309 1.119179 0.875218
2.467284 1.118064 0.876658
2.464405 1.064060 0.859938
2.481248 1.094661 0.856794
2.481663 1.118012 0.855340
2.465638 1.116896 0.856781
2.466990 1.117998 0.876682
2.483016 1.119113 0.875242
2.483702 1.142445 0.874619
2.468227 1.170835 0.873538
2.465933 1.117039 0.856753
2.481959 1.118154 0.855313
2.482644 1.141486 0.854690
2.467170 1.169876 0.853609
2.465933 1.065312 0.879819
2.497187 1.085707 0.876369
2.499155 1.103255 0.874904
2.482776 1.095913 0.876675
2.464546 1.063951 0.859934
2.495800 1.084345 0.856483
2.497768 1.101893 0.855018
2.481389 1.094552 0.856790
2.482906 1.095873 0.876668
2.499285 1.103215 0.874896
2.499096 1.120459 0.873802
2.483322 1.119225 0.875214
2.481268 1.094636 0.856794
2.497647 1.101977 0.855022
2.497459 1.119221 0.853928
2.481684 1.117987 0.855340
2.483054 1.118646 0.875251
2.498829 1.119880 0.873839
2.499874 1.136876 0.874286
2.483739 1.141977 0.874629
2.481952 1.118606 0.855302
2.497727 1.119841 0.853890
2.498772 1.136836 0.854337
2.482638 1.141937 0.854679
2.483510 1.142505 0.874624
2.499644 1.137404 0.874282
2.498509 1.153979 0.873529
2.468036 1.170895 0.873543
2.482860 1.141452 0.854682
2.498994 1.136351 0.854340
2.497860 1.152926 0.853588
2.467386 1.169842 0.853602
2.497102 1.085925 0.876357
2.528362 1.106322 0.872914
2.517513 1.111298 0.872895
2.499070 1.103473 0.874892
2.495933 1.084155 0.856490
2.527193 1.104552 0.853047
2.516344 1.109528 0.853028
2.497901 1.101703 0.855025
2.499295 1.103255 0.874893
2.517737 1.111081 0.872896
2.513690 1.122256 0.872464
2.499106 1.120499 0.873799
2.497670 1.101946 0.855022
2.516112 1.109771 0.853025
2.512065 1.120947 0.852593
2.497481 1.119190 0.853928
2.498759 1.119108 0.873815
2.513342 1.120865 0.872479
2.518031 1.131426 0.873844
2.499804 1.136104 0.874261
2.497829 1.120609 0.853913
2.512413 1.122366 0.852578
2.517101 1.132928 0.853942
2.498874 1.137605 0.854360
2.499610 1.137267 0.874289
2.517837 1.132589 0.873871
2.528952 1.136924 0.873519
2.498475 1.153842 0.873537
2.499076 1.136467 0.854332
2.517304 1.131789 0.853914
2.528418 1.136124 0.853562
2.497942 1.153042 0.853580
2.467985 1.170846 0.873547
2.498459 1.153930 0.873533
2.538019 1.152910 0.872615
2.532359 1.169243 0.871960
2.467480 1.169913 0.853595
2.497954 1.152997 0.853582
2.537515 1.151977 0.852664
2.531855 1.168310 0.852008
2.532401 1.169272 0.871958
2.538060 1.152939 0.872613
2.577620 1.151923 0.871728
2.596780 1.167674 0.870459
2.531918 1.168279 0.852008
2.537578 1.151946 0.852664
2.577138 1.150929 0.851778
2.596297 1.166681 0.850509
2.498449 1.153883 0.873536
2.528926 1.136966 0.873518
2.543668 1.136533 0.873277
2.538010 1.152864 0.872618
2.498000 1.153010 0.853580
2.528476 1.136093 0.853562
2.543218 1.135660 0.853321
2.537561 1.151991 0.852662
2.538036 1.152936 0.872614
2.543694 1.136605 0.873273
2.558438 1.136168 0.873012
2.577596 1.151920 0.871728
2.537588 1.151917 0.852665
2.543246 1.135586 0.853324
2.557990 1.135148 0.853063
2.577148 1.150900 0.851780
2.321256 1.174448 0.876038
2.305038 1.147587 0.877544
2.304429 1.124558 0.878681
2.319530 1.122313 0.878833
2.321212 1.173405 0.856085
2.304995 1.146545 0.857592
2.304386 1.123516 0.858728
2.319486 1.121270 0.858880
2.319482 1.122312 0.878833
2.304382 1.124557 0.878681
2.303498 1.101474 0.879959
2.317760 1.070183 0.881756
2.319531 1.121196 0.858885
2.304431 1.123442 0.858733
2.303548 1.100358 0.860010
2.317810 1.069067 0.861807
2.321297 1.174432 0.876038
2.291280 1.159697 0.877049
2.289508 1.143602 0.877793
2.305079 1.147572 0.877545
2.321149 1.173449 0.856083
2.291132 1.158713 0.857094
2.289361 1.142618 0.857837
2.304932 1.146588 0.857590
2.305003 1.147527 0.877547
2.289432 1.143557 0.877795
2.289583 1.126727 0.878525
2.304394 1.124498 0.878684
2.304999 1.146592 0.857589
2.289428 1.142622 0.857837
2.289578 1.125792 0.858567
2.304390 1.123563 0.858726
2.304354 1.124556 0.878681
2.289543 1.126786 0.878522
2.288331 1.109678 0.879436
2.303471 1.101473 0.879959
2.304429 1.123465 0.858731
2.289617 1.125694 0.858572
2.288406 1.108586 0.859486
2.303546 1.100381 0.860009
2.303522 1.101498 0.879958
2.288382 1.109703 0.879434
2.289050 1.092147 0.880529
2.317783 1.070207 0.881755
2.303502 1.100312 0.860013
2.288362 1.108517 0.859490
2.289030 1.090960 0.860584
2.317763 1.069021 0.861810
2.291272 1.159592 0.877054
2.261258 1.144852 0.877997
2.272056 1.140001 0.878004
2.289501 1.143497 0.877797
2.291093 1.158799 0.857090
2.261079 1.144059 0.858034
2.271877 1.139209 0.858041
2.289322 1.142704 0.857834
2.289418 1.143485 0.877798
2.271973 1.139989 0.878005
2.276188 1.128931 0.878381
2.289569 1.126655 0.878528
2.289411 1.142692 0.857834
2.271966 1.139197 0.858041
2.276181 1.128138 0.858416
2.289562 1.125863 0.858564
2.289517 1.126762 0.878523
2.276137 1.129037 0.878376
2.271301 1.118242 0.878878
2.288306 1.109654 0.879437
2.289612 1.125729 0.858570
2.276232 1.128004 0.858423
2.271396 1.117209 0.858925
2.288401 1.108621 0.859484
2.288387 1.109781 0.879429
2.271382 1.118369 0.878870
2.260326 1.114158 0.879248
2.289056 1.092225 0.880524
2.288311 1.108469 0.859493
2.271306 1.117057 0.858934
2.260250 1.112846 0.859311
2.288980 1.090912 0.860587
2.195904 1.177330 0.877934
2.213844 1.161507 0.878256
2.252569 1.160523 0.877610
2.258604 1.175809 0.877086
2.195593 1.176669 0.857968
2.213533 1.160845 0.858290
2.252258 1.159862 0.857643
2.258293 1.175148 0.857120
2.258664 1.175789 0.877086
2.252629 1.160504 0.877609
2.291350 1.159528 0.877055
2.321367 1.174264 0.876044
2.258334 1.175165 0.857119
2.252300 1.159879 0.857642
2.291020 1.158904 0.857088
2.321037 1.173640 0.856077
2.213870 1.161503 0.878256
2.231816 1.145673 0.878486
2.246556 1.145242 0.878238
2.252596 1.160520 0.877609
2.213518 1.160817 0.858291
2.231464 1.144987 0.858521
2.246204 1.144555 0.858273
2.252243 1.159834 0.857644
2.252603 1.160511 0.877609
2.246564 1.145232 0.878238
2.261310 1.144795 0.877999
2.291324 1.159535 0.877055
2.252289 1.159842 0.857643
2.246250 1.144564 0.858272
2.260996 1.144127 0.858032
2.291010 1.158867 0.857089
2.196068 1.177462 0.877925
2.194357 1.125919 0.880523
2.202673 1.127490 0.880129
2.203642 1.150263 0.879009
2.195367 1.176490 0.857981
2.193656 1.124946 0.860579
2.201971 1.126517 0.860185
2.202941 1.149290 0.859065
2.194423 1.125902 0.880521
2.192723 1.074363 0.883244
2.202240 1.104618 0.881274
2.202739 1.127473 0.880128
2.193587 1.124889 0.860585
2.191887 1.073351 0.863308
2.201404 1.103606 0.861338
2.201903 1.126460 0.860191
2.195969 1.177435 0.877929
2.203544 1.150236 0.879014
2.212138 1.145678 0.878951
2.213909 1.161612 0.878251
2.195480 1.176544 0.857975
2.203054 1.149344 0.859059
2.211648 1.144786 0.858997
2.213420 1.160720 0.858297
2.203671 1.150222 0.879010
2.202702 1.127449 0.880130
2.210553 1.129026 0.879715
2.212265 1.145664 0.878948
2.202928 1.149317 0.859065
2.201959 1.126544 0.860184
2.209810 1.128122 0.859769
2.211522 1.144759 0.859002
2.202757 1.127468 0.880127
2.202258 1.104614 0.881274
2.211290 1.112017 0.880523
2.210608 1.129045 0.879712
2.201902 1.126485 0.860189
2.201403 1.103631 0.861336
2.210435 1.111034 0.860585
2.209753 1.128063 0.859774
2.202178 1.104649 0.881275
2.192661 1.074393 0.883245
2.211865 1.094650 0.881485
2.211210 1.112052 0.880524
2.201479 1.103552 0.861338
2.191962 1.073297 0.863308
2.211167 1.093554 0.861548
2.210511 1.110956 0.860586
2.213913 1.161543 0.878254
2.212142 1.145609 0.878954
2.220799 1.141504 0.878869
2.231859 1.145713 0.878484
2.213442 1.160768 0.858294
2.211670 1.144835 0.858994
2.220327 1.140729 0.858909
2.231388 1.144938 0.858524
2.212252 1.145598 0.878951
2.210540 1.128960 0.879718
2.216081 1.130698 0.879395
2.220909 1.141492 0.878866
2.211550 1.144822 0.858998
2.209838 1.128185 0.859766
2.215379 1.129922 0.859443
2.220207 1.140717 0.858913
2.210643 1.129043 0.879710
2.211325 1.112015 0.880521
2.220390 1.119722 0.879720
2.216184 1.130781 0.879387
2.209734 1.128074 0.859775
2.210416 1.111046 0.860586
2.219481 1.118752 0.859784
2.215275 1.129811 0.859452
2.211198 1.112109 0.880521
2.211853 1.094708 0.881483
2.231064 1.114963 0.879708
2.220263 1.119816 0.879719
2.210551 1.110926 0.860587
2.211207 1.093524 0.861548
2.230418 1.113780 0.859773
2.219616 1.118633 0.859785
2.260428 1.114276 0.879239
2.245681 1.114709 0.879445
2.250446 1.093616 0.881011
2.289158 1.092342 0.880514
2.260116 1.112718 0.859322
2.245370 1.113151 0.859529
2.250134 1.092058 0.861095
2.288846 1.090784 0.860598
2.289171 1.092298 0.880518
2.250459 1.093571 0.881014
2.255220 1.072478 0.882541
2.317904 1.070358 0.881744
2.288866 1.090786 0.860597
2.250154 1.092060 0.861094
2.254915 1.070966 0.862621
2.317599 1.068847 0.861823
2.195686 1.177472 0.877930
2.187250 1.150745 0.879281
2.186747 1.127958 0.880369
2.193975 1.125928 0.880529
2.195732 1.176481 0.857975
2.187296 1.149754 0.859325
2.186793 1.126966 0.860414
2.194021 1.124937 0.860574
2.193906 1.125923 0.880529
2.186678 1.127952 0.880369
2.185653 1.105115 0.881554
2.192206 1.074384 0.883252
2.194088 1.124868 0.860577
2.186860 1.126897 0.860418
2.185835 1.104060 0.861602
2.192388 1.073330 0.863301
2.195780 1.177461 0.877931
2.178268 1.162679 0.878786
2.179364 1.146666 0.879510
2.187344 1.150734 0.879281
2.195627 1.176519 0.857973
2.178115 1.161737 0.858829
2.179211 1.145724 0.859553
2.187191 1.149792 0.859324
2.187234 1.150688 0.879283
2.179254 1.146620 0.879513
2.179970 1.129909 0.880188
2.186731 1.127901 0.880372
2.187297 1.149797 0.859323
2.179317 1.145729 0.859553
2.180032 1.129018 0.860228
2.186794 1.127010 0.860412
2.186672 1.127964 0.880369
2.179911 1.129972 0.880185
2.178084 1.113019 0.881084
2.185647 1.105126 0.881553
2.186851 1.126907 0.860417
2.180090 1.128915 0.860234
2.178263 1.111962 0.861132
2.185826 1.104069 0.861602
2.185728 1.105132 0.881553
2.178165 1.113025 0.881084
2.176035 1.095703 0.882070
2.192281 1.074402 0.883251
2.185746 1.104019 0.861604
2.178183 1.111912 0.861135
2.176054 1.094590 0.862121
2.192300 1.073289 0.863302
2.178310 1.162607 0.878789
2.160808 1.147826 0.879707
2.171602 1.142974 0.879680
2.179406 1.146594 0.879513
2.178047 1.161791 0.858828
2.160546 1.147010 0.859746
2.171339 1.142158 0.859719
2.179143 1.145778 0.859551
2.179258 1.146548 0.879516
2.171454 1.142928 0.879683
2.175672 1.131869 0.880058
2.179973 1.129837 0.880191
2.179300 1.145800 0.859550
2.171496 1.142180 0.859717
2.175714 1.131121 0.860092
2.180015 1.129089 0.860225
2.179894 1.129978 0.880184
2.175593 1.132011 0.880051
2.170755 1.121215 0.880558
2.178067 1.113025 0.881083
2.180094 1.128920 0.860233
2.175793 1.130952 0.860100
2.170955 1.120157 0.860607
2.178267 1.111966 0.861132
2.178215 1.113085 0.881080
2.170903 1.121275 0.880555
2.159850 1.117066 0.880938
2.176086 1.095763 0.882067
2.178109 1.111882 0.861137
2.170797 1.120072 0.860611
2.159744 1.115862 0.860994
2.175980 1.094559 0.862123
2.066325 1.180550 0.880096
2.098809 1.164624 0.880118
2.138556 1.163619 0.879480
2.131059 1.178971 0.878984
2.065971 1.179768 0.860134
2.098455 1.163842 0.860157
2.138202 1.162836 0.859518
2.130705 1.178188 0.859023
2.131110 1.178968 0.878984
2.138607 1.163615 0.879479
2.178343 1.162609 0.878789
2.195855 1.177391 0.877933
2.130758 1.178189 0.859022
2.138255 1.162837 0.859517
2.177991 1.161830 0.858827
2.195503 1.176612 0.857971
2.098828 1.164605 0.880119
2.131322 1.148681 0.880188
2.146060 1.148246 0.879923
2.138574 1.163600 0.879480
2.098476 1.163830 0.860157
2.130971 1.147905 0.860226
2.145709 1.147471 0.859962
2.138223 1.162824 0.859518
2.138602 1.163604 0.879479
2.146088 1.148250 0.879923
2.160837 1.147816 0.879707
2.178339 1.162597 0.878789
2.138250 1.162819 0.859518
2.145736 1.147465 0.859961
2.160484 1.147031 0.859746
2.177986 1.161812 0.858828
2.130451 1.117774 0.881426
2.119648 1.122626 0.881402
2.099331 1.115226 0.882166
2.096706 1.098211 0.882941
2.130048 1.116894 0.861469
2.119246 1.121746 0.861446
2.098929 1.114346 0.862209
2.096303 1.097331 0.862985
2.119654 1.122612 0.881403
2.115447 1.133670 0.881062
2.099341 1.132012 0.881441
2.099337 1.115212 0.882166
2.119234 1.121784 0.861444
2.115027 1.132843 0.861103
2.098921 1.131185 0.861482
2.098917 1.114385 0.862208
2.115438 1.133666 0.881062
2.120265 1.144459 0.880528
2.100356 1.148573 0.880775
2.099332 1.132007 0.881441
2.115037 1.132875 0.861102
2.119865 1.143669 0.860567
2.099955 1.147783 0.860814
2.098931 1.131217 0.861481
2.120257 1.144478 0.880527
2.131318 1.148691 0.880187
2.098824 1.164615 0.880118
2.100347 1.148592 0.880774
2.119881 1.143673 0.860567
2.130943 1.147886 0.860227
2.098448 1.163810 0.860158
2.099972 1.147788 0.860814
2.096682 1.098192 0.882943
2.099307 1.115207 0.882167
2.081465 1.108165 0.882819
2.062947 1.078631 0.884501
2.096275 1.097323 0.862986
2.098900 1.114338 0.862210
2.081058 1.107296 0.862862
2.062540 1.077762 0.864544
2.099317 1.115215 0.882167
2.099321 1.132015 0.881441
2.082104 1.130752 0.881870
2.081475 1.108173 0.882818
2.098901 1.114373 0.862209
2.098905 1.131173 0.861483
2.081689 1.129910 0.861912
2.081059 1.107332 0.862860
2.099311 1.132025 0.881441
2.100335 1.148590 0.880774
2.082914 1.153296 0.880890
2.082095 1.130761 0.881870
2.098916 1.131203 0.861482
2.099940 1.147769 0.860815
2.082519 1.152475 0.860931
2.081700 1.129940 0.861910
2.100323 1.148614 0.880774
2.098800 1.164637 0.880118
2.066316 1.180562 0.880096
2.082902 1.153320 0.880889
2.099944 1.147787 0.860814
2.098421 1.163809 0.860159
2.065937 1.179735 0.860136
2.082523 1.152492 0.860930
2.081452 1.108172 0.882819
2.082082 1.130750 0.881870
2.064619 1.129580 0.882241
2.062934 1.078638 0.884501
2.081046 1.107314 0.862861
2.081675 1.129892 0.861913
2.064212 1.128722 0.862284
2.062527 1.077780 0.864544
2.082076 1.130775 0.881869
2.082896 1.153310 0.880890
2.066309 1.180553 0.880096
2.064613 1.129606 0.882240
2.081684 1.129940 0.861911
2.082504 1.152475 0.860931
2.065917 1.179718 0.860137
2.064221 1.128771 0.862282
2.062885 1.078772 0.884495
2.127604 1.076597 0.883843
2.136359 1.097030 0.882529
2.096620 1.098333 0.882936
2.062643 1.077596 0.864551
2.127363 1.075421 0.863899
2.136117 1.095854 0.862585
2.096378 1.097157 0.862992
2.127657 1.076625 0.883841
2.192386 1.074452 0.883248
2.176140 1.095753 0.882067
2.136411 1.097058 0.882527
2.127415 1.075390 0.863900
2.192144 1.073217 0.863308
2.175898 1.094518 0.862126
2.136169 1.095823 0.862586
2.096660 1.098335 0.882936
2.136399 1.097032 0.882528
2.145144 1.117463 0.881165
2.130405 1.117897 0.881420
2.096381 1.097196 0.862990
2.136120 1.095893 0.862583
2.144864 1.116324 0.861219
2.130126 1.116758 0.861475
2.136432 1.097083 0.882525
2.176161 1.095778 0.882065
2.159925 1.117080 0.880936
2.145177 1.117514 0.881162
2.136141 1.095840 0.862586
2.175870 1.094535 0.862126
2.159634 1.115838 0.860997
2.144886 1.116271 0.861222
3.015720 1.159418 0.889354
2.981598 1.160172 0.889607
2.980331 1.105103 0.892089
3.014449 1.104342 0.891673
3.015505 1.158553 0.869394
2.981383 1.159307 0.869647
2.980116 1.104238 0.872129
3.014234 1.103477 0.871713
3.014445 1.104256 0.891677
2.980326 1.105017 0.892093
2.979053 1.049934 0.894232
3.013174 1.049179 0.893996
3.014236 1.103452 0.871714
2.980118 1.104214 0.872130
2.978844 1.049131 0.874270
3.012966 1.048376 0.874033
2.484963 1.046252 0.852570
2.540114 1.044656 0.851526
2.528895 1.053150 0.871911
2.465051 1.055355 0.873638
2.485378 1.064750 0.845029
2.540529 1.063154 0.843985
2.529310 1.071648 0.864370
2.465466 1.073853 0.866098
2.540172 1.044632 0.851469
2.595322 1.043051 0.850442
2.592798 1.050918 0.870123
2.528953 1.053126 0.871853
2.540590 1.063175 0.844040
2.595740 1.061594 0.843013
2.593217 1.069461 0.862695
2.529371 1.071669 0.864425
2.595378 1.043024 0.850378
2.650531 1.041454 0.849341
2.643824 1.049129 0.868701
2.592854 1.050891 0.870059
2.595797 1.061617 0.843075
2.650950 1.060047 0.842038
2.644243 1.067722 0.861398
2.593273 1.069484 0.862756
2.650581 1.041427 0.849272
2.705731 1.039860 0.848260
2.694847 1.047336 0.867267
2.643875 1.049101 0.868632
2.651006 1.060072 0.842104
2.706156 1.058505 0.841092
2.695272 1.065981 0.860098
2.644299 1.067746 0.861464
2.705780 1.039832 0.848190
2.760930 1.038247 0.847169
2.745868 1.045543 0.865850
2.694896 1.047308 0.867196
2.706214 1.058529 0.841160
2.761363 1.056944 0.840139
2.746302 1.064240 0.858819
2.695329 1.066006 0.860166
2.760982 1.038219 0.847097
2.816134 1.036656 0.846091
2.796893 1.043750 0.864416
2.745921 1.045515 0.865777
2.761417 1.056969 0.840209
2.816569 1.055406 0.839203
2.797327 1.062500 0.857528
2.746355 1.064265 0.858889
2.816186 1.036622 0.846001
2.871334 1.035059 0.844975
2.861873 1.041468 0.862614
2.796944 1.043716 0.864326
2.816630 1.055437 0.839291
2.871778 1.053874 0.838266
2.862318 1.060283 0.855904
2.797388 1.062530 0.857616
2.871390 1.035025 0.844880
2.926541 1.033445 0.843881
2.926855 1.039188 0.860785
2.861929 1.041434 0.862518
2.871843 1.053905 0.838358
2.926995 1.052326 0.837359
2.927308 1.058068 0.854263
2.862382 1.060314 0.855997
2.468991 1.035007 0.876742
2.491572 1.033586 0.853030
2.492237 1.054520 0.855763
2.472326 1.063623 0.876831
2.454796 1.036945 0.862816
2.477377 1.035524 0.839104
2.478042 1.056459 0.841837
2.458130 1.065562 0.862905
2.066241 1.180536 0.880098
2.011947 1.181861 0.881028
2.023120 1.130727 0.882757
2.064545 1.129589 0.882242
2.065920 1.179749 0.860136
2.011625 1.181073 0.861066
2.022798 1.129940 0.862795
2.064223 1.128802 0.862280
2.064510 1.129571 0.882243
2.023085 1.130709 0.882758
2.034251 1.079587 0.884746
2.062825 1.078628 0.884503
2.064268 1.128718 0.862283
2.022843 1.129856 0.862798
2.034010 1.078734 0.864786
2.062583 1.077775 0.864543
2.012076 1.181676 0.881030
1.957785 1.182995 0.883880
1.981812 1.131675 0.883096
2.023249 1.130543 0.882759
2.011401 1.181260 0.861066
1.957110 1.182579 0.863916
1.981137 1.131259 0.863132
2.022574 1.130127 0.862795
2.023033 1.130703 0.882759
1.981596 1.131836 0.883096
2.005636 1.080542 0.885050
2.034199 1.079581 0.884747
2.022825 1.129864 0.862798
1.981388 1.130996 0.863135
2.005428 1.079702 0.865089
2.033992 1.078741 0.864786
2.219793 1.072577 0.883595
2.221761 1.038598 0.884162
2.269699 1.038125 0.883312
2.255259 1.071944 0.882567
2.219337 1.072080 0.863626
2.221305 1.038101 0.864194
2.269243 1.037628 0.863343
2.254803 1.071447 0.862599
2.255238 1.071939 0.882568
2.269678 1.038121 0.883313
2.317615 1.037647 0.882419
2.317922 1.069820 0.881770
2.254921 1.071450 0.862596
2.269361 1.037631 0.863341
2.317298 1.037157 0.862447
2.317605 1.069331 0.861799
2.214655 1.038136 0.881440
2.212687 1.072115 0.880873
2.191541 1.065107 0.860467
2.190801 1.038769 0.859300
2.228347 1.038560 0.866895
2.226379 1.072539 0.866328
2.205233 1.065530 0.845922
2.204493 1.039193 0.844755
2.197940 1.056095 0.856968
2.219086 1.063103 0.877374
2.191870 1.064579 0.877042
2.179579 1.056618 0.856941
2.198810 1.074574 0.849421
2.219956 1.081582 0.869827
2.192740 1.083058 0.869494
2.180449 1.075097 0.849394
2.055886 1.060232 0.856992
2.117769 1.058469 0.857016
2.127201 1.066775 0.877697
2.062482 1.068950 0.878349
2.056422 1.078672 0.849320
2.118305 1.076909 0.849344
2.127737 1.085215 0.870025
2.063017 1.087390 0.870677
2.117827 1.058462 0.857005
2.179698 1.056634 0.856992
2.191989 1.064595 0.877093
2.127259 1.066768 0.877686
2.118374 1.076911 0.849355
2.180244 1.075084 0.849342
2.192535 1.083045 0.869443
2.127806 1.085218 0.870036
2.245667 1.114675 0.879448
2.238296 1.114894 0.879618
2.231073 1.094217 0.881213
2.250431 1.093582 0.881014
2.245344 1.113187 0.859526
2.237973 1.113405 0.859696
2.230751 1.092728 0.861291
2.250109 1.092093 0.861092
2.238274 1.114872 0.879620
2.230903 1.115088 0.879703
2.211692 1.094832 0.881478
2.231051 1.094195 0.881215
2.237969 1.113428 0.859694
2.230599 1.113644 0.859778
2.211387 1.093388 0.861553
2.230746 1.092751 0.861290
2.250510 1.093694 0.881003
2.231152 1.094329 0.881202
2.219805 1.073233 0.883557
2.255271 1.072600 0.882530
2.250025 1.091939 0.861106
2.230667 1.092574 0.861306
2.219320 1.071479 0.863661
2.254785 1.070845 0.862633
2.230913 1.094420 0.881197
2.211555 1.095057 0.881460
2.192350 1.074800 0.883220
2.219566 1.073325 0.883552
2.230855 1.092484 0.861311
2.211496 1.093122 0.861574
2.192292 1.072865 0.863334
2.219508 1.071389 0.863666
1.993932 1.062005 0.857036
2.024876 1.061119 0.857066
2.033831 1.069926 0.878628
2.005268 1.070886 0.878931
1.994468 1.080415 0.849292
2.025412 1.079530 0.849323
2.034367 1.088336 0.870885
2.005804 1.089297 0.871188
2.024909 1.061112 0.857052
2.055843 1.060242 0.857014
2.062438 1.068960 0.878371
2.033864 1.069919 0.878613
2.025439 1.079535 0.849337
2.056372 1.078665 0.849299
2.062968 1.087383 0.870656
2.034394 1.088342 0.870899
2.394660 1.172711 0.874835
2.393179 1.120225 0.877788
2.429878 1.119156 0.877230
2.431235 1.171820 0.874211
2.394309 1.171588 0.854890
2.392828 1.119101 0.857843
2.429527 1.118033 0.857285
2.430883 1.170697 0.854266
2.431275 1.171836 0.874210
2.429918 1.119171 0.877229
2.466615 1.118104 0.876689
2.467852 1.170941 0.873545
2.430916 1.170679 0.854266
2.429560 1.118015 0.857286
2.466256 1.116947 0.856746
2.467493 1.169784 0.853602
2.393160 1.120184 0.877791
2.391682 1.067699 0.880793
2.428501 1.066455 0.880320
2.429859 1.119115 0.877233
2.392844 1.119037 0.857846
2.391366 1.066552 0.860849
2.428185 1.065308 0.860375
2.429543 1.117968 0.857289
2.429893 1.119127 0.877232
2.428535 1.066467 0.880319
2.465356 1.065223 0.879849
2.466589 1.118059 0.876692
2.429582 1.117954 0.857289
2.428224 1.065294 0.860376
2.465046 1.064050 0.859906
2.466279 1.116886 0.856749
2.391676 1.067121 0.880811
2.389855 1.036725 0.881040
2.425920 1.036370 0.880397
2.428495 1.065877 0.880338
2.391368 1.067048 0.860834
2.389547 1.036651 0.861063
2.425612 1.036297 0.860420
2.428187 1.065804 0.860361
2.428526 1.065819 0.880338
2.425951 1.036313 0.880397
2.462013 1.035959 0.879779
2.465348 1.064575 0.879868
2.428229 1.065860 0.860360
2.425654 1.036353 0.860419
2.461716 1.035999 0.859802
2.465051 1.064616 0.859891
2.321424 1.174473 0.876035
2.319698 1.122339 0.878830
2.356398 1.121274 0.878348
2.357998 1.173583 0.875420
2.321096 1.173391 0.856087
2.319370 1.121256 0.858882
2.356070 1.120192 0.858400
2.357671 1.172500 0.855472
2.358041 1.173595 0.875419
2.356441 1.121286 0.878346
2.393137 1.120219 0.877789
2.394618 1.172705 0.874836
2.357701 1.172486 0.855473
2.356101 1.120177 0.858400
2.392797 1.119109 0.857843
2.394278 1.171596 0.854890
2.319682 1.122298 0.878833
2.317960 1.070169 0.881756
2.354779 1.068924 0.881263
2.356382 1.121233 0.878350
2.319383 1.121192 0.858886
2.317661 1.069064 0.861808
2.354480 1.067819 0.861316
2.356083 1.120128 0.858403
2.356426 1.121238 0.878349
2.354822 1.068929 0.881262
2.391644 1.067685 0.880795
2.393122 1.120170 0.877792
2.356113 1.120121 0.858403
2.354509 1.067812 0.861316
2.391330 1.066568 0.860848
2.392809 1.119053 0.857846
2.317973 1.069746 0.881771
2.317666 1.037572 0.882420
2.353730 1.037216 0.881743
2.354792 1.068502 0.881278
2.317645 1.069403 0.861796
2.317338 1.037229 0.862445
2.353403 1.036873 0.861768
2.354464 1.068158 0.861304
2.354827 1.068434 0.881279
2.353766 1.037149 0.881743
2.389827 1.036793 0.881040
2.391648 1.067190 0.880811
2.354502 1.068225 0.861303
2.353440 1.036939 0.861767
2.389502 1.036584 0.861064
2.391323 1.066981 0.860835
2.923825 1.104281 0.864274
2.949692 1.104712 0.877468
2.951003 1.159793 0.875260
2.925086 1.159351 0.861795
2.932972 1.103313 0.846538
2.958839 1.103744 0.859731
2.960151 1.158824 0.857523
2.934234 1.158383 0.844059
2.949710 1.104713 0.877477
2.975612 1.105156 0.890967
2.976879 1.160225 0.888485
2.951021 1.159794 0.875269
2.958873 1.103744 0.859749
2.984775 1.104186 0.873238
2.986042 1.159255 0.870756
2.960185 1.158824 0.857541
2.922552 1.049126 0.866407
2.948468 1.049566 0.879871
2.949691 1.104641 0.877471
2.923824 1.104210 0.864277
2.931699 1.048189 0.848668
2.957615 1.048630 0.862132
2.958838 1.103705 0.859732
2.932971 1.103273 0.846539
2.948484 1.049568 0.879879
2.974334 1.050002 0.893108
2.975608 1.105085 0.890968
2.949706 1.104642 0.877479
2.957652 1.048629 0.862151
2.983503 1.049063 0.875381
2.984776 1.104147 0.873241
2.958875 1.103704 0.859751
