3.041790 0.874651 0.954643
3.042541 0.895827 0.953550
3.022228 0.899847 0.953541
3.020175 0.879085 0.953315
3.042882 0.873753 0.914708
3.043633 0.894929 0.913615
3.023320 0.898949 0.913606
3.021267 0.878187 0.913380
3.043818 0.895763 0.953546
3.044569 0.916939 0.952454
3.025558 0.920545 0.953763
3.023505 0.899783 0.953536
3.042358 0.895036 0.913619
3.043108 0.916213 0.912527
3.024097 0.919818 0.913836
3.022045 0.899056 0.913610
2.992033 0.900489 0.942049
2.991295 0.886039 0.942595
3.014847 0.900206 0.951900
3.016899 0.920968 0.952127
3.007846 0.898903 0.905385
3.007107 0.884452 0.905931
3.030660 0.898619 0.915237
3.032712 0.919382 0.915463
2.991633 0.885996 0.942739
2.990895 0.871545 0.943286
3.013132 0.879401 0.951819
3.015185 0.900163 0.952044
3.006767 0.884459 0.905787
3.006029 0.870008 0.906335
3.028266 0.877864 0.914867
3.030319 0.898626 0.915093
2.982687 0.892595 0.943127
2.982086 0.880641 0.943699
2.998183 0.886128 0.944193
2.998921 0.900579 0.943647
2.984683 0.890805 0.903257
2.984081 0.878851 0.903829
3.000179 0.884338 0.904323
3.000917 0.898789 0.903777
2.982249 0.880621 0.943707
2.981647 0.868668 0.944279
2.997608 0.871657 0.944749
2.998346 0.886108 0.944201
2.983917 0.878845 0.903822
2.983315 0.866892 0.904394
2.999276 0.869881 0.904863
3.000014 0.884332 0.904315
3.008100 0.887412 0.928447
3.007730 0.876429 0.928874
3.001014 0.878602 0.915041
3.001616 0.890555 0.914468
2.972228 0.889691 0.945907
2.971859 0.878708 0.946334
2.965143 0.880881 0.932501
2.965745 0.892835 0.931928
3.007604 0.876412 0.928621
3.007236 0.865429 0.929048
3.000286 0.866632 0.915360
3.000888 0.878586 0.914788
2.971985 0.878702 0.946589
2.971617 0.867718 0.947016
2.964666 0.868922 0.933327
2.965269 0.880875 0.932755
3.038187 0.832394 0.956656
3.038938 0.853571 0.955564
3.016021 0.858419 0.952922
3.013968 0.837657 0.952700
3.043477 0.831219 0.917065
3.044228 0.852396 0.915973
3.021310 0.857244 0.913331
3.019257 0.836482 0.913109
3.039919 0.853528 0.955671
3.040670 0.874705 0.954579
3.019055 0.879139 0.953252
3.017002 0.858377 0.953029
3.043249 0.852480 0.915864
3.044000 0.873657 0.914772
3.022385 0.878091 0.913444
3.020332 0.857328 0.913222
2.991267 0.871502 0.943436
2.990528 0.857051 0.943985
3.011452 0.858596 0.951746
3.013505 0.879358 0.951969
3.005653 0.870016 0.906185
3.004914 0.855565 0.906734
3.025838 0.857110 0.914495
3.027891 0.877872 0.914718
2.990942 0.857003 0.944142
2.990203 0.842552 0.944692
3.009813 0.837785 0.951681
3.011866 0.858548 0.951903
3.004498 0.855577 0.906578
3.003759 0.841127 0.907129
3.023369 0.836360 0.914117
3.025422 0.857122 0.914339
2.981809 0.868648 0.944286
2.981207 0.856695 0.944859
2.997031 0.857186 0.945305
2.997770 0.871637 0.944756
2.983151 0.866886 0.904388
2.982549 0.854933 0.904960
2.998373 0.855423 0.905406
2.999112 0.869874 0.904857
2.981367 0.856674 0.944864
2.980765 0.844721 0.945436
2.996453 0.842714 0.945861
2.997192 0.857165 0.945310
2.982387 0.854927 0.904955
2.981784 0.842974 0.905527
2.997472 0.840967 0.905952
2.998211 0.855418 0.905402
3.007105 0.865412 0.928796
3.006736 0.854428 0.929222
2.999553 0.854662 0.915679
3.000155 0.866615 0.915107
2.971746 0.867713 0.947269
2.971378 0.856729 0.947695
2.964194 0.856963 0.934153
2.964796 0.868916 0.933581
3.006602 0.854412 0.928971
3.006234 0.843429 0.929398
2.998815 0.842692 0.916000
2.999418 0.854645 0.915428
2.971511 0.856723 0.947947
2.971143 0.845740 0.948374
2.963725 0.845004 0.934976
2.964327 0.856957 0.934405
2.990663 0.842501 0.944854
2.989924 0.828050 0.945405
3.008220 0.816972 0.951622
3.010273 0.837734 0.951843
3.003295 0.841143 0.906967
3.002556 0.826692 0.907518
3.020852 0.815614 0.913736
3.022905 0.836376 0.913956
2.990437 0.827994 0.945570
2.989697 0.813543 0.946121
3.006679 0.796154 0.951569
3.008733 0.816916 0.951788
3.002040 0.826712 0.907353
3.001301 0.812262 0.907904
3.018282 0.794872 0.913352
3.020336 0.815634 0.913571
3.035069 0.790102 0.958554
3.035819 0.811279 0.957462
3.010297 0.816956 0.952194
3.008243 0.796194 0.951975
3.043588 0.788720 0.919537
3.044338 0.809896 0.918445
3.018816 0.815574 0.913177
3.016762 0.794811 0.912958
3.036576 0.811252 0.957613
3.037326 0.832428 0.956521
3.013107 0.837691 0.952565
3.011054 0.816929 0.952345
3.043584 0.809966 0.918293
3.044335 0.831142 0.917201
3.020116 0.836405 0.913245
3.018062 0.815643 0.913025
2.980925 0.844701 0.945440
2.980322 0.832748 0.946012
2.995874 0.828243 0.946416
2.996613 0.842694 0.945865
2.981623 0.842968 0.905524
2.981020 0.831015 0.906096
2.996572 0.826510 0.906500
2.997311 0.840961 0.905949
2.980481 0.832726 0.946015
2.979879 0.820773 0.946587
2.995294 0.813771 0.946970
2.996033 0.828222 0.946419
2.980859 0.831009 0.906094
2.980256 0.819056 0.906665
2.995671 0.812054 0.907049
2.996411 0.826505 0.906498
3.006095 0.843412 0.929148
3.005727 0.832429 0.929574
2.998074 0.830723 0.916322
2.998677 0.842676 0.915750
2.971280 0.845734 0.948624
2.970912 0.834750 0.949050
2.963259 0.833044 0.935798
2.963862 0.844997 0.935227
3.005585 0.832413 0.929326
3.005218 0.821431 0.929752
2.997329 0.818754 0.916646
2.997932 0.830707 0.916074
2.971053 0.834743 0.949299
2.970686 0.823760 0.949725
2.962798 0.821083 0.936619
2.963400 0.833037 0.936047
2.959414 0.889756 0.956398
2.959294 0.879461 0.957361
2.973960 0.879210 0.958045
2.974260 0.890211 0.957597
2.961971 0.887068 0.916611
2.961851 0.876774 0.917573
2.976517 0.876523 0.918258
2.976817 0.887523 0.917809
2.959669 0.878959 0.957409
2.959433 0.867942 0.957879
2.974034 0.867708 0.958541
2.974334 0.878708 0.958094
2.961476 0.877254 0.917526
2.961240 0.866236 0.917996
2.975841 0.866003 0.918658
2.976142 0.877003 0.918211
2.976295 0.889640 0.957654
2.975994 0.878639 0.958103
2.990532 0.878340 0.957563
2.990901 0.889323 0.957136
2.974812 0.888094 0.917752
2.974512 0.877094 0.918201
2.989049 0.876795 0.917660
2.989419 0.887778 0.917233
2.976025 0.878626 0.958103
2.975725 0.867625 0.958550
2.990195 0.867343 0.957989
2.990563 0.878326 0.957562
2.974480 0.877085 0.918202
2.974179 0.866085 0.918650
2.988650 0.865803 0.918089
2.989018 0.876786 0.917662
2.932791 0.890697 0.959187
2.932696 0.879645 0.959694
2.947206 0.879335 0.958892
2.947371 0.890370 0.958410
2.930589 0.888937 0.919326
2.930493 0.877886 0.919834
2.945004 0.877575 0.919032
2.945169 0.888610 0.918550
2.932732 0.879648 0.959692
2.932635 0.868596 0.960206
2.947078 0.868302 0.959382
2.947242 0.879337 0.958890
2.930457 0.877861 0.919837
2.930360 0.866809 0.920350
2.944802 0.866515 0.919527
2.944967 0.877550 0.919035
2.948728 0.890797 0.958265
2.948562 0.879762 0.958748
2.963001 0.879425 0.957254
2.963121 0.889719 0.956292
2.943842 0.888182 0.918692
2.943676 0.877147 0.919174
2.958115 0.876810 0.917681
2.958234 0.887105 0.916718
2.948211 0.879271 0.958814
2.948047 0.868236 0.959306
2.962414 0.867917 0.957791
2.962650 0.878934 0.957321
2.944027 0.877616 0.919108
2.943863 0.866581 0.919600
2.958230 0.866262 0.918085
2.958465 0.877279 0.917615
2.932662 0.868591 0.960204
2.932567 0.857540 0.960716
2.946940 0.857263 0.959881
2.947105 0.868297 0.959380
2.930332 0.866792 0.920353
2.930237 0.855741 0.920865
2.944610 0.855464 0.920029
2.944775 0.866498 0.919529
2.932593 0.857536 0.960715
2.932496 0.846485 0.961235
2.946803 0.846226 0.960380
2.946966 0.857260 0.959879
2.930211 0.855722 0.920867
2.930114 0.844671 0.921387
2.944421 0.844411 0.920533
2.944584 0.855445 0.920032
2.948092 0.868232 0.959301
2.947927 0.857198 0.959802
2.962223 0.856895 0.958256
2.962459 0.867913 0.957786
2.943817 0.866563 0.919606
2.943652 0.855529 0.920106
2.957948 0.855227 0.918560
2.958184 0.866244 0.918091
2.947977 0.857189 0.959797
2.947814 0.846155 0.960298
2.962041 0.845869 0.958724
2.962273 0.856887 0.958251
2.943601 0.855515 0.920112
2.943439 0.844481 0.920613
2.957666 0.844196 0.919039
2.957898 0.855213 0.918566
2.959458 0.867931 0.957880
2.959222 0.856914 0.958350
2.973759 0.856697 0.958991
2.974059 0.867697 0.958543
2.961215 0.866225 0.917995
2.960979 0.855208 0.918465
2.975516 0.854991 0.919106
2.975816 0.865992 0.918658
2.959248 0.856905 0.958352
2.959015 0.845888 0.958824
2.973484 0.845688 0.959441
2.973785 0.856688 0.958992
2.960952 0.855194 0.918465
2.960720 0.844177 0.918937
2.975189 0.843978 0.919554
2.975489 0.854978 0.919105
2.975756 0.867613 0.958549
2.975456 0.856613 0.958997
2.989858 0.856348 0.958415
2.990227 0.867331 0.957989
2.974147 0.866075 0.918651
2.973847 0.855075 0.919099
2.988249 0.854810 0.918517
2.988617 0.865793 0.918091
2.975489 0.856602 0.958996
2.975189 0.845601 0.959445
2.989523 0.845353 0.958840
2.989891 0.856336 0.958414
2.973813 0.855064 0.919101
2.973513 0.844064 0.919550
2.987847 0.843816 0.918945
2.988215 0.854799 0.918519
2.959042 0.845877 0.958826
2.958806 0.834860 0.959298
2.973210 0.834677 0.959893
2.973511 0.845678 0.959443
2.960693 0.844166 0.918937
2.960457 0.833148 0.919409
2.974862 0.832966 0.920004
2.975162 0.843966 0.919553
2.959050 0.835120 0.959294
2.958875 0.825564 0.959993
2.973154 0.823938 0.960337
2.973454 0.834938 0.959889
2.960213 0.832866 0.919414
2.960037 0.823310 0.920114
2.974317 0.821683 0.920458
2.974617 0.832684 0.920009
2.975224 0.845590 0.959444
2.974924 0.834590 0.959894
2.989190 0.834359 0.959265
2.989558 0.845342 0.958839
2.973477 0.844053 0.919552
2.973177 0.833053 0.920002
2.987443 0.832822 0.919373
2.987811 0.843805 0.918947
2.974959 0.834576 0.959893
2.974659 0.823575 0.960342
2.988858 0.823362 0.959690
2.989225 0.834345 0.959264
2.973141 0.833045 0.920004
2.972841 0.822044 0.920453
2.987039 0.821831 0.919801
2.987406 0.832814 0.919375
2.932528 0.846461 0.961234
2.932432 0.835409 0.961748
2.946669 0.835167 0.960873
2.946835 0.846201 0.960380
2.930082 0.844673 0.921389
2.929986 0.833622 0.921903
2.944223 0.833380 0.921028
2.944389 0.844414 0.920535
2.932376 0.833920 0.961763
2.932277 0.824268 0.961451
2.946426 0.824071 0.960651
2.946613 0.833678 0.960888
2.930042 0.835090 0.921888
2.929942 0.825437 0.921576
2.944092 0.825241 0.920776
2.944279 0.834848 0.921013
2.947857 0.846135 0.960294
2.947691 0.835101 0.960787
2.961848 0.834832 0.959192
2.962084 0.845849 0.958720
2.943395 0.844479 0.920618
2.943229 0.833446 0.921111
2.957386 0.833176 0.919516
2.957622 0.844194 0.919044
2.947052 0.834714 0.960861
2.946865 0.825106 0.960624
2.961034 0.824889 0.959965
2.961209 0.834445 0.959266
2.943868 0.833812 0.921038
2.943681 0.824204 0.920801
2.957850 0.823986 0.920143
2.958025 0.833543 0.919443
2.984130 0.911257 0.927267
2.971192 0.911324 0.927991
2.976007 0.908430 0.941765
2.990613 0.908113 0.941246
2.983218 0.872145 0.919130
2.970280 0.872212 0.919854
2.975094 0.869318 0.933627
2.989701 0.869001 0.933108
2.970369 0.911140 0.928800
2.957431 0.911208 0.929524
2.960337 0.907791 0.941375
2.975183 0.908246 0.942574
2.971076 0.872396 0.919045
2.958138 0.872463 0.919769
2.961044 0.869046 0.931620
2.975890 0.869502 0.932819
2.959020 0.911300 0.928979
2.946083 0.911377 0.929704
2.947533 0.908961 0.942804
2.961926 0.907884 0.940831
2.956521 0.872371 0.920315
2.943584 0.872448 0.921040
2.945034 0.870032 0.934140
2.959427 0.868954 0.932166
2.945286 0.911595 0.928777
2.932348 0.911661 0.929499
2.932156 0.909506 0.942654
2.946736 0.909179 0.941877
2.944353 0.872230 0.921969
2.931416 0.872296 0.922691
2.931224 0.870141 0.935846
2.945804 0.869814 0.935069
2.959745 0.805901 0.947516
2.945576 0.806119 0.948175
2.942967 0.801165 0.936450
2.955424 0.801240 0.935668
2.959135 0.842960 0.932580
2.944966 0.843177 0.933239
2.942357 0.838223 0.921514
2.954814 0.838298 0.920731
2.945650 0.806303 0.948614
2.931501 0.806500 0.949414
2.930585 0.801266 0.937673
2.943041 0.801349 0.936889
2.944866 0.842993 0.932802
2.930717 0.843190 0.933602
2.929801 0.837956 0.921861
2.942257 0.838039 0.921076
2.988068 0.803048 0.943901
2.973869 0.803262 0.944553
2.967724 0.800296 0.931580
2.980180 0.800371 0.930795
2.987822 0.842131 0.935577
2.973623 0.842344 0.936229
2.967478 0.839379 0.923256
2.979933 0.839454 0.922471
2.972731 0.803851 0.946637
2.958451 0.805478 0.946294
2.954130 0.800817 0.934445
2.966586 0.800885 0.933664
2.974735 0.841756 0.934145
2.960455 0.843382 0.933802
2.956134 0.838721 0.921953
2.968590 0.838790 0.921172
3.003212 0.829486 0.918976
2.987797 0.836488 0.918592
2.995685 0.839165 0.931698
2.987752 0.796330 0.935053
2.972337 0.803332 0.934669
2.980225 0.806009 0.947775
3.002479 0.836196 0.937966
3.026988 0.809127 0.930692
3.010006 0.826517 0.925244
2.973453 0.808962 0.941511
2.997961 0.781893 0.934237
2.980980 0.799283 0.928789
2.998522 0.872070 0.929592
2.992038 0.875214 0.915613
3.008272 0.883198 0.916133
2.981815 0.905050 0.944758
2.975332 0.908194 0.930779
2.991565 0.916179 0.931299
3.013147 0.884944 0.921094
3.038014 0.905422 0.931172
3.003397 0.873816 0.934553
2.986718 0.914452 0.926345
3.011584 0.934930 0.936423
2.976968 0.903324 0.939804
