2.986328 0.716546 0.812143
2.970512 0.715354 0.812232
2.970161 0.676841 0.813017
2.986560 0.675838 0.812536
2.985976 0.716249 0.792168
2.970161 0.715057 0.792257
2.969810 0.676544 0.793042
2.986208 0.675541 0.792562
2.982858 0.609369 0.814101
2.967263 0.612434 0.813930
2.965443 0.600547 0.814677
2.979243 0.595507 0.815124
2.982897 0.607990 0.794169
2.967303 0.611055 0.793997
2.965483 0.599168 0.794744
2.979283 0.594128 0.795192
2.979098 0.595051 0.815145
2.965297 0.600091 0.814697
2.950947 0.564709 0.815487
2.963319 0.557760 0.815759
2.979411 0.594535 0.795174
2.965611 0.599575 0.794726
2.951261 0.564193 0.795516
2.963632 0.557244 0.795788
2.977279 0.551651 0.788208
2.992050 0.590224 0.789040
2.988276 0.591153 0.807462
2.972497 0.553862 0.808076
2.959253 0.558923 0.783584
2.974024 0.597496 0.784416
2.970250 0.598425 0.802838
2.954471 0.561134 0.803452
2.992498 0.591465 0.788873
2.996433 0.605888 0.788553
2.992339 0.606256 0.806271
2.988725 0.592394 0.807294
2.973594 0.596307 0.784583
2.977529 0.610730 0.784263
2.973435 0.611098 0.801981
2.969821 0.597236 0.803005
2.998601 0.676080 0.788190
2.999081 0.717323 0.787548
2.996013 0.716389 0.803803
2.996245 0.675681 0.804197
2.978898 0.676098 0.784878
2.979377 0.717341 0.784237
2.976310 0.716407 0.800492
2.976542 0.675699 0.800885
3.018220 0.718917 0.794993
2.989605 0.717442 0.795867
2.989125 0.676198 0.796508
3.015367 0.677682 0.795368
3.017499 0.718700 0.775027
2.988883 0.717225 0.775901
2.988404 0.675981 0.776543
3.014646 0.677465 0.775402
3.012067 0.612964 0.796213
2.987113 0.608393 0.796388
2.983178 0.593970 0.796708
3.011945 0.591602 0.796240
3.011835 0.612797 0.776235
2.986881 0.608226 0.776410
2.982945 0.593803 0.776730
3.011713 0.591434 0.776262
3.011899 0.591301 0.796239
2.983131 0.593670 0.796707
2.968361 0.555097 0.795875
3.011288 0.559416 0.795844
3.011749 0.591682 0.776263
2.982982 0.594050 0.776731
2.968212 0.555477 0.775899
3.011139 0.559796 0.775868
3.014450 0.677803 0.795355
3.033337 0.676372 0.796921
3.040664 0.692705 0.796530
3.017304 0.719037 0.794980
3.015611 0.677332 0.775415
3.034498 0.675901 0.776980
3.041824 0.692234 0.776589
3.018464 0.718567 0.775040
3.147477 0.674725 0.793667
3.126240 0.674097 0.794855
3.124717 0.638388 0.795832
3.145853 0.638521 0.793749
3.145944 0.674499 0.773747
3.124706 0.673871 0.774935
3.123183 0.638162 0.775912
3.144320 0.638295 0.773829
3.145218 0.637690 0.793754
3.124081 0.637558 0.795837
3.122161 0.601990 0.791620
3.143602 0.601520 0.793112
3.144952 0.639053 0.773822
3.123815 0.638921 0.775905
3.121895 0.603353 0.771689
3.143336 0.602883 0.773180
2.957842 0.536668 0.798927
3.013632 0.534362 0.795246
3.011573 0.560060 0.795828
2.968645 0.555741 0.795859
2.957112 0.535703 0.778984
3.012902 0.533397 0.775303
3.010842 0.559094 0.775885
2.967915 0.554776 0.775915
2.947532 0.533621 0.815832
2.963476 0.557580 0.815764
2.951104 0.564530 0.815491
2.935643 0.541828 0.815978
2.947501 0.533405 0.795853
2.963445 0.557364 0.795785
2.951073 0.564313 0.795512
2.935612 0.541612 0.795999
2.976393 0.550430 0.789095
2.971611 0.552641 0.808963
2.955667 0.528682 0.809031
2.965589 0.531358 0.792163
2.960111 0.560085 0.782700
2.955329 0.562295 0.802568
2.939385 0.538336 0.802635
2.949308 0.541012 0.785768
3.011226 0.559190 0.795838
3.013286 0.533493 0.795256
3.056952 0.542389 0.795307
3.052174 0.563316 0.796530
3.011281 0.559971 0.775873
3.013341 0.534273 0.775291
3.057007 0.543170 0.775342
3.052229 0.564097 0.776565
3.053094 0.563139 0.796483
3.057872 0.542213 0.795261
3.099576 0.551538 0.791848
3.103779 0.564821 0.792647
3.051398 0.564285 0.776609
3.056176 0.543359 0.775386
3.097880 0.552684 0.771973
3.102083 0.565967 0.772772
3.054629 0.582603 0.797339
3.052894 0.562902 0.796482
3.103579 0.564584 0.792645
3.102923 0.582045 0.794815
3.053333 0.584259 0.777470
3.051598 0.564558 0.776613
3.102283 0.566240 0.772776
3.101628 0.583701 0.774946
3.160039 0.587130 0.783125
3.159714 0.566731 0.780596
3.162360 0.566837 0.803899
3.161648 0.593117 0.806174
3.179928 0.587488 0.781253
3.179603 0.567089 0.778724
3.182249 0.567195 0.802026
3.181537 0.593475 0.804302
3.099367 0.551284 0.791845
3.134178 0.558564 0.790299
3.143748 0.579407 0.791541
3.103570 0.564567 0.792644
3.098173 0.552955 0.771971
3.132983 0.560235 0.770425
3.142553 0.581077 0.771667
3.102375 0.566238 0.772770
3.133861 0.558440 0.790301
3.169888 0.565937 0.789588
3.170213 0.586336 0.792117
3.143431 0.579283 0.791544
3.133369 0.560376 0.770422
3.169395 0.567873 0.769708
3.169721 0.588272 0.772238
3.142939 0.581219 0.771664
3.103671 0.564033 0.792577
3.143849 0.578873 0.791475
3.118644 0.587878 0.794857
3.103016 0.581494 0.794747
3.102267 0.566802 0.772840
3.142446 0.581642 0.771738
3.117240 0.590646 0.775120
3.101612 0.584263 0.775010
3.143961 0.602620 0.793113
3.122521 0.603091 0.791622
3.118452 0.589722 0.794956
3.143657 0.580717 0.791573
3.142972 0.601729 0.773178
3.121531 0.602199 0.771686
3.117463 0.588830 0.775020
3.142668 0.579826 0.771638
3.032464 0.598843 0.799076
3.029695 0.611828 0.798252
3.010732 0.613033 0.796136
3.010610 0.591670 0.796163
3.034950 0.598543 0.779253
3.032181 0.611528 0.778429
3.013218 0.612733 0.776314
3.013095 0.591370 0.776341
3.036646 0.590191 0.798594
3.032769 0.598373 0.799106
3.010915 0.591200 0.796193
3.010304 0.559314 0.795799
3.038525 0.590794 0.778712
3.034648 0.598975 0.779224
3.012794 0.591803 0.776311
3.012183 0.559917 0.775916
3.054000 0.582680 0.797368
3.037658 0.589730 0.798614
3.011317 0.558853 0.795819
3.052265 0.562979 0.796510
3.053884 0.584183 0.777445
3.037542 0.591233 0.778691
3.011201 0.560357 0.775896
3.052149 0.564482 0.776587
2.988026 0.917225 0.806555
2.988067 0.962268 0.805435
2.971003 0.962972 0.805911
2.970902 0.916912 0.807700
2.987072 0.916590 0.786608
2.987114 0.961633 0.785488
2.970050 0.962337 0.785964
2.969949 0.916276 0.787753
2.987932 0.962120 0.805444
2.987215 1.007156 0.804810
2.970918 1.008810 0.805447
2.970868 0.962824 0.805920
2.987249 0.961872 0.785477
2.986532 1.006908 0.784843
2.970235 1.008562 0.785480
2.970185 0.962576 0.785953
2.987326 1.007756 0.804782
2.984975 1.052606 0.801842
2.971479 1.055060 0.802282
2.971029 1.009410 0.805418
2.986420 1.006400 0.784868
2.984068 1.051250 0.781929
2.970572 1.053704 0.782369
2.970122 1.008054 0.785505
3.020916 0.918274 0.794028
3.020126 0.957683 0.793640
2.989786 0.961675 0.795181
2.989730 0.917307 0.795196
3.020032 0.918170 0.774068
3.019242 0.957579 0.773679
2.988902 0.961571 0.775220
2.988846 0.917203 0.775236
3.020061 0.957852 0.793640
3.021721 1.012010 0.793094
2.990883 1.006192 0.793897
2.989722 0.961844 0.795181
3.019307 0.957502 0.773678
3.020966 1.011660 0.773131
2.990129 1.005842 0.773934
2.988968 0.961494 0.775219
3.021567 1.011960 0.793099
3.026937 1.051474 0.792737
2.988833 1.050446 0.793520
2.990729 1.006142 0.793902
3.021123 1.011801 0.773125
3.026493 1.051315 0.772763
2.988390 1.050287 0.773546
2.990286 1.005983 0.773928
2.999137 0.917265 0.786794
2.999194 0.961633 0.786778
2.997466 0.961960 0.797027
2.997424 0.916917 0.798147
2.979406 0.917246 0.783651
2.979462 0.961615 0.783635
2.977734 0.961941 0.793884
2.977693 0.916898 0.795004
2.999015 0.961673 0.787649
3.000176 1.006021 0.786364
2.996570 1.007036 0.797264
2.997287 0.961999 0.797898
2.979641 0.961665 0.782763
2.980803 1.006013 0.781479
2.977197 1.007027 0.792378
2.977913 0.961991 0.793012
2.999780 1.006639 0.787545
2.997884 1.050943 0.787163
2.993822 1.052504 0.795505
2.996174 1.007654 0.798445
2.981197 1.005484 0.780295
2.979301 1.049788 0.779913
2.975240 1.051349 0.788255
2.977591 1.006498 0.791195
3.158281 1.006699 0.793963
3.135590 1.006814 0.795761
3.133045 0.954495 0.796018
3.157785 0.954175 0.793816
3.156602 1.006726 0.774054
3.133911 1.006841 0.775852
3.131366 0.954523 0.776109
3.156106 0.954203 0.773907
3.018665 0.957745 0.793595
3.038643 0.956164 0.795352
3.040538 1.012826 0.795520
3.020325 1.011903 0.793048
3.020754 0.957610 0.773724
3.040731 0.956029 0.775482
3.042627 1.012691 0.775650
3.022413 1.011768 0.773178
2.988050 0.917121 0.806556
2.970926 0.916808 0.807702
2.970910 0.866531 0.808744
2.987603 0.867108 0.808169
2.987048 0.916598 0.786608
2.969925 0.916285 0.787754
2.969909 0.866008 0.788796
2.986601 0.866585 0.788221
2.987200 0.867025 0.808183
2.970507 0.866447 0.808758
2.970426 0.816186 0.809509
2.986692 0.816992 0.809731
2.987004 0.866568 0.788209
2.970311 0.865991 0.788784
2.970231 0.815730 0.789536
2.986497 0.816535 0.789757
2.986546 0.816989 0.809731
2.970280 0.816183 0.809510
2.970262 0.765847 0.811064
2.986284 0.767025 0.810944
2.986643 0.816438 0.789759
2.970377 0.815632 0.789538
2.970359 0.765296 0.791092
2.986380 0.766474 0.790972
2.986380 0.766933 0.810946
2.970359 0.765756 0.811066
2.970385 0.715485 0.812231
2.986200 0.716677 0.812142
2.986284 0.766465 0.790972
2.970263 0.765287 0.791092
2.970288 0.715016 0.792257
2.986104 0.716208 0.792168
3.018176 0.718887 0.794994
3.019501 0.768678 0.794755
2.989560 0.767400 0.795740
2.989561 0.717411 0.795869
3.017545 0.718821 0.775025
3.018870 0.768613 0.774785
2.988929 0.767335 0.775770
2.988930 0.717346 0.775899
3.019540 0.768735 0.794753
3.020754 0.818502 0.794433
2.989608 0.817566 0.795626
2.989600 0.767457 0.795738
3.018831 0.768657 0.774786
3.020045 0.818424 0.774465
2.988899 0.817489 0.775658
2.988891 0.767379 0.775771
3.020786 0.818553 0.794431
3.020824 0.868364 0.794214
2.989656 0.867604 0.795436
2.989639 0.817618 0.795624
3.020014 0.818473 0.774466
3.020052 0.868283 0.774249
2.988884 0.867523 0.775471
2.988868 0.817537 0.775659
3.020820 0.868416 0.794214
3.020856 0.918218 0.794031
2.989670 0.917251 0.795199
2.989651 0.867656 0.795436
3.020057 0.868332 0.774249
3.020093 0.918134 0.774066
2.988907 0.917167 0.775234
2.988888 0.867572 0.775471
2.999044 0.717385 0.787751
2.999044 0.767374 0.787623
2.996157 0.766707 0.802810
2.995977 0.716451 0.804006
2.979414 0.717371 0.784033
2.979413 0.767360 0.783904
2.976526 0.766693 0.799092
2.976346 0.716437 0.800288
2.999046 0.767415 0.787614
2.999053 0.817525 0.787501
2.996421 0.816712 0.801589
2.996158 0.766748 0.802801
2.979412 0.767419 0.783912
2.979419 0.817529 0.783799
2.976787 0.816716 0.797887
2.976524 0.766752 0.799099
2.999072 0.817555 0.787399
2.999089 0.867542 0.787211
2.996947 0.866776 0.799939
2.996439 0.816743 0.801487
2.979401 0.817598 0.783899
2.979417 0.867584 0.783711
2.977276 0.866818 0.796439
2.976768 0.816785 0.797987
2.999118 0.867596 0.787038
2.999136 0.917192 0.786802
2.997423 0.916843 0.798154
2.996976 0.866830 0.799767
2.979389 0.867630 0.783881
2.979407 0.917225 0.783645
2.977694 0.916877 0.794998
2.977247 0.866864 0.796610
3.018047 0.718891 0.794998
3.053045 0.719119 0.794424
3.060821 0.768468 0.794165
3.019371 0.768683 0.794758
3.017742 0.718818 0.775020
3.052741 0.719046 0.774447
3.060517 0.768395 0.774188
3.019067 0.768610 0.774780
3.053153 0.719037 0.794422
3.104198 0.720760 0.793001
3.104655 0.769660 0.793533
3.060929 0.768386 0.794163
3.052718 0.719129 0.774447
3.103763 0.720852 0.773026
3.104220 0.769752 0.773558
3.060494 0.768478 0.774188
3.104073 0.720734 0.793002
3.147105 0.720420 0.792978
3.150968 0.769123 0.793139
3.104530 0.769634 0.793535
3.103981 0.720880 0.773023
3.147013 0.720566 0.772999
3.150875 0.769269 0.773159
3.104437 0.769780 0.773555
3.019314 0.768716 0.794758
3.060764 0.768501 0.794166
3.060783 0.817614 0.794274
3.020528 0.818484 0.794438
3.019129 0.768676 0.774779
3.060579 0.768461 0.774187
3.060598 0.817573 0.774295
3.020343 0.818443 0.774459
3.060835 0.768437 0.794165
3.104560 0.769711 0.793535
3.105227 0.818541 0.793850
3.060854 0.817550 0.794274
3.060593 0.768525 0.774187
3.104319 0.769799 0.773557
3.104986 0.818629 0.773871
3.060612 0.817638 0.774295
3.104568 0.769688 0.793535
3.151007 0.769178 0.793139
3.154662 0.817890 0.793445
3.105236 0.818518 0.793850
3.104403 0.769823 0.773556
3.150841 0.769312 0.773160
3.154497 0.818024 0.773466
3.105070 0.818652 0.773871
3.020480 0.818558 0.794438
3.060735 0.817688 0.794275
3.063293 0.867264 0.794034
3.020518 0.868369 0.794221
3.020393 0.818468 0.774458
3.060648 0.817598 0.774295
3.063206 0.867174 0.774054
3.020431 0.868279 0.774241
3.060789 0.817652 0.794274
3.105163 0.818643 0.793851
3.108249 0.866892 0.793968
3.063347 0.867228 0.794033
3.060680 0.817633 0.774295
3.105054 0.818624 0.773871
3.108139 0.866873 0.773989
3.063238 0.867209 0.774054
3.105233 0.818600 0.793850
3.154659 0.817973 0.793445
3.155800 0.866816 0.793618
3.108318 0.866849 0.793968
3.105077 0.818667 0.773871
3.154504 0.818039 0.773466
3.155644 0.866883 0.773638
3.108163 0.866916 0.773988
3.020513 0.868404 0.794220
3.063288 0.867299 0.794033
3.065846 0.916915 0.793903
3.020549 0.918206 0.794038
3.020438 0.868343 0.774241
3.063214 0.867238 0.774054
3.065771 0.916854 0.773923
3.020474 0.918145 0.774058
3.063298 0.867283 0.794033
3.108199 0.866947 0.793968
3.111289 0.915177 0.793948
3.065856 0.916899 0.793903
3.063293 0.867252 0.774054
3.108194 0.866916 0.773988
3.111284 0.915147 0.773968
3.065851 0.916868 0.773923
3.108278 0.866895 0.793968
3.155759 0.866862 0.793618
3.156894 0.915711 0.793971
3.111367 0.915126 0.793947
3.108207 0.866967 0.773988
3.155689 0.866934 0.773638
3.156824 0.915782 0.773992
3.111297 0.915197 0.773968
3.106478 0.695945 0.795097
3.119710 0.689515 0.795715
3.147048 0.721305 0.792943
3.104016 0.721618 0.792967
3.106484 0.694244 0.775189
3.119716 0.687814 0.775808
3.147055 0.719604 0.773036
3.104023 0.719918 0.773060
3.120511 0.688693 0.795721
3.126254 0.674063 0.794854
3.147492 0.674690 0.793666
3.147849 0.720483 0.792949
3.118947 0.688603 0.775802
3.124691 0.673972 0.774936
3.145928 0.674600 0.773747
3.146285 0.720393 0.773030
3.053224 0.719988 0.794377
3.053285 0.697925 0.796694
3.106731 0.696037 0.795085
3.104269 0.721711 0.792956
3.052645 0.718105 0.774494
3.052705 0.696042 0.776811
3.106151 0.694155 0.775202
3.103689 0.719829 0.773073
3.041258 0.693281 0.796517
3.052958 0.697778 0.796712
3.052897 0.719841 0.794395
3.017898 0.719613 0.794968
3.041258 0.691689 0.776601
3.052957 0.696187 0.776795
3.052896 0.718250 0.774478
3.017898 0.718022 0.775052
3.133005 0.954445 0.796021
3.128274 0.940844 0.796159
3.157671 0.915772 0.793940
3.157745 0.954125 0.793820
3.131402 0.954495 0.776106
3.126671 0.940893 0.776243
3.156068 0.915821 0.774025
3.156142 0.954175 0.773904
3.127610 0.939888 0.796143
3.115903 0.932833 0.796305
3.111480 0.914232 0.793901
3.157007 0.914817 0.793925
3.127305 0.941818 0.776259
3.115598 0.934763 0.776421
3.111174 0.916162 0.774017
3.156701 0.916747 0.774041
3.065780 0.916117 0.793872
3.060693 0.935443 0.795599
3.047065 0.939594 0.795700
3.020483 0.917408 0.794006
3.065849 0.917723 0.773956
3.060762 0.937049 0.775684
3.047134 0.941200 0.775785
3.020552 0.919014 0.774091
3.046336 0.940430 0.795705
3.038941 0.956073 0.795379
3.018964 0.957654 0.793622
3.019754 0.918244 0.794010
3.047829 0.940394 0.775781
3.040435 0.956036 0.775455
3.020457 0.957618 0.773698
3.021248 0.918208 0.774086
3.115590 0.932713 0.796293
3.060647 0.935159 0.795572
3.065734 0.915833 0.793844
3.111167 0.914112 0.793889
3.115832 0.934881 0.776433
3.060888 0.937327 0.775712
3.065975 0.918001 0.773984
3.111408 0.916280 0.774028
3.149065 1.174212 0.787358
3.188533 1.168008 0.787554
3.185867 1.176056 0.769197
3.148056 1.179913 0.768434
3.146714 1.155522 0.780698
3.186182 1.149318 0.780894
3.183517 1.157366 0.762537
3.145706 1.161223 0.761773
3.188682 1.167925 0.787727
3.228436 1.163279 0.787381
3.223745 1.170510 0.768020
3.186017 1.175973 0.769370
3.186111 1.149391 0.780721
3.225865 1.144746 0.780375
3.221174 1.151976 0.761014
3.183445 1.157439 0.762364
3.228579 1.163525 0.786577
3.268332 1.158877 0.786216
3.261708 1.164679 0.765461
3.223888 1.170755 0.767216
3.225800 1.144490 0.781177
3.265554 1.139842 0.780816
3.258929 1.145644 0.760061
3.221109 1.151721 0.761816
3.268372 1.159077 0.785340
3.308133 1.154428 0.784918
3.299563 1.158843 0.762841
3.261748 1.164879 0.764586
3.265592 1.139632 0.781689
3.305353 1.134983 0.781267
3.296782 1.139397 0.759190
3.258967 1.145433 0.760934
3.296817 1.144471 0.783968
3.296810 1.122051 0.784082
3.299352 1.118946 0.807035
3.298335 1.140797 0.806610
3.316719 1.144905 0.782261
3.316713 1.122484 0.782374
3.319254 1.119379 0.805327
3.318237 1.141231 0.804903
3.296857 1.122028 0.784512
3.296859 1.099606 0.784619
3.300439 1.096218 0.807785
3.299399 1.118924 0.807466
3.316667 1.122461 0.781944
3.316668 1.100039 0.782051
3.320249 1.096651 0.805216
3.319208 1.119357 0.804897
3.296922 1.099591 0.785036
3.296924 1.077167 0.785140
3.301534 1.075214 0.808721
3.300502 1.096203 0.808201
3.316606 1.100010 0.781635
3.316608 1.077587 0.781739
3.321218 1.075633 0.805321
3.320186 1.096622 0.804800
3.306759 1.077409 0.793418
3.306757 1.099833 0.793313
3.260587 1.094794 0.793444
3.258149 1.067439 0.793517
3.306721 1.077340 0.773438
3.306720 1.099764 0.773334
3.260549 1.094725 0.773464
3.258112 1.067370 0.773537
3.306776 1.099847 0.793313
3.306775 1.122269 0.793206
3.263044 1.122164 0.793421
3.260606 1.094808 0.793444
3.306703 1.099799 0.773334
3.306701 1.122221 0.773227
3.262970 1.122116 0.773441
3.260532 1.094760 0.773464
3.306816 1.122268 0.793206
3.306822 1.144688 0.793093
3.267061 1.149337 0.793515
3.263084 1.122163 0.793421
3.306664 1.122272 0.773227
3.306670 1.144693 0.773114
3.266909 1.149342 0.773535
3.262932 1.122167 0.773442
3.258115 1.067410 0.793517
3.260553 1.094765 0.793444
3.214382 1.089728 0.793629
3.209507 1.057440 0.793659
3.258051 1.067384 0.773537
3.260488 1.094738 0.773464
3.214318 1.089701 0.773649
3.209442 1.057413 0.773679
3.260569 1.094779 0.793444
3.263006 1.122134 0.793421
3.219275 1.122029 0.793636
3.214398 1.089742 0.793629
3.260480 1.094785 0.773464
3.262917 1.122140 0.773442
3.219185 1.122035 0.773657
3.214309 1.089748 0.773649
3.263032 1.122097 0.793421
3.267008 1.149272 0.793515
3.227254 1.153919 0.793877
3.219300 1.121992 0.793636
3.262901 1.122237 0.773442
3.266878 1.149411 0.773536
3.227124 1.154059 0.773898
3.219170 1.122132 0.773657
3.209459 1.057412 0.793659
3.214335 1.089700 0.793629
3.168165 1.084662 0.793811
3.160849 1.047441 0.793771
3.209395 1.057426 0.773679
3.214271 1.089714 0.773649
3.168100 1.084676 0.773831
3.160785 1.047455 0.773791
3.214354 1.089727 0.793629
3.219230 1.122015 0.793637
3.175499 1.121910 0.793851
3.168184 1.084689 0.793811
3.214264 1.089757 0.773649
3.219140 1.122044 0.773657
3.175409 1.121939 0.773872
3.168094 1.084718 0.773831
3.219254 1.121957 0.793636
3.227208 1.153885 0.793877
3.187455 1.158531 0.794222
3.175523 1.121852 0.793851
3.219132 1.122171 0.773658
3.227086 1.154098 0.773898
3.187332 1.158744 0.774244
3.175400 1.122066 0.773872
2.986139 1.212206 0.783203
3.016816 1.211394 0.784297
3.013177 1.215743 0.750843
2.985772 1.214807 0.776501
2.984797 1.192541 0.779933
3.015475 1.191729 0.781027
3.011836 1.196078 0.747573
2.984431 1.195142 0.773230
3.016557 1.211501 0.783579
3.047255 1.211367 0.784145
3.046190 1.214412 0.740106
3.012918 1.215850 0.750124
3.015795 1.191621 0.781728
3.046493 1.191487 0.782295
3.045428 1.194532 0.738256
3.012156 1.195970 0.748274
3.133556 1.087896 0.793515
3.168045 1.084671 0.793811
3.175360 1.121892 0.793851
3.140688 1.126146 0.793802
3.133663 1.087963 0.773535
3.168152 1.084737 0.773831
3.175467 1.121958 0.773872
3.140795 1.126213 0.773822
3.140707 1.126149 0.793802
3.175380 1.121894 0.793851
3.187311 1.158573 0.794223
3.147843 1.164777 0.794027
3.140792 1.126285 0.773823
3.175465 1.122031 0.773872
3.187397 1.158709 0.774243
3.147928 1.164913 0.774047
3.047253 1.122552 0.792760
3.047564 1.156213 0.792836
2.984706 1.154660 0.793377
2.987828 1.120553 0.793595
3.047030 1.122500 0.772782
3.047340 1.156162 0.772857
2.984483 1.154608 0.773398
2.987604 1.120502 0.773617
3.057765 1.189891 0.783068
3.057471 1.156143 0.783004
3.058282 1.165810 0.742853
3.058469 1.190970 0.742964
3.037789 1.190056 0.782713
3.037495 1.156307 0.782649
3.038306 1.165974 0.742498
3.038493 1.191134 0.742609
3.057470 1.156142 0.783047
3.057160 1.122480 0.782972
3.058280 1.140561 0.742744
3.058281 1.165809 0.742897
3.037496 1.156249 0.782605
3.037185 1.122587 0.782529
3.038305 1.140668 0.742302
3.038306 1.165916 0.742454
3.026900 1.051416 0.792738
3.037106 1.086930 0.792704
2.988346 1.085412 0.793501
2.988797 1.050388 0.793521
3.026536 1.051451 0.772761
3.036742 1.086965 0.772727
2.987982 1.085447 0.773524
2.988433 1.050423 0.773544
3.037081 1.086940 0.792704
3.047292 1.122449 0.792760
2.987866 1.120451 0.793595
2.988321 1.085422 0.793501
3.036777 1.087025 0.772727
3.046988 1.122534 0.772782
2.987562 1.120535 0.773617
2.988017 1.085506 0.773524
3.131902 1.020323 0.795978
3.135516 1.006874 0.795767
3.158206 1.006759 0.793969
3.161540 1.047406 0.793743
3.130373 1.020309 0.776057
3.133987 1.006860 0.775846
3.156678 1.006745 0.774048
3.160011 1.047392 0.773821
3.126599 1.050438 0.793607
3.121129 1.028539 0.795945
3.131269 1.021159 0.795972
3.160907 1.048242 0.793737
3.126313 1.048784 0.773698
3.120843 1.026885 0.776035
3.130984 1.019505 0.776063
3.160621 1.046588 0.773827
3.061186 1.033118 0.795226
3.091019 1.031062 0.795619
3.094132 1.051921 0.793052
3.061926 1.052967 0.792615
3.061325 1.030584 0.775408
3.091157 1.028528 0.775801
3.094270 1.049387 0.773234
3.062064 1.050434 0.772797
3.091051 1.030945 0.795633
3.120891 1.028867 0.795913
3.126361 1.050766 0.793575
3.094164 1.051804 0.793066
3.091188 1.028641 0.775787
3.121028 1.026563 0.776067
3.126497 1.048462 0.773729
3.094300 1.049501 0.773220
3.026643 1.052505 0.792679
3.048507 1.027392 0.795295
3.061113 1.032951 0.795246
3.061853 1.052800 0.792634
3.026873 1.050305 0.772822
3.048737 1.025192 0.775438
3.061343 1.030750 0.775388
3.062083 1.050600 0.772777
3.040583 1.013143 0.795518
3.047603 1.026620 0.795300
3.025739 1.051734 0.792684
3.020369 1.012220 0.793047
3.042590 1.012456 0.775651
3.049610 1.025934 0.775433
3.027746 1.051047 0.772817
3.022376 1.011533 0.773179
3.068081 1.100379 0.783283
3.100593 1.088716 0.783706
3.109107 1.088605 0.742499
3.088235 1.096012 0.742375
3.061386 1.081599 0.781970
3.093898 1.069937 0.782393
3.102413 1.069825 0.741186
3.081541 1.077233 0.741062
3.100643 1.088698 0.783710
3.133164 1.077032 0.784140
3.129972 1.081053 0.742617
3.109157 1.088587 0.742503
3.093902 1.069936 0.782390
3.126424 1.058270 0.782819
3.123232 1.062291 0.741297
3.102416 1.069824 0.741183
3.156850 0.915833 0.793971
3.208279 0.918726 0.794286
3.207841 0.965765 0.794075
3.156925 0.954186 0.793851
3.156966 0.915755 0.773992
3.208396 0.918649 0.774306
3.207957 0.965688 0.774095
3.157041 0.954109 0.773871
3.208343 0.918755 0.794286
3.259770 0.921651 0.794585
3.258764 0.971681 0.794184
3.207905 0.965794 0.794075
3.208434 0.918631 0.774307
3.259860 0.921526 0.774606
3.258854 0.971556 0.774205
3.207995 0.965670 0.774096
3.259797 0.921681 0.794585
3.311225 0.924577 0.794963
3.309644 0.977617 0.794438
3.258791 0.971711 0.794184
3.259936 0.921505 0.774607
3.311363 0.924401 0.774984
3.309783 0.977441 0.774459
3.258930 0.971535 0.774205
3.156966 0.954193 0.793851
3.207883 0.965772 0.794075
3.207636 1.012839 0.793937
3.157462 1.006716 0.793997
3.156999 0.954194 0.773871
3.207915 0.965773 0.774095
3.207668 1.012840 0.773957
3.157495 1.006718 0.774017
3.207932 0.965819 0.794075
3.258791 0.971705 0.794184
3.257874 1.021988 0.793947
3.207685 1.012886 0.793937
3.207967 0.965742 0.774095
3.258826 0.971629 0.774204
3.257909 1.021911 0.773967
3.207720 1.012809 0.773957
3.258829 0.971749 0.794184
3.309682 0.977656 0.794438
3.308086 1.031188 0.793888
3.257912 1.022032 0.793947
3.258890 0.971599 0.774205
3.309743 0.977506 0.774459
3.308147 1.031038 0.773909
3.257973 1.021882 0.773968
3.157488 1.006822 0.793997
3.207662 1.012944 0.793937
3.209430 1.057439 0.793659
3.160821 1.047468 0.793771
3.157472 1.006704 0.774017
3.207646 1.012827 0.773957
3.209415 1.057322 0.773679
3.160805 1.047351 0.773791
3.207701 1.012973 0.793937
3.257890 1.022075 0.793947
3.258079 1.067438 0.793517
3.209470 1.057468 0.793658
3.207705 1.012816 0.773957
3.257894 1.021918 0.773967
3.258083 1.067281 0.773538
3.209474 1.057310 0.773679
3.257938 1.022104 0.793946
3.308113 1.031260 0.793888
3.306737 1.077437 0.793417
3.258127 1.067467 0.793517
3.257944 1.021908 0.773967
3.308119 1.031064 0.773909
3.306743 1.077241 0.773438
3.258133 1.067271 0.773538
3.155692 0.866854 0.793618
3.206689 0.874123 0.794185
3.208255 0.918596 0.794286
3.156826 0.915703 0.793971
3.155854 0.866947 0.773639
3.206852 0.874216 0.774206
3.208418 0.918689 0.774307
3.156989 0.915795 0.773992
3.206751 0.874167 0.794186
3.257609 0.875247 0.794605
3.259745 0.921536 0.794586
3.208318 0.918640 0.794286
3.206891 0.874179 0.774207
3.257749 0.875259 0.774626
3.259885 0.921548 0.774606
3.208458 0.918652 0.774307
3.257650 0.875269 0.794606
3.308505 0.876356 0.795042
3.311214 0.924454 0.794964
3.259786 0.921558 0.794586
3.257810 0.875241 0.774626
3.308665 0.876327 0.775063
3.311374 0.924425 0.774984
3.259946 0.921529 0.774607
3.147065 0.720429 0.792978
3.175162 0.752099 0.793085
3.182856 0.784111 0.793572
3.150928 0.769132 0.793139
3.147127 0.720580 0.772999
3.175225 0.752250 0.773106
3.182918 0.784263 0.773592
3.150990 0.769283 0.773159
3.150862 0.769202 0.793139
3.182790 0.784181 0.793572
3.194127 0.827617 0.793873
3.154518 0.817914 0.793444
3.151069 0.769300 0.773160
3.182997 0.784279 0.773593
3.194334 0.827715 0.773894
3.154725 0.818012 0.773466
3.154526 0.817974 0.793445
3.194134 0.827677 0.793873
3.206663 0.874086 0.794185
3.155666 0.866817 0.793617
3.154732 0.818046 0.773466
3.194341 0.827749 0.773894
3.206869 0.874158 0.774206
3.155872 0.866889 0.773639
3.147229 0.720296 0.792976
3.200688 0.717447 0.792139
3.195599 0.751299 0.792992
3.175326 0.751966 0.793083
3.146995 0.720671 0.773000
3.200454 0.717822 0.772164
3.195365 0.751674 0.773017
3.175092 0.752341 0.773107
3.175212 0.752007 0.793084
3.195485 0.751340 0.792993
3.210672 0.784515 0.793697
3.182906 0.784019 0.793570
3.175229 0.752366 0.773107
3.195502 0.751699 0.773017
3.210689 0.784874 0.773720
3.182922 0.784378 0.773594
3.182847 0.784166 0.793572
3.210614 0.784662 0.793699
3.232058 0.829001 0.794288
3.194184 0.827601 0.793873
3.183008 0.784308 0.773593
3.210775 0.784804 0.773720
3.232219 0.829143 0.774309
3.194345 0.827744 0.773894
3.194189 0.827688 0.793874
3.232063 0.829088 0.794288
3.257576 0.875178 0.794605
3.206718 0.874098 0.794186
3.194375 0.827747 0.773895
3.232249 0.829147 0.774309
3.257762 0.875237 0.774626
3.206904 0.874157 0.774207
3.195520 0.751275 0.792992
3.200609 0.717423 0.792139
3.232090 0.773468 0.793480
3.210707 0.784450 0.793696
3.195504 0.751741 0.773017
3.200593 0.717890 0.772164
3.232073 0.773935 0.773505
3.210691 0.784917 0.773721
3.210669 0.784585 0.793698
3.232052 0.773603 0.793482
3.265748 0.828066 0.794636
3.232113 0.828924 0.794287
3.210780 0.784876 0.773721
3.232162 0.773894 0.773505
3.265858 0.828357 0.774658
3.232224 0.829215 0.774310
3.232107 0.829109 0.794289
3.265741 0.828251 0.794637
3.308474 0.876285 0.795042
3.257619 0.875199 0.794605
3.232292 0.829127 0.774310
3.265927 0.828269 0.774658
3.308659 0.876304 0.775063
3.257805 0.875217 0.774626
3.143295 0.579817 0.791584
3.170077 0.586869 0.792158
3.172390 0.619766 0.793108
3.143599 0.601720 0.793124
3.143081 0.580734 0.771626
3.169863 0.587786 0.772200
3.172176 0.620684 0.773150
3.143385 0.602637 0.773166
3.143582 0.601976 0.793133
3.172373 0.620023 0.793117
3.181061 0.652674 0.793993
3.145198 0.638147 0.793775
3.143409 0.602443 0.773159
3.172200 0.620489 0.773143
3.180888 0.653140 0.774019
3.145025 0.638613 0.773801
3.145081 0.638496 0.793778
3.180944 0.653023 0.793996
3.190420 0.685421 0.793558
3.146705 0.674700 0.793696
3.145153 0.638333 0.773799
3.181016 0.652860 0.774016
3.190491 0.685258 0.773579
3.146777 0.674537 0.773717
3.146825 0.674918 0.793692
3.190540 0.685639 0.793554
3.200641 0.717861 0.792138
3.147182 0.720710 0.792975
3.146668 0.674393 0.773719
3.190382 0.685113 0.773582
3.200484 0.717336 0.772165
3.147025 0.720185 0.773002
3.191613 0.720850 0.785103
3.181511 0.688627 0.786520
3.189782 0.694955 0.808093
3.202345 0.726655 0.808158
3.209570 0.714358 0.779222
3.199469 0.682135 0.780638
3.207740 0.688464 0.802211
3.220302 0.720164 0.802276
3.181258 0.688124 0.786236
3.171782 0.655727 0.786674
3.179635 0.661802 0.808105
3.189529 0.694453 0.807809
3.199701 0.682573 0.780923
3.190225 0.650175 0.781360
3.198078 0.656251 0.802791
3.207972 0.688901 0.802496
3.171664 0.655459 0.786524
3.162976 0.622808 0.785649
3.170334 0.628790 0.808606
3.179517 0.661535 0.807955
3.190325 0.650377 0.781510
3.181637 0.617726 0.780634
3.188995 0.623707 0.803592
3.198178 0.656453 0.802941
3.162539 0.621732 0.784654
3.160226 0.588835 0.783703
3.161834 0.594822 0.806752
3.169897 0.627713 0.807611
3.182060 0.618736 0.781628
3.179747 0.585839 0.780678
3.181355 0.591826 0.803727
3.189418 0.624718 0.804586
3.301373 0.882647 0.787772
3.258640 0.834612 0.787367
3.267155 0.835026 0.808259
3.307706 0.881379 0.808450
3.315810 0.869942 0.782354
3.273077 0.821907 0.781950
3.281592 0.822321 0.802842
3.322144 0.868674 0.803032
3.257703 0.833369 0.787359
3.224008 0.778906 0.786205
3.232454 0.782792 0.808078
3.266218 0.833782 0.808251
3.273938 0.823051 0.781957
3.240243 0.768588 0.780804
3.248688 0.772475 0.802676
3.282453 0.823464 0.802849
3.223632 0.778317 0.786117
3.192152 0.722272 0.784776
3.202884 0.728077 0.807831
3.232078 0.782204 0.807990
3.240554 0.769069 0.780889
3.209073 0.713023 0.779548
3.219805 0.718829 0.802603
3.249000 0.772956 0.802762
3.297016 1.076939 0.785575
3.298392 1.030762 0.786045
3.304187 1.023916 0.808310
3.301626 1.074985 0.809157
3.316518 1.077745 0.781304
3.317894 1.031568 0.781774
3.323688 1.024722 0.804039
3.321128 1.075791 0.804886
3.298519 1.030749 0.786557
3.300115 0.977217 0.787106
3.306634 0.972790 0.808059
3.304313 1.023903 0.808822
3.317771 1.031480 0.781262
3.319367 0.977948 0.781812
3.325886 0.973522 0.802764
3.323565 1.024634 0.803527
3.300117 0.977386 0.787130
3.301697 0.924346 0.787654
3.306785 0.921781 0.808163
3.306636 0.972960 0.808082
3.319368 0.977674 0.781789
3.320948 0.924634 0.782314
3.326036 0.922070 0.802823
3.325887 0.973248 0.802741
3.299006 0.876773 0.787767
3.305340 0.875506 0.808445
3.306802 0.922307 0.808198
3.301715 0.924872 0.787689
3.318221 0.875910 0.782359
3.324554 0.874643 0.803037
3.326017 0.921444 0.802789
3.320929 0.924008 0.782280
3.030013 0.612071 0.798280
3.031563 0.644240 0.796928
3.012571 0.645570 0.795417
3.011050 0.613275 0.796164
3.031863 0.611335 0.778399
3.033413 0.643504 0.777047
3.014421 0.644834 0.775536
3.012900 0.612539 0.776284
3.031685 0.643960 0.796944
3.033110 0.676162 0.796908
3.014223 0.677593 0.795343
3.012693 0.645291 0.795433
3.033294 0.643848 0.777029
3.034719 0.676050 0.776993
3.015832 0.677480 0.775428
3.014302 0.645178 0.775518
3.015413 0.677523 0.795367
2.989171 0.676040 0.796507
2.988767 0.642179 0.796409
3.013883 0.645221 0.795457
3.014597 0.677549 0.775403
2.988355 0.676066 0.776544
2.987952 0.642205 0.776446
3.013067 0.645247 0.775494
3.013683 0.645300 0.795463
2.988568 0.642258 0.796415
2.987208 0.608434 0.796386
3.012163 0.613005 0.796211
3.013264 0.645101 0.775488
2.988149 0.642059 0.776440
2.986789 0.608236 0.776411
3.011743 0.612807 0.776236
2.996723 0.607900 0.788591
2.998083 0.641723 0.788620
2.994428 0.641698 0.805538
2.992628 0.608268 0.806309
2.977245 0.608767 0.784224
2.978605 0.642590 0.784253
2.974950 0.642564 0.801172
2.973150 0.609134 0.801942
2.998169 0.641902 0.788226
2.998573 0.675763 0.788324
2.996217 0.675364 0.804331
2.994514 0.641877 0.805145
2.978521 0.642479 0.784646
2.978925 0.676340 0.784745
2.976569 0.675941 0.800751
2.974866 0.642453 0.801565
2.986720 0.675893 0.812531
2.970321 0.676896 0.813012
2.969156 0.644451 0.813878
2.985017 0.642405 0.813345
2.986047 0.675414 0.792568
2.969648 0.676417 0.793049
2.968483 0.643972 0.793916
2.984344 0.641926 0.793382
2.984814 0.642252 0.813352
2.968953 0.644299 0.813886
2.967420 0.611887 0.813951
2.983014 0.608822 0.814122
2.984544 0.642013 0.793376
2.968684 0.644059 0.793909
2.967151 0.611648 0.793974
2.982745 0.608582 0.794146
3.047701 1.190034 0.792900
3.046815 1.201460 0.793229
3.016117 1.201594 0.792663
3.014552 1.189361 0.793085
3.047821 1.189952 0.772921
3.046935 1.201378 0.773250
3.016237 1.201512 0.772683
3.014672 1.189279 0.773106
3.014421 1.190121 0.793052
3.015986 1.202354 0.792629
2.985308 1.203166 0.791535
2.981271 1.189572 0.793102
3.014740 1.188519 0.773139
3.016305 1.200752 0.772716
2.985627 1.201564 0.771622
2.981590 1.187969 0.773189
3.014674 1.189288 0.793085
3.015387 1.172409 0.793077
3.047528 1.156212 0.792836
3.047823 1.189961 0.792900
3.014550 1.189315 0.773106
3.015263 1.172436 0.773098
3.047405 1.156240 0.772857
3.047699 1.189988 0.772921
2.981453 1.188769 0.793136
2.983026 1.171666 0.793183
3.015316 1.172439 0.793078
3.014603 1.189318 0.793086
2.981407 1.188742 0.773156
2.982980 1.171639 0.773203
3.015269 1.172413 0.773098
3.014556 1.189292 0.773106
2.983079 1.171689 0.793183
2.984652 1.154713 0.793377
3.047509 1.156266 0.792836
3.015368 1.172463 0.793077
2.982946 1.171582 0.773203
2.984519 1.154606 0.773398
3.047376 1.156159 0.772857
3.015235 1.172356 0.773098
3.129659 1.067704 0.793489
3.097138 1.079370 0.793060
3.094104 1.050740 0.793131
3.126301 1.049702 0.793640
3.129923 1.067573 0.773511
3.097401 1.079239 0.773082
3.094368 1.050609 0.773153
3.126565 1.049571 0.773662
3.097110 1.079341 0.793060
3.064598 1.091003 0.792636
3.061871 1.051757 0.792694
3.094076 1.050711 0.793131
3.097364 1.079281 0.773081
3.064852 1.090943 0.772658
3.062125 1.051698 0.772715
3.094330 1.050652 0.773152
3.064710 1.090985 0.792637
3.036979 1.086958 0.792705
3.026773 1.051444 0.792739
3.061983 1.051739 0.792694
3.064676 1.090966 0.772657
3.036944 1.086940 0.772725
3.026738 1.051426 0.772759
3.061948 1.051721 0.772714
3.064723 1.090982 0.792637
3.047203 1.122464 0.792760
3.036992 1.086955 0.792705
3.064667 1.091029 0.772657
3.047146 1.122511 0.772781
3.036935 1.087002 0.772725
3.160736 1.047523 0.793770
3.129786 1.067721 0.793490
3.126428 1.049719 0.793641
3.160800 1.047344 0.773791
3.129850 1.067542 0.773511
3.126492 1.049540 0.773661
3.168006 1.084676 0.793811
3.133517 1.087902 0.793514
3.129741 1.067654 0.793490
3.160691 1.047456 0.793770
3.168179 1.084666 0.773831
3.133689 1.087891 0.773535
3.129913 1.067643 0.773511
3.160863 1.047445 0.773791
