2.3307179110086865e-05 0.00526683241341178825 0.03850058428017962
-6.26393071523854294e-05 -0.00556229014122314961 0.0383100544343615013
1.46509290783620698e-06 0.00510694843516011458 0.0214023796586428408
1.03036365737261346e-05 -0.00527864947138846456 0.0215067230356426262
0.00525861180204315742 0.00849211387834137611 0.0295193714607992763
-0.00540823081440533829 0.0083994218490338439 0.0295519463647179494
0.00524420487442033446 -0.00850436783152532655 0.0295828153631505011
-0.00540537701630669758 -0.00840988914100818455 0.0297640679175357158
0.0087671676532526787 -0.000149427281549476622 0.0348077482075591915
-0.00871823093802765424 -0.000254288666105010317 0.0348916036823835179
0.00839581795601348872 -1.75697087116105706e-05 0.0245676955023841626
-0.00834759733583974144 -6.37602665123989819e-05 0.0244942254543892256
8.65348231505340447e-05 -0.00016958580559278509 0.0399981874546801591
0.00317823088488424377 0.00817563763914763014 0.0348018535625027603
-0.00325255607336319722 0.0081268146271311608 0.0348348488089986058
0.00525707065333388089 0.00299824995661146423 0.0379607603495856483
-0.00521378309096280027 0.00300842945341474322 0.0379853502180065375
0.00318223735814030569 -0.0082260799730449162 0.0347122153679055856
-0.00339471674550311702 -0.00809806225486499331 0.0347851108591266389
0.00523439886024326239 -0.00350626524914446651 0.0377657692841421658
-0.00507416149488247765 -0.00325402045774565241 0.0379789871527923123
0.000149779667649624338 -8.63364016073163941e-05 0.0200014945078318719
0.00298893359392427569 0.00795564797830165295 0.0247299012137858591
-0.0030010480604065401 0.00798488767588855994 0.0247812569192790155
0.00486557752668264828 0.00302732420809518395 0.021804790211902951
-0.00482602766826132484 0.00301195629527234833 0.0217757932771272429
0.00296762799004231638 -0.00807757972391140444 0.0249062891801190012
-0.00308683755268431524 -0.00811400274279452764 0.025036695313275556
0.00498006017442347362 -0.00314789745531014091 0.0219197931790100081
-0.00485221731462332113 -0.00301983973348948992 0.0217941146050101495
-0.00010629409644903151 0.00999539402577613242 0.0297157468829741672
0.00825116764670041219 0.0050019351014497582 0.0326265714737903403
0.00807987854093400286 0.00488674331811515643 0.0267082979316756071
-0.00832888981219591373 0.00484938606820339239 0.0326670300444153183
-0.00807054937295320282 0.00481001350044182874 0.0265750908122561816
-0.000120103333579202372 -0.00999909196450382738 0.0300611152571635849
0.00806085963658380658 -0.00520181223507083009 0.0328220013094187996
0.00795856378361861627 -0.00499349403073467979 0.026575634384723025
-0.00810319091384934485 -0.00510197195347520966 0.0328823912294589349
-0.00797127450101557666 -0.00498897255326468878 0.026598686181454223
0.00999184354568121921 -0.00020320774052012388 0.0296510456006563415
-0.00998997160381584655 -0.000240673754954407533 0.0296224506672907728
5.82314221227597122e-05 0.00276964056072243016 0.0396086263464596605
0.00161055913294826493 0.00693761736512410292 0.0370196555880189307
-0.0016210234224008403 0.00692445525342943666 0.0370302348827959774
0.00264906942997419643 0.0043539753319528484 0.0386037974153232086
-0.00259248357442679348 0.00436119990150957235 0.0386173641176058152
5.75364231285831554e-05 -0.00310246711467828144 0.0395063866617318543
0.00150740982509264885 -0.00718977112840289007 0.0367849028541607226
-0.0018265784265392819 -0.00708370280122328291 0.0368179737367961973
0.00260712252592803107 -0.00471292770789246123 0.0384256290302254708
-0.00260945207970851014 -0.00461125186087739912 0.0384809855629672931
-2.68502260764895691e-05 0.0025721546523986517 0.0203364965199207583
0.0016214308095264438 0.0067601305926148084 0.0228117042005276556
-0.00162631606692332847 0.00677652605064157053 0.0228282644544403925
0.00250636631145232389 0.00419375993519801975 0.0212747203185946684
-0.00249151158121211106 0.00422109591099910017 0.0212836521781865178
0.000177680491886225646 -0.00276754340068604372 0.0203922357872332143
0.00157242901088818789 -0.00692006633304719909 0.0229544234478685945
-0.00162656545768037511 -0.00697892107547076323 0.0230251204000190071
0.00262503351333565104 -0.00441975121153486295 0.0214224130268471889
-0.00253004973863264673 -0.00430350702328717409 0.0213352048136979666
0.00444587591759730474 0.00870025541683248048 0.0321306672680654257
0.004203207558984858 0.00857654171330910799 0.0270375722024053626
0.00271590568973283228 0.00961333524008605757 0.0295443226512142783
0.00700951384261156926 0.00705004432191565743 0.0310786986369054156
0.0068829662020783557 0.00695633759920265965 0.0279422965551454142
-0.00458078563392886728 0.00861726579816702448 0.0321815437515052885
-0.00429404003060298873 0.00854409496244073162 0.0270743100833523015
-0.00292217159186473723 0.00955656917211390559 0.02963544705967322
-0.0071129651287197785 0.00693949580566904749 0.0311176426265663622
-0.00702039091397045015 0.00682531376082833995 0.0279679558367770496
0.00445289550426543682 -0.00868821021346063635 0.0321648845038040587
0.00418912313855130097 -0.0086283073363164868 0.0271709436484719492
0.00268313300285099796 -0.00962609197006706122 0.0296269709490908049
0.00693471858732168898 -0.00710807207298459927 0.0311768557770226162
0.00689273963245876867 -0.00696893010725632613 0.028019052368357892
-0.00466605726621171363 -0.00853336792323294152 0.0323258421002234758
-0.00439006408740413336 -0.00857145974789074415 0.0273060409990548772
-0.00289449027687706684 -0.00957065249164596073 0.0298433573454798887
-0.00707063873091740361 -0.00694769666448501796 0.0313174137524538376
-0.00698290028887105577 -0.00691981549213497617 0.0281682639080660935
0.00739026341268839409 0.00140836091239408888 0.0365879075761215561
0.00734024749355564627 -0.00180509595681177916 0.0365469378582702203
0.00888690432951294226 0.0024764723484629607 0.0338587583683592416
0.0088107285647092623 -0.00274476618986620223 0.0338519242881946264
0.00973226179878865054 -8.08923660707508446e-05 0.0322970713321424283
-0.00736108598796372891 0.00137305870247222224 0.036627904863331201
-0.00722100284169477965 -0.00184405132950086407 0.0366675777201621034
-0.00892782193078358807 0.0023279080344392987 0.0338567913808517779
-0.00867266180832364057 -0.00281940114769734873 0.0341031590667201095
-0.00971991553257872849 -0.000328857371488378144 0.0323270356397684366
0.00688998376123021311 0.00164195140668276472 0.0229408131241568281
0.00689292400675921551 -0.00155330612443421224 0.0229236422701478947
0.00860617282771463689 0.00249751911803854131 0.0255619612986660201
0.00848999967126455417 -0.00260388242198709898 0.0254022068430175829
0.00954668257362915884 -0.000203333295723357111 0.0270302344521468341
-0.00680238776408521872 0.00158004996702108976 0.0228424192069708112
-0.00686250674720778608 -0.00158190490778646001 0.0229004522674152895
-0.00851670218064428872 0.00244065517410316148 0.0253622218372013264
-0.00844502489652955782 -0.00267181280790397286 0.0253585594028883435
-0.00953013135828288324 -7.02416729849325729e-05 0.0269715247398650375
0.00290046911428435686 0.00134974220655009899 0.0394744643591571839
-0.00277278315777476246 0.00140751527610837751 0.0395042398069220813
0.00289968926567320609 -0.00177886487903408576 0.0394035866510964172
-0.0027307792112935261 -0.00165594817202455754 0.0394763221004108822
-3.31746814355740087e-05 0.00866322088228222049 0.0349947475797382293
0.0045620536781339387 0.00590003001496207987 0.0366616298351357811
0.00148838187766874128 0.00958273873369955807 0.0324404585118131944
0.00603351822990280933 0.00685315603623954869 0.0340781012876562872
-0.00457987143044908535 0.00586095932443593277 0.0366838561832121823
-0.00161878805452837652 0.00954900236302752038 0.0324891924605002075
-0.00611100298162549609 0.00676134414807348042 0.03411580707393784
0.00540222622247599552 -0.000240349327431437702 0.0384117883973621177
0.00705905101417073685 0.00434792356023866716 0.0355915435698612448
-0.00529756056938654549 -0.000140059971405756772 0.0384803440506910274
-0.00709346192063044223 0.0042652052162478445 0.0356116684189159011
-0.00013065951268320585 -0.00884670252421657435 0.0346603414617134564
0.004491790967453042 -0.00614207622722054859 0.0364883521423948198
0.0017182799081999745 -0.00955935173073916601 0.0323804009420873631
0.00591810790028047921 -0.0069219876443558882 0.0341306277890923854
-0.00512718531796684494 -0.00574406797508753009 0.0363810386155232618
-0.00190658606475695332 -0.0094807293908675417 0.0325457218612438814
-0.0059898964804359139 -0.00642300302086936704 0.0347818586708062011
0.00690570693839017476 -0.00465356387236876435 0.035536745882452439
-0.00653066416535580743 -0.00498716137672023264 0.0356990040324505348
0.0030675806516480492 0.000783118679117743885 0.0205143964830881015
-0.00308925588237570674 0.000917390335259269589 0.0205334856960980652
0.00328063090833945366 -0.00111973486917918918 0.0206200397300419155
-0.00270205964040756696 -0.000873610768807430728 0.0204116905596291795
-2.22194274740410537e-05 0.00880358932353246873 0.0252569712925570615
0.00495540764499834401 0.00554254533870926838 0.0233123900950904656
0.000882598853637268682 0.00940090160750961003 0.0267069667129709448
0.00560215777689083896 0.00641092651687826063 0.024754444792206582
-0.00493225569905911525 0.0055562035358837714 0.0233066110237838721
-0.000827166964821892683 0.00946632909253590504 0.0268848100661250658
-0.00561403833431815998 0.00640772405732635986 0.0247632408890643835
0.0045494868691225137 -5.40905606702915174e-05 0.0210949877350489756
0.0064751321593920488 0.0048954237000211169 0.0241598381601467217
-0.0043516287221540299 -0.000257203289139969411 0.0210001570051150527
-0.00642547647196693456 0.0048865935752659944 0.0240979278775697373
0.000149894468168086843 -0.00888924537282903549 0.0254219165199780182
0.00480216229801686163 -0.00587829272213199333 0.0234896304301187783
0.000839824626209463056 -0.00946568442737781915 0.0268862381403663538
0.00554202884733922662 -0.00653954264540742777 0.0248502137671397019
-0.00476516621856411856 -0.00582872148046631369 0.023418267947370848
-0.0009443396454976912 -0.00946550469985938704 0.0269157750712891997
-0.00574475535868923873 -0.00636829861499631916 0.0248577671562785867
0.00627509991418774993 -0.00497096999907911327 0.0240072895668807518
-0.0061338147071427207 -0.00484937130264046987 0.0237662278588669333
0.00896465318660563323 0.00441696586267691354 0.0296458731698554384
0.00954591935090770387 0.00292263482077480827 0.0305776066571296079
0.00956155356687074694 0.00271523072661232403 0.0289026324730877054
-0.00900157911884529559 0.00435251460507693564 0.0298351061560871919
-0.00963131147856264962 0.00265751968028387015 0.030418841678694096
-0.00942280128689894532 0.0030586734287440338 0.0286378939968156554
0.00885294968259310588 -0.00464915361556406462 0.0298967886810364222
0.00951653409616803891 -0.00303618196141966891 0.0304660234904176007
0.00932087968234752463 -0.00337158060215481722 0.0286757469311440215
-0.00887106144215375064 -0.00460655994859595751 0.0297103893483922805
-0.00938373405120795055 -0.00337770426553626662 0.0307325634107560516
-0.00940916251163365774 -0.00315885048723493289 0.0287796211944795974
4.00915452657841975e-05 0.00411333315798190647 0.0391147618180314946
0.000789717057189931178 0.00611998276845314177 0.0378690633421913669
-0.000770273237288255372 0.00611716017902886027 0.0378731842658495618
0.00129050507422650532 0.00487762043928040203 0.0386338528771174722
-0.00123610351545451187 0.00487988582747448957 0.0386405302157850628
2.455431944114992e-06 -0.00443293194646888697 0.0389637664142273091
0.000679788357979820446 -0.00640103207356742566 0.0376527561166886959
-0.000907099260641195879 -0.00636416780942300562 0.0376599307454342017
0.00122426646990849331 -0.00520300652058380657 0.0384516208361130457
-0.00130806852722879351 -0.0051581888707130279 0.0384665249247920921
-2.08145504073533118e-06 0.00391997828779147486 0.0208003388165221917
0.000774823499717960376 0.00597233140173504193 0.0220168360800911539
-0.000773446434740749809 0.00598016716620443801 0.0220225705094412028
0.00123083688646866509 0.00470774962695303702 0.0212637459967769012
-0.001224241897900226 0.00471893219545483928 0.0212688539864388133
6.98146480110224926e-05 -0.0041040227703639607 0.0208812214077072136
0.000754564821022740673 -0.00614196873819658311 0.0221446291016979477
-0.000797463656896244314 -0.00614640191367881762 0.0221523382315841968
0.00128332593993149232 -0.00489600220433101044 0.0213754862776452809
-0.00122617221330807301 -0.00486829453676636444 0.021351519786309163
0.00491722997079567428 0.00867381874638691215 0.0307653220035617458
0.00480218012265563703 0.00860516190264069142 0.0282999250902056382
0.00407632079595787646 0.00911948207382863932 0.0295323938905879685
0.00616441513315416773 0.00786931555287201552 0.0302717697471509804
0.00610426256152476858 0.00782176420201007722 0.0287518079682513895
-0.00506773103330271282 0.00858266463653878028 0.0308099196940482753
-0.00494056844594657849 0.00853261744082814931 0.0283311012495084356
-0.00424427936221897888 0.00904498730450733687 0.0295825106507428201
-0.00629678593201007074 0.00776275799417481833 0.0303001253909868581
-0.00623994611469288682 0.00771745474917569403 0.0287736376228232213
0.00490597991197543656 -0.00867623783110955428 0.0308088622882276598
0.00478951135735252755 -0.00863007243276040815 0.028393005674216619
0.00406005441241929534 -0.00912987158053650896 0.0295982499643977978
0.00613400287958352098 -0.00789069473129811252 0.0303330845699297663
0.00609432843912086509 -0.00784077754403657116 0.0288246837102062864
-0.00508929133553155059 -0.00854966071956714257 0.0310012069128677362
-0.00495475752233267425 -0.00856503096485252378 0.0285541015021775341
-0.00424377662763442999 -0.00905229872993312118 0.0297849473580842419
-0.00627833148857302997 -0.00776631166117646658 0.0305166787213218688
-0.00621974441998087487 -0.0077643844715483681 0.0289855478680118329
0.00818944952065147821 0.000602371335330616339 0.0357070189524017964
0.00816540900121252161 -0.000945202272742754076 0.0356949704570365817
0.00890650695187515835 0.00112117317855691019 0.0344064843832565734
0.00887079634473892861 -0.00140501130035955023 0.0343971485596950705
0.00932076231947965954 -0.000122754517496015045 0.0336205415495754861
-0.00815330634559011287 0.00052775382571642747 0.0357658539293327291
-0.00807627452512085266 -0.00102152171042354752 0.0358077778185823675
-0.0089037650413278744 0.000994833380494741923 0.0344422150593911014
-0.00878060973817432894 -0.00150676033948166695 0.0345420882758091796
-0.00929155829283194283 -0.000268894129747837085 0.0336870910536482687
0.00774868948182149461 0.000793358834948096098 0.0237287646294116264
0.00773656526000741744 -0.000756263237458832944 0.023709242979313646
0.00856622547571755759 0.00121172441535341135 0.024984872380446943
0.00852468597896859429 -0.00128460167520472049 0.0249325028370962591
0.00903856758814240713 -8.4724605534645657e-05 0.0257224869730416361
-0.00767921703175288971 0.000738384457273654404 0.0236372636254129631
-0.00769244042592403914 -0.000805580009652281004 0.0236614354036849758
-0.00850355508705031779 0.0011654376496452797 0.0248685961018167805
-0.00848947933007158755 -0.00132889311943003123 0.0248850431300529258
-0.00900338274763974253 -8.76144742832956123e-05 0.0256489745112905738
7.51617847910494147e-05 0.00132610937800466491 0.0399113967039804798
8.44049946148002701e-05 -0.00166408546245786133 0.0398602076738028416
0.00152855937445318013 0.00056850258650470724 0.0398661193509864259
-0.00136987103987728262 0.000609602760249240835 0.039886952908191789
0.00153038755425082668 -0.000956270183854425774 0.0398358253984739466
-0.00135651621304940049 -0.000899714175070139726 0.0398666295241542346
0.00241774586686268993 0.00763460490136493117 0.0359889325362140258
0.00386177133076163939 0.00853539164319157273 0.0334976866192160452
0.00159881787339760813 0.0085438456088069055 0.0349443385422698663
0.00394159221928947097 0.00713494585532858591 0.0357927884838276367
0.00233836613416417991 0.00899746742781764794 0.0336847827219463741
0.00466794048804404591 0.007597198133416601 0.0345269097761818078
-0.00245970903114763485 0.00760534693090631365 0.0360090373224539601
-0.0039685659294456466 0.00846723282684561616 0.0335435085324620325
-0.0016679612603834272 0.00851859103112882592 0.0349650289101103642
-0.00398787761748854806 0.00708701943966897653 0.0358198786559247029
-0.00244081320856774772 0.00895354744883832855 0.0337251065705939101
-0.0047453393411505387 0.00752690114173917759 0.0345637170968207952
0.00398915049763037908 0.00372070754218836123 0.0383811105286088403
0.00640415364915572754 0.00221617596910304599 0.0373535964066554205
0.00415052844059737337 0.002174647533988099 0.0388342527565556928
0.00499934625192641636 0.00450786666264044091 0.0373949763491984305
0.00537595308388114524 0.00140404688249772588 0.0383143118050538189
0.00622456959522475935 0.00374655551125301772 0.0368715395040196819
-0.00393659352947624188 0.00373262545190087332 0.038400639179223664
-0.00637100410313050369 0.0022113986611694194 0.0373837675125421182
-0.00406403467149952461 0.00222002268252264288 0.0388631327124180359
-0.00498738330726161694 0.00448799230392402972 0.0374151151593462711
-0.00530094064133545401 0.00145426610937156027 0.0383537499603574111
-0.00622235612745536317 0.00371090152301315618 0.036892858195960318
0.00236712762276122769 -0.00781104079840782509 0.0357779190426285171
0.00388178796948412518 -0.00851685619903541115 0.0335206366817552212
0.00148612107131646225 -0.00872117056659981425 0.0346618266923666637
0.00410530636092603426 -0.00712981897868482893 0.0356843769240019482
0.00230155588111881663 -0.00905260430440870019 0.0335711616924872572
0.00479397258646081965 -0.007474221894417943 0.0345993297243474135
-0.00268889174125466496 -0.00764976702645850208 0.0358524290379910321
-0.00407349787406709532 -0.00839712650028725908 0.0335909443894530507
-0.00177031479282497824 -0.00859446012302736602 0.034795960876403971
-0.0043986728582436109 -0.00700198168589504129 0.0356235157647633027
-0.00257051358229009284 -0.00892780445421650568 0.0336995631567164888
-0.00479751372238715855 -0.00750348027632885637 0.0345477077551499256
0.00398181744720577623 -0.00415237092107734618 0.0381794220792742445
0.00634583150056778917 -0.00269779567055848483 0.037242397468125972
0.00414591864749491029 -0.0026415235010161177 0.0387082554028883169
0.0053589592894410067 -0.0018950560496354405 0.0382274125885878682
0.00502119783345277623 -0.00503686411999516512 0.0370297633071131616
0.00614137401152684437 -0.00434695471062937142 0.0365869196134672725
-0.00384690502557877723 -0.00393090458008267269 0.0383516052891921255
-0.00621214979699559727 -0.00261045272332610006 0.0373888247698106191
-0.00398042302811215526 -0.00244014180990635232 0.0388431861037084047
-0.00522734300506141978 -0.00172758329091154852 0.038348074094088927
-0.00482348686893212947 -0.00461666871536325994 0.0374444841592836697
-0.00589501194833886959 -0.00422870502108037716 0.0368823606396084455
-5.51325111247037255e-05 0.00122917822124221144 0.0200759846177748745
0.000303770061739856256 -0.0014165977600662169 0.0201055078687298987
0.00144372397743027241 0.000653371427096191885 0.0201263599997140268
-0.00155681267185775376 0.000374487130894895625 0.0201290277229881145
0.00183442680709298869 -0.00053441751814301084 0.020184233284876802
-0.0011383641350063054 -0.000816536070674004602 0.0200986164632704183
0.00242742926254562678 0.00737810278625714022 0.0237014933158119293
0.00352370904926228206 0.00839587380804887595 0.0258656587543520319
0.00148519167555852933 0.00829658770575497813 0.0246184725098196333
0.00410083093395251317 0.00682818425766958115 0.023953589048497325
0.00180184281813628756 0.00882701148348442703 0.0256598121320425858
0.00438623612781403882 0.00745438003070960243 0.0249807220649961199
-0.00243867400466156285 0.00740036535484557036 0.0237320288997324401
-0.00355683273570840284 0.00840609182193608959 0.0259150812527821003
-0.00151462049499325661 0.00831812707271560071 0.0246600855102069097
-0.00410442042438857561 0.00684772164657346596 0.0239781696112468384
-0.00181682486015026338 0.00886200384506813897 0.0257380714133695863
-0.00441089208409874752 0.00746257687988981407 0.0250146236517020081
0.0037036068462768159 0.00362478276463671333 0.0214475590480024854
0.00591216557888659885 0.00239956116158190989 0.0223001036111090331
0.00379241598489005963 0.00219164438622570547 0.0210103239278672735
0.00467468782472058898 0.00438696925375873376 0.0223252495475107053
0.00468792301462402864 0.00143924477678249976 0.0212849582742557879
0.00575004314500068663 0.00405413465884420059 0.022893594720353419
-0.00368238981882410389 0.00365588142111032471 0.0214516354630256353
-0.00583346938069835997 0.002343605696558304 0.0222232302770678514
-0.00378501297222003791 0.00223386292063097345 0.0210175986923342092
-0.00464413010173700055 0.00439909445360338758 0.0223136469254648362
-0.00463279572014365596 0.00138494445723906143 0.02124676444588737
-0.00569712254316528943 0.00404131104483171529 0.0228438418290902029
0.00237620383667705394 -0.00752507818611733784 0.0238577810508430882
0.00351453091299381692 -0.0084797353076417354 0.0260323607051616938
0.00152766947013132336 -0.0083946515235529158 0.0247850166071079958
0.00401801476799896681 -0.007018386109772453 0.0241180093728147332
0.00183393233144794388 -0.0089114622966727404 0.0258499961519716506
0.00435133043126985624 -0.00757693506186743297 0.0251362587912031289
-0.00238688692638288832 -0.00764824336178517982 0.0240160928917995883
-0.0037728119330332024 -0.00842026083298437478 0.0261444718101832632
-0.0014603168843626464 -0.00867779134334152255 0.0252499040011098415
-0.00409369040011991168 -0.00700544060700960224 0.0241548737558862775
-0.00230115344580422449 -0.00892215745032174865 0.0261141539852264501
-0.00453281719782145515 -0.00749458096701170057 0.0251745648507062034
0.00388949562623111663 -0.00389768586604587707 0.0216525531649997792
0.00594933145956430542 -0.00230847347967811506 0.0223008828182796638
0.00394927072407532092 -0.00245976282420217731 0.021148286742294773
0.00477698164393229856 -0.00155060197834464572 0.0213526836603320953
0.0050355216449436517 -0.004642335850550754 0.0227135578219548606
0.00590645590128640458 -0.003790740556558936 0.0228765131628521808
-0.00374551184682575967 -0.0036640344773637497 0.0214826064812069645
-0.00592542810798712006 -0.00231602770793803807 0.0222847347814129279
-0.00383926300263863268 -0.00194454917846159864 0.0209734398529055101
-0.00494467208030748874 -0.00158443952642703411 0.0214536692431591854
-0.00488842054895588345 -0.00453066346491967208 0.0225450396980139516
-0.00578797023673220841 -0.00371643538737820734 0.0227413838405557574
0.0013057396640118314 0.00990588669028764045 0.0295895699706302494
-0.00154316089583242107 0.0098767233767330341 0.0297373409261630015
0.00067191376358268569 0.00991700057318042547 0.0310961895483205832
-0.000831189110523234201 0.00989893522219036613 0.0311490022321242593
0.000395853848689878187 0.00981339451262968135 0.0281183550095814895
-0.00082890637727724148 0.00984035840054839177 0.0284251156339382291
0.0076856820534764456 0.00610820307194448377 0.0319026682855290539
0.00867373600689403702 0.00378159570340916209 0.0332350946846525566
0.00723655166379620716 0.00598003815666905882 0.0334454990439688876
0.00774686317605864736 0.0047628417668073731 0.0341595010801515331
0.00853060979235629666 0.00509926757967802628 0.0311073241266221351
0.00903755436353295173 0.00401042155128779419 0.0314963723156864717
0.00749792947934503629 0.00599450053628181913 0.0271987472725072413
0.00848933171421675445 0.00369759313774181524 0.0262238840015542041
0.00691696573234572721 0.00572351280210102887 0.0255957990211911797
0.00754093672854457605 0.00463672862133778126 0.0253486538563385266
0.00844547963815212542 0.0050252502829879345 0.0281504775549111276
0.00896977797766131645 0.0038929316101594673 0.0279052049002149888
-0.0077641390925932488 0.00598999830137133572 0.031959097879237737
-0.00874414113863750293 0.0036169714140076711 0.0332338079005776721
-0.0073116388125224422 0.00586388697642107985 0.0334863687990478928
-0.00780882835552120218 0.00463854826762124129 0.0341840255356481715
-0.00859371237513913144 0.00496934174263238999 0.031205715662298468
-0.00911834154663382183 0.00381258214934136795 0.0315231758905179169
-0.00763203520141017382 0.00583899463017367813 0.0272326582442280647
-0.00837511135908575698 0.00364522507913105477 0.0259293926932966483
-0.0069347456517985474 0.00568428176994835617 0.0255730096561327461
-0.00747193747011486772 0.00461126991189490104 0.0252139431425915765
-0.00867827707882000768 0.00462631209792723451 0.028187613916462774
-0.00887591686245830722 0.00375824296002546078 0.0273365980956402077
0.00125221878099798746 -0.00991860607342660329 0.0297693450960832759
-0.00148165933188968563 -0.00988941187349944018 0.0300649493688381758
0.000741362792115610701 -0.00987016122393350424 0.0314248854775124944
-0.000714123095531141584 -0.00981526346850196234 0.0317750017600892387
0.000306812837049095838 -0.00984913806959263928 0.028296960021278756
-0.000863604180862018525 -0.00986812634457567665 0.0286309600932444924
0.00753732670037751511 -0.00622955780392895654 0.032093159281871321
0.00853272301038888147 -0.00403117128526100758 0.0333079141610488072
0.00692170916767603089 -0.00614790617608539786 0.0337806337892158498
0.00739803140855447173 -0.00509232776345016833 0.0343974230212291537
0.0083962176888712145 -0.00526999741553136562 0.0313155439032502189
0.0089397155453350037 -0.00418225323230287088 0.0316094234586919293
0.00751283112679846602 -0.00600404152656320873 0.0272597712125604158
0.00829437664823401075 -0.00383495420690314935 0.0259384187502665724
0.00683162846277875907 -0.00580526236791592889 0.0255696747990457572
0.00736279933409676821 -0.00475335595925796984 0.025183902711695811
0.00855232029160670273 -0.00486744784480656542 0.0282207391681205955
0.00877405037782311333 -0.00400205807390697534 0.0273543297370046137
-0.00770353718454528432 -0.00603433990334291404 0.0320596739492578844
-0.00839964506408279708 -0.00404933245405261245 0.0336123218951231012
-0.00713381333895431614 -0.00602980996274378976 0.0335707280851603937
-0.00731208726522579455 -0.00519435662151982586 0.0344217687766544198
-0.00865052546592141695 -0.00486077808589797239 0.0312414691148389899
-0.00888173634886892105 -0.00406937534514928163 0.0321342314142266106
-0.00760447926316331832 -0.00596066675161666983 0.0274227248861848918
-0.0082163660237794707 -0.00392661169404904132 0.0258680452607222763
-0.0069551377058403108 -0.00594477592545792407 0.0259644456776182211
-0.00707001276466453187 -0.00508732184437062779 0.0250873555024538966
-0.00862137769921678641 -0.00474236737909345275 0.0282162404284327512
-0.00881330300217834234 -0.00391433913001979546 0.0273535610025942254
0.00995277101026390172 -3.06960009936448828e-05 0.0309702612909796421
0.00985674487036892859 -0.000337090029933886329 0.028347441113855544
0.00988986806348757068 0.00147659393844934536 0.0301008961235292929
0.00988143445211259186 0.00110770375036584653 0.0289368699185763995
0.00988228744734109647 -0.00148136789459440304 0.0303820261365266853
0.00978986973487317932 -0.00187616425037958928 0.0292009641561157968
-0.00994487024827785809 -0.000417245843570654851 0.0309620091740419844
-0.00985478944994348793 -3.52490402287806618e-05 0.0283023892076080912
-0.00993749893555837156 0.001059659468149284 0.0303510508757114973
-0.00985201335997313785 0.00149547958346986365 0.0291625195104746639
-0.00981014171331347565 -0.00193710919518235488 0.0300934212537214071
-0.00981728547584961517 -0.00154191693724244679 0.028884922404351563
0.00144195120914780532 0.00351258532074868925 0.0392510821569640178
-0.00135048237621771092 0.00352460856709483012 0.0392603094872842756
0.00150129916898269654 0.00207288759305155517 0.0396669145973151532
-0.00137353297766943674 0.00209818004695438466 0.0396804466658216282
-5.17047405361490747e-06 0.00710292647953755362 0.0370390630550153713
0.00226503471496520333 0.00573638267357465866 0.0378716917852717633
0.000805054202160122552 0.00790633450125825983 0.0360697415501648536
0.00313525598022626516 0.00650430804518296879 0.0369183919223923379
-0.0022435685206986136 0.00572892535911716672 0.0378832616677739764
-0.000844101911972633466 0.00789642664227477482 0.0360773298614915777
-0.00314791108877396798 0.00647879702410325033 0.0369365585773959101
0.00282357068206000664 0.00288177338211709341 0.0391500180752571564
0.00366691719467316345 0.00518160285934373376 0.0377268823011258012
-0.00273064101374973856 0.00291106196384411471 0.0391689322113694255
-0.00364786381313685071 0.00516965536114473174 0.0377438848808459293
0.00141686355893265231 -0.00387159142595791496 0.0391106134527713228
-0.00134930650512722432 -0.00381528746869665147 0.0391445586818844199
0.00149932442774594783 -0.00245239240873403519 0.0395779850560516178
-0.00134587485836649653 -0.00238838611504120025 0.0396168722894242181
-0.000143512118965275067 -0.00732945460845904964 0.0368013601150246755
0.00217978218785364053 -0.00603944375553344594 0.0376663986810799323
0.000696764377504860595 -0.00811885636604592342 0.0357964377603624678
0.00307423262093085153 -0.00673963719948222385 0.0367176174505370601
-0.00240039692614005089 -0.00594314525749908059 0.0376757487612117414
-0.000979335692079814912 -0.00805655807566548789 0.0358423260415392589
-0.00349052936880080112 -0.00653917918823431008 0.0367123274852842463
0.00281448778384287565 -0.00329114440641603209 0.0390137132753774485
0.00361760947950346161 -0.00551700743360774605 0.0375150203347245567
-0.00267377790265971912 -0.00315656592629668959 0.0391042299663503304
-0.00379581948877801782 -0.00535787442338825793 0.0375422102908772662
0.00134973780054475781 0.00330850947652241512 0.0206601941715289401
-0.00135242302172853515 0.00330363535752911707 0.0206588573828047073
0.0015139329470712701 0.00184233420449227939 0.0202884701663059337
-0.00153783484691636893 0.00180859850857541921 0.0202858847331118981
-6.14747984424202966e-06 0.00697704422347449928 0.0228361451639377336
0.00224514038530867653 0.00558006389587333701 0.0220111182529576233
0.000738164871947791994 0.0078297093346854172 0.0238233694981679275
0.00328517518786494104 0.00625672097345538955 0.0229246154418745567
-0.00223608711814101595 0.0056016025132544691 0.0220236622636961372
-0.000764926335293592019 0.00783738439042100041 0.0238363733388240011
-0.003279029926533698 0.00628000045116204695 0.0229424113838860716
0.00267804284088972964 0.00258466982063853884 0.0207184285565083538
0.00363951850100156186 0.00506364760793634027 0.0221824954119931653
-0.00265829050218225737 0.00263136997771813317 0.0207258755859988965
-0.00362219423132042377 0.00508872692632348061 0.0221907383690966367
0.00148712737422186572 -0.0035083707104612877 0.0207544720469398127
-0.00129743206342512805 -0.00346522353487579765 0.0207097418822650946
0.0017331339768403395 -0.00201360007000117667 0.0203593744302346842
-0.00131306209570102917 -0.00202226786974981938 0.0202950373212561624
-5.21822878936295523e-05 -0.00715349633379536946 0.0230125278382517784
0.00226214318458146111 -0.00575610751196232052 0.0221418873434403723
0.000727054165856475128 -0.007954482362203915 0.0239835556522728852
0.00320797653926675102 -0.00644918469333963587 0.0230633651303598329
-0.00225526651938649011 -0.00574081325873997735 0.0221287335164657498
-0.000779118708624074651 -0.00803152473167948432 0.0240934286999738394
-0.00320902390222332478 -0.00647070912103176778 0.0230839253137378776
0.00283612765562763153 -0.00286558191703871479 0.020848780398344445
0.00370987674869305457 -0.00526569849213938488 0.0223508671145424831
-0.00262243056142297997 -0.00268305381743497943 0.0207304757315565358
-0.00363605239469343578 -0.00518685370812307402 0.022262062833443657
0.00355415314290059977 0.00930132437656954435 0.0309237750151649393
0.00581378772125126873 0.00794903373408224756 0.0317357231998940531
0.00299477749849272334 0.00925302333567214717 0.0323265568731557693
0.00529659619113442837 0.00787182873286701099 0.0331591741307610197
0.00336866158766850913 0.00923872973057122959 0.028183962535291214
0.0056529569166445812 0.00780005294728392234 0.0273161124989807075
0.00258604334728753478 0.00914567778213734757 0.0268905052321527921
0.00507654429761315255 0.00761589933655032469 0.0259717528266125847
0.00213581824017925349 0.00971709261611618594 0.0310081624545369208
0.00187268239091212371 0.00963910719109970122 0.0281077333112751612
0.00715100063665678829 0.0069738951069167731 0.0295225307001947546
0.00658834466180395657 0.00705215885533068149 0.032619307178713558
0.00804309306178761264 0.00593468681933196837 0.0302968945197732153
0.00633656995889292796 0.00681753204725659302 0.0263436168225027328
0.00798857954333710187 0.00590151038520845932 0.0288360532430335589
-0.00372409875358453626 0.00922763766726216947 0.0309908539525452255
-0.00593465325679101187 0.00785024918843980901 0.031775803593041739
-0.00313503294477108976 0.00919069245899517724 0.0323880411552921604
-0.00539975091124365175 0.00778391718219384812 0.0332020811041056907
-0.00352277296591199706 0.00919089600581005257 0.0282343552902623793
-0.00576521964989929348 0.00772588445445867699 0.0273404978314036248
-0.00263665627589837427 0.00915121870592771822 0.0269498787107650337
-0.00513845387186535711 0.00759023061553920457 0.0260019140817582158
-0.00231692722852440934 0.00966545694850108085 0.03110035912064852
-0.00205743675311066297 0.00961981243315323913 0.0282038477909988226
-0.00727816053455978412 0.00684230558636261289 0.0295403985465564692
-0.00668209856252895661 0.00694685668788406346 0.0326628445239346768
-0.00811616938559369186 0.00583100842562258356 0.0303565602959811262
-0.00642195541274371423 0.00675010196094107638 0.026367561123207834
-0.00810891593454471198 0.00574061404097641389 0.0288638517706605036
0.00357307624995875824 -0.00929135350238683051 0.0309507240428560926
0.00576972648494471739 -0.0079688779673621965 0.0317908769444651546
0.0030737692278993145 -0.00922680645796658712 0.0323276566157501208
0.00525435125020056598 -0.00787719186830254312 0.0332158422239693385
0.00333267413825809279 -0.00927437884867125285 0.0283031853196341887
0.00565299502460042593 -0.00783305512166372099 0.0274140969250916272
0.00255365654841129778 -0.00921037930734361875 0.0270592940902544196
0.00506232552093259687 -0.00769198415083737191 0.0261004820626927307
0.00216900064712427596 -0.00970504915446256979 0.0310523578774541641
0.00180496895261697239 -0.00968156960695352141 0.0282652674483360178
0.00712361850682801442 -0.00700634660381585766 0.0295935930163304245
0.00647625178206544336 -0.00711298705484525451 0.0327319549800276777
0.00794514154244285384 -0.00605682138997661913 0.0304354773478270786
0.00632801944756325799 -0.00687012453371966918 0.0264282275041032785
0.00796732270484871649 -0.00594503663947989602 0.0289145009110811091
-0.0037559865832724232 -0.00919849532539002319 0.031131480682581647
-0.00594049594375374232 -0.0077906984021757688 0.0320038778277582855
-0.00326930790440758175 -0.00912692160376246155 0.0324517193691269412
-0.00546464050052474035 -0.00761546056636751723 0.0334846039318875341
-0.00354765007510805374 -0.00922503011986947237 0.0284791455585471434
-0.00577606409345551158 -0.00778755144910586988 0.0275523223219093921
-0.00275880988787578383 -0.00919731480654210377 0.0272074441183889973
-0.00523324601050759522 -0.00760551128433757401 0.0261569108392700304
-0.0022992788673620191 -0.00964683249054393462 0.031285278020308574
-0.00205592409708133016 -0.00965765239959479223 0.0284179360835790304
-0.00723069843005689876 -0.00690243992398728058 0.0297292172285407372
-0.00659354960276154357 -0.00689163408029722351 0.0330050762617958571
-0.00805429460850563481 -0.00590800645195802433 0.0304730730630879409
-0.00642260001866913621 -0.00684646034625361992 0.0265538151925109982
-0.00802558968466939027 -0.00587518566997082946 0.0289645756634607579
0.00738434888438432857 -0.00020149041818173056 0.0367402368775194277
0.00820817645499707059 0.0020690989538626396 0.0353239711496923306
0.00646179991141998013 0.000598839552681650761 0.0376083199916221189
0.00730583459609677761 0.00292701768083234587 0.0361690638147591156
0.00813924447137675047 -0.00239210368650577239 0.0352943875366437329
0.00644264924238918246 -0.0010591528523902511 0.0375743294075987777
0.00720534219946073178 -0.00331242783487155747 0.0360918688123956291
0.00944997866827724207 0.00131912587660493403 0.0329929600884035085
0.00807478452836040209 0.00345366147519680661 0.034782266955669966
0.00935347537690511301 0.00271477172440003208 0.0322677109291150468
0.00941236747926025262 -0.00154780257160572351 0.0330019403116475762
0.00793919939104805426 -0.0037532958311123246 0.0347835011689490645
0.0092893391753128933 -0.00293072877314488932 0.0322625221643683055
0.00977118353832438606 0.00146693521875477747 0.031540153669071834
0.00973939649463350515 -0.00163008755377449361 0.031577013153829131
-0.00731440808542714333 -0.000221440909166084642 0.0368154529037757819
-0.00821586501214606989 0.00197600277709157699 0.035347426963233855
-0.00639602047801197428 0.000629162644739417513 0.0376612712007418221
-0.00731207900260035914 0.00286571183491960606 0.0361904116453538593
-0.00798231818258007819 -0.0024995991841894943 0.0354803832302541325
-0.00634464415293488088 -0.000996376675449327752 0.0376650325565681607
-0.00700235212740854453 -0.00343226475551584214 0.0362599219908734394
-0.00946772438928889133 0.00113327193019274958 0.0330129536373302279
-0.00811614272051838087 0.00333849826835090797 0.034794023013335923
-0.00941781515883698649 0.00252200316416819389 0.0322235686798266197
-0.00935520975926340363 -0.00166236293649265959 0.0331171461030176709
-0.00770965401831180588 -0.00390705391655766631 0.0350295292633645214
-0.00921054418581831319 -0.00298153965659137292 0.0325052538947702419
-0.00980356800799129201 0.00120858451126504502 0.031558646140668202
-0.00969478119697911832 -0.00186203885639917434 0.031595001203748696
0.00686887010107330599 4.20425326866426071e-05 0.0227324793801443881
0.00778465243037530438 0.00224637970828186302 0.0241388597743722802
0.00584103832760007186 0.000784445863362773677 0.0219212057865693852
0.00681785069745124116 0.00325575994197333917 0.0234488978738302822
0.00773864898885602732 -0.00224225910786536933 0.0240766913029563968
0.00585503792258414407 -0.000739631890436541917 0.0219271147913679097
0.00679830213601321717 -0.00321884913088696118 0.023410455376881769
0.00922669934759361328 0.00128101934904125705 0.0263631045414395686
0.00766303107434621392 0.00361502529848678434 0.0246887339696730615
0.00922220940805608402 0.0026223837039674896 0.0271585290177220606
0.00916925639444203522 -0.00150442653450681718 0.0263038617483574017
0.00751959388003372361 -0.00369904045911988296 0.0245435535775421071
0.00908647499174913831 -0.00286116050861081814 0.0269586626677917884
0.00966109446343490878 0.00130139064272832036 0.0277707319219962501
0.00958412673398873101 -0.00178386973329410664 0.0277723726699737848
-0.00680479083730901099 3.02216304809221547e-06 0.0226723255717106373
-0.00769719638907692943 0.00218740517580731609 0.0240026317150909899
-0.0057251736065874418 0.00070766716026996997 0.0218316712624484835
-0.00673839267160073613 0.00321392766768317144 0.0233468253329543393
-0.00769707622278149612 -0.00231016864348415358 0.0240486859888463002
-0.00579643053443491905 -0.000763194942105936691 0.0218871135506643263
-0.00674342361998603139 -0.00321209732318666029 0.0233510400311182816
-0.00918421467827906443 0.00128450212285233624 0.0262583085322716341
-0.0075640572033098645 0.00357336666674674518 0.0245213058773062174
-0.00915225518396685193 0.00261214597224479397 0.0269319520102780027
-0.00914706951075344374 -0.00147901976220517228 0.0262391995654579976
-0.00743677337404354509 -0.00378581035644855179 0.0244898238024429879
-0.00908852066289484416 -0.00282798165812775393 0.0269338441165807504
-0.00962797917076195671 0.00147428688253903512 0.02773538186986255
-0.00959265663859193603 -0.0016264160196204358 0.0276900845155720367
0.00292267232600278322 -0.000217047097727050218 0.0395609035677694093
0.00421351533790547978 0.000575133365946273309 0.0390507187619884982
-0.00276620103138891646 -0.000125632986711682337 0.0396089722762943131
-0.00409470412389200018 0.000663766518886851117 0.0390990555634190273
0.00421080897194351083 -0.00104386754684821577 0.0390099627272501581
-0.00406444101479399439 -0.00090289905979852288 0.0390920345646656731
0.000756632895511551553 0.00922797422732948673 0.0337778298428029478
-0.000851622223252868678 0.00921277621458426073 0.0337946665214287761
0.00535329499974252637 0.00646555779510641498 0.0354349604454743117
0.00587843607223227042 0.00517068427178310822 0.036221576448635287
-6.09351655334511416e-05 0.00968196964698350183 0.0325011498676591945
0.00663015023576666966 0.00566624517525120708 0.0348923178009104829
-0.00540435964774779991 0.00639778212807122926 0.0354645476152676761
-0.00590391088727772184 0.00511352611353741229 0.0362446526661820562
-0.00668654275900044948 0.00557406827611249198 0.0349213726525528442
0.000579705093937514905 -0.00945549058667878931 0.033202755027986329
-0.000991557525516766286 -0.00932015839080305511 0.0334858946117079434
0.00584546309038269218 -0.00598698824677995536 0.0354759960730347823
