0 0.04 -0.005
0.0233227 0.04 -0.005
0.0116614 0.04 -0.005
0.0556315 0.0281594 -0.005
0.0320596 0.0392308 -0.005
0.0405278 0.0369466 -0.005
0.0484665 0.0332179 -0.005
0.40227 0.13023 -0.005
0.0643319 0.0234782 -0.005
0.0739135 0.0208968 -0.005
0.0836837 0.0216332 -0.005
0.0930589 0.0248908 -0.005
0.102251 0.0286338 -0.005
0.111291 0.032733 -0.005
0.120227 0.0370537 -0.005
0.12912 0.0414635 -0.005
0.138033 0.0458321 -0.005
0.147028 0.0500289 -0.005
0.156118 0.054016 -0.005
0.165265 0.0578699 -0.005
0.17444 0.0616561 -0.005
0.183638 0.0653878 -0.005
0.192865 0.069046 -0.005
0.202127 0.072615 -0.005
0.211426 0.0760889 -0.005
0.220758 0.0794691 -0.005
0.230124 0.0827574 -0.005
0.239521 0.0859554 -0.005
0.248947 0.0890661 -0.005
0.258399 0.0920973 -0.005
0.267871 0.0950635 -0.005
0.277361 0.0979743 -0.005
0.286867 0.100829 -0.005
0.296392 0.103624 -0.005
0.305935 0.106353 -0.005
0.3155 0.109008 -0.005
0.325084 0.11159 -0.005
0.334685 0.114108 -0.005
0.344301 0.116572 -0.005
0.35393 0.118985 -0.005
0.363571 0.121346 -0.005
0.373226 0.123652 -0.005
0.382894 0.125903 -0.005
0.392575 0.128096 -0.005
0.404116 0.136897 -0.005
0.158812 0.0610458 -0.005
0.394457 0.134765 -0.005
0.384811 0.13258 -0.005
0.375177 0.130341 -0.005
0.365556 0.128047 -0.005
0.355949 0.125697 -0.005
0.346356 0.12329 -0.005
0.336777 0.120827 -0.005
0.327213 0.118305 -0.005
0.317665 0.115726 -0.005
0.308133 0.113087 -0.005
0.298617 0.110388 -0.005
0.289119 0.107629 -0.005
0.27964 0.104808 -0.005
0.270181 0.101919 -0.005
0.260743 0.0989601 -0.005
0.25133 0.0959259 -0.005
0.241942 0.0928128 -0.005
0.232582 0.0896174 -0.005
0.22325 0.0863392 -0.005
0.213948 0.0829778 -0.005
0.204676 0.079533 -0.005
0.195436 0.0760043 -0.005
0.186229 0.0723916 -0.005
0.177055 0.0686944 -0.005
0.167916 0.0649126 -0.005
0.108246 0.148353 -0.005
0.151764 0.0684798 -0.005
0.151186 0.0782679 -0.005
0.148228 0.0880515 -0.005
0.142724 0.0968846 -0.005
0.1382 0.10626 -0.005
0.133609 0.115603 -0.005
0.128369 0.124597 -0.005
0.122405 0.133129 -0.005
0.115694 0.141084 -0.005
0.117732 0.17343 -0.005
0.103412 0.158504 -0.005
0.10739 0.16902 -0.005
0.30656 0.17343 -0.005
0.12767 0.17343 -0.005
0.137609 0.17343 -0.005
0.147547 0.17343 -0.005
0.157485 0.17343 -0.005
0.167424 0.17343 -0.005
0.177362 0.17343 -0.005
0.1873 0.17343 -0.005
0.197239 0.17343 -0.005
0.207177 0.17343 -0.005
0.217115 0.17343 -0.005
0.227054 0.17343 -0.005
0.236992 0.17343 -0.005
0.24693 0.17343 -0.005
0.256868 0.17343 -0.005
0.266807 0.17343 -0.005
0.276745 0.17343 -0.005
0.286683 0.17343 -0.005
0.296622 0.17343 -0.005
0.30656 0.17978 -0.005
1.38778e-17 0.17978 -0.005
0.296671 0.17978 -0.005
0.286782 0.17978 -0.005
0.276893 0.17978 -0.005
0.267004 0.17978 -0.005
0.257115 0.17978 -0.005
0.247226 0.17978 -0.005
0.237337 0.17978 -0.005
0.227448 0.17978 -0.005
0.217559 0.17978 -0.005
0.20767 0.17978 -0.005
0.197781 0.17978 -0.005
0.187892 0.17978 -0.005
0.178003 0.17978 -0.005
0.168114 0.17978 -0.005
0.158225 0.17978 -0.005
0.148335 0.17978 -0.005
0.138446 0.17978 -0.005
0.128557 0.17978 -0.005
0.118668 0.17978 -0.005
0.108779 0.17978 -0.005
0.0988903 0.17978 -0.005
0.0890013 0.17978 -0.005
0.0791123 0.17978 -0.005
0.0692232 0.17978 -0.005
0.0593342 0.17978 -0.005
0.0494452 0.17978 -0.005
0.0395561 0.17978 -0.005
0.0296671 0.17978 -0.005
0.0197781 0.17978 -0.005
0.00988903 0.17978 -0.005
0 0.169796 -0.005
0 0.159811 -0.005
0 0.149827 -0.005
0 0.139843 -0.005
0 0.129859 -0.005
0 0.119874 -0.005
0 0.10989 -0.005
0 0.0999057 -0.005
0 0.0899214 -0.005
0 0.0799371 -0.005
0 0.0699529 -0.005
0 0.0599686 -0.005
0 0.0499843 -0.005
0.150116 0.0579739 -0.005
0.130464 0.05 -0.005
0.140476 0.0535387 -0.005
0.0049483 0.0452342 -0.005
0.121236 0.0452676 -0.005
0.112075 0.0404081 -0.005
0.102774 0.0358222 -0.005
0.0934392 0.0313038 -0.005
0.0837996 0.0275027 -0.005
0.0735106 0.0271802 -0.005
0.063802 0.0307038 -0.005
0.0548977 0.0360131 -0.005
0.0455627 0.0404985 -0.005
0.0360118 0.0445146 -0.005
0.0256797 0.0449691 -0.005
0.0153141 0.0452583 -0.005
0.0049483 0.17343 -0.005
0.0049483 0.0550954 -0.005
0.0049483 0.0649566 -0.005
0.0049483 0.0748178 -0.005
0.0049483 0.0846791 -0.005
0.0049483 0.0945403 -0.005
0.0049483 0.104401 -0.005
0.0049483 0.114263 -0.005
0.0049483 0.124124 -0.005
0.0049483 0.133985 -0.005
0.0049483 0.143846 -0.005
0.0049483 0.153708 -0.005
0.0049483 0.163569 -0.005
0.0998975 0.17343 -0.005
0.0154982 0.17343 -0.005
0.0260481 0.17343 -0.005
0.036598 0.17343 -0.005
0.0471479 0.17343 -0.005
0.0576978 0.17343 -0.005
0.0682478 0.17343 -0.005
0.0787977 0.17343 -0.005
0.0893476 0.17343 -0.005
0.0960885 0.163957 -0.005
0.0965979 0.153782 -0.005
0.101669 0.144925 -0.005
0.108591 0.137335 -0.005
0.11511 0.1294 -0.005
0.12082 0.120864 -0.005
0.126108 0.112059 -0.005
0.13083 0.102943 -0.005
0.135155 0.0936294 -0.005
0.140988 0.0851871 -0.005
0.142727 0.0755474 -0.005
0.144091 0.0662514 -0.005
0.0233227 0.04 -0.005
0.0233227 0.04 0.005
4.71151e-15 0.04 0.005
0.0116614 0.04 0.005
4.71151e-15 0.04 -0.005
0.0116614 0.04 -0.005
0.0556315 0.0281594 -0.005
0.0556315 0.0281594 0.005
0.0233227 0.04 0.005
0.0484665 0.0332179 0.005
0.0405278 0.0369466 0.005
0.0320597 0.0392307 0.005
0.0233227 0.04 -0.005
0.0320597 0.0392307 -0.005
0.0405278 0.0369466 -0.005
0.0484665 0.0332179 -0.005
0.0374205 0.0379714 3.584e-18
0.0521465 0.0308557 8.81523e-19
0.0435633 0.03572 4.47999e-18
0.0556315 0.0281594 -0.005
0.0556315 0.0281594 0.005
0.40227 0.13023 0.005
0.0642881 0.0234929 0.005
0.0738979 0.0208986 0.005
0.0838327 0.0216878 0.005
0.0932264 0.0249548 0.005
0.102411 0.0287032 0.005
0.111433 0.0328 0.005
0.120364 0.0371211 0.005
0.129254 0.04153 0.005
0.138165 0.0458954 0.005
0.147156 0.0500872 0.005
0.156243 0.0540704 0.005
0.165392 0.0579211 0.005
0.17457 0.0617098 0.005
0.183764 0.0654385 0.005
0.192986 0.0690932 0.005
0.202244 0.0726591 0.005
0.211538 0.0761301 0.005
0.220865 0.0795072 0.005
0.230227 0.0827929 0.005
0.23962 0.0859889 0.005
0.24904 0.0890966 0.005
0.258486 0.0921259 0.005
0.267954 0.0950883 0.005
0.27744 0.0979958 0.005
0.286942 0.100851 0.005
0.296458 0.103644 0.005
0.305996 0.106371 0.005
0.315554 0.109022 0.005
0.325133 0.111603 0.005
0.334728 0.11412 0.005
0.34434 0.116581 0.005
0.353961 0.118991 0.005
0.363596 0.121351 0.005
0.373244 0.123657 0.005
0.382906 0.125908 0.005
0.392581 0.1281 0.005
0.40227 0.13023 -0.005
0.392576 0.128099 -0.005
0.382896 0.125906 -0.005
0.37323 0.123654 -0.005
0.363577 0.121346 -0.005
0.353937 0.118985 -0.005
0.34431 0.116573 -0.005
0.334695 0.114111 -0.005
0.325095 0.111593 -0.005
0.315512 0.109011 -0.005
0.305949 0.106358 -0.005
0.296406 0.10363 -0.005
0.286883 0.100833 -0.005
0.277378 0.0979771 -0.005
0.267891 0.0950689 -0.005
0.258418 0.0921041 -0.005
0.248967 0.0890729 -0.005
0.239542 0.0859627 -0.005
0.230145 0.0827648 -0.005
0.22078 0.0794766 -0.005
0.211447 0.0760967 -0.005
0.20215 0.0726234 -0.005
0.192888 0.0690547 -0.005
0.183659 0.0653964 -0.005
0.17447 0.0616688 -0.005
0.165295 0.0578807 -0.005
0.156152 0.0540312 -0.005
0.147062 0.0500448 -0.005
0.138067 0.0458484 -0.005
0.129155 0.0414813 -0.005
0.120264 0.0370718 -0.005
0.111328 0.0327503 -0.005
0.102289 0.0286502 -0.005
0.0930959 0.0249052 -0.005
0.0837014 0.0216467 -0.005
0.0738163 0.0209153 -0.005
0.0642824 0.0234948 -0.005
0.0690472 0.0220996 1.09602e-05
0.387762 0.127016 -3.25532e-07
0.378101 0.124796 -3.13821e-07
0.368449 0.122518 -3.18105e-07
0.358806 0.120184 -3.07432e-07
0.349173 0.117798 -4.38459e-07
0.33955 0.115361 -1.61162e-07
0.329936 0.112871 -3.02136e-07
0.320335 0.11032 -2.96625e-07
0.310751 0.1077 -1.02709e-05
0.301186 0.105006 -1.01198e-05
0.291645 0.10224 -9.90063e-06
0.282125 0.0994111 -8.90922e-06
0.272625 0.0965271 -7.8866e-06
0.263144 0.0935918 -7.18326e-06
0.253685 0.0905962 -5.74493e-06
0.244254 0.0875294 -4.2956e-06
0.233387 0.0838794 3.25752e-07
0.225523 0.0811546 -9.08059e-08
0.217688 0.0783685 -4.15492e-06
0.206858 0.0743959 -3.17768e-06
0.197579 0.0708758 -4.24413e-06
0.188331 0.0672602 -5.07648e-06
0.17911 0.0635604 -7.67727e-05
0.169922 0.0597981 -7.33322e-05
0.160754 0.0559826 -6.57663e-05
0.151626 0.0520725 -5.31236e-05
0.141022 0.047257 -2.09541e-05
0.133261 0.0435095 -1.13367e-05
0.0788841 0.0205201 6.37187e-06
0.0901239 0.0238071 -4.21829e-06
0.0981761 0.0269138 -3.15441e-06
0.106939 0.0307162 -5.84588e-07
0.115872 0.034924 1.40853e-06
0.124677 0.0392569 1.50228e-06
0.0556315 0.0281594 0.005
0.40227 0.13023 0.005
0.0643319 0.0234782 0.005
0.0739135 0.0208968 0.005
0.0836837 0.0216332 0.005
0.0930589 0.0248908 0.005
0.102251 0.0286338 0.005
0.111291 0.032733 0.005
0.120227 0.0370537 0.005
0.12912 0.0414635 0.005
0.138033 0.0458321 0.005
0.147028 0.0500289 0.005
0.156118 0.054016 0.005
0.165265 0.0578699 0.005
0.17444 0.0616561 0.005
0.183638 0.0653878 0.005
0.192865 0.069046 0.005
0.202127 0.072615 0.005
0.211426 0.0760889 0.005
0.220758 0.0794691 0.005
0.230124 0.0827574 0.005
0.239521 0.0859554 0.005
0.248947 0.0890661 0.005
0.258399 0.0920973 0.005
0.267871 0.0950635 0.005
0.277361 0.0979743 0.005
0.286867 0.100829 0.005
0.296392 0.103624 0.005
0.305935 0.106353 0.005
0.3155 0.109008 0.005
0.325084 0.11159 0.005
0.334685 0.114108 0.005
0.344301 0.116572 0.005
0.35393 0.118985 0.005
0.363571 0.121346 0.005
0.373226 0.123652 0.005
0.382894 0.125903 0.005
0.392575 0.128096 0.005
0.404116 0.136897 0.005
0.158812 0.0610458 0.005
0.394457 0.134765 0.005
0.384811 0.13258 0.005
0.375177 0.130341 0.005
0.365556 0.128047 0.005
0.355949 0.125697 0.005
0.346356 0.12329 0.005
0.336777 0.120827 0.005
0.327213 0.118305 0.005
0.317665 0.115726 0.005
0.308133 0.113087 0.005
0.298617 0.110388 0.005
0.289119 0.107629 0.005
0.27964 0.104808 0.005
0.270181 0.101919 0.005
0.260743 0.0989601 0.005
0.25133 0.0959259 0.005
0.241942 0.0928128 0.005
0.232582 0.0896174 0.005
0.22325 0.0863392 0.005
0.213948 0.0829778 0.005
0.204676 0.079533 0.005
0.195436 0.0760043 0.005
0.186229 0.0723916 0.005
0.177055 0.0686944 0.005
0.167916 0.0649126 0.005
0.108246 0.148353 0.005
0.151764 0.0684798 0.005
0.151186 0.0782679 0.005
0.148228 0.0880515 0.005
0.142724 0.0968846 0.005
0.1382 0.10626 0.005
0.133609 0.115603 0.005
0.128369 0.124597 0.005
0.122405 0.133129 0.005
0.115694 0.141084 0.005
0.117732 0.17343 0.005
0.103412 0.158504 0.005
0.10739 0.16902 0.005
0.30656 0.17343 0.005
0.12767 0.17343 0.005
0.137609 0.17343 0.005
0.147547 0.17343 0.005
0.157485 0.17343 0.005
0.167424 0.17343 0.005
0.177362 0.17343 0.005
0.1873 0.17343 0.005
0.197239 0.17343 0.005
0.207177 0.17343 0.005
0.217115 0.17343 0.005
0.227054 0.17343 0.005
0.236992 0.17343 0.005
0.24693 0.17343 0.005
0.256868 0.17343 0.005
0.266807 0.17343 0.005
0.276745 0.17343 0.005
0.286683 0.17343 0.005
0.296622 0.17343 0.005
0.30656 0.17978 0.005
1.38778e-17 0.17978 0.005
0.296671 0.17978 0.005
0.286782 0.17978 0.005
0.276893 0.17978 0.005
0.267004 0.17978 0.005
0.257115 0.17978 0.005
0.247226 0.17978 0.005
0.237337 0.17978 0.005
0.227448 0.17978 0.005
0.217559 0.17978 0.005
0.20767 0.17978 0.005
0.197781 0.17978 0.005
0.187892 0.17978 0.005
0.178003 0.17978 0.005
0.168114 0.17978 0.005
0.158225 0.17978 0.005
0.148335 0.17978 0.005
0.138446 0.17978 0.005
0.128557 0.17978 0.005
0.118668 0.17978 0.005
0.108779 0.17978 0.005
0.0988903 0.17978 0.005
0.0890013 0.17978 0.005
0.0791123 0.17978 0.005
0.0692232 0.17978 0.005
0.0593342 0.17978 0.005
0.0494452 0.17978 0.005
0.0395561 0.17978 0.005
0.0296671 0.17978 0.005
0.0197781 0.17978 0.005
0.00988903 0.17978 0.005
0 0.04 0.005
0 0.169796 0.005
0 0.159811 0.005
0 0.149827 0.005
0 0.139843 0.005
0 0.129859 0.005
0 0.119874 0.005
0 0.10989 0.005
0 0.0999057 0.005
0 0.0899214 0.005
0 0.0799371 0.005
0 0.0699529 0.005
0 0.0599686 0.005
0 0.0499843 0.005
0.0233227 0.04 0.005
0.0116614 0.04 0.005
0.0320596 0.0392308 0.005
0.0405278 0.0369466 0.005
0.0484665 0.0332179 0.005
0.150116 0.0579739 0.005
0.130464 0.05 0.005
0.140476 0.0535387 0.005
0.0049483 0.0452342 0.005
0.121236 0.0452676 0.005
0.112075 0.0404081 0.005
0.102774 0.0358222 0.005
0.0934392 0.0313038 0.005
0.0837996 0.0275027 0.005
0.0735106 0.0271802 0.005
0.063802 0.0307038 0.005
0.0548977 0.0360131 0.005
0.0455627 0.0404985 0.005
0.0360118 0.0445146 0.005
0.0256797 0.0449691 0.005
0.0153141 0.0452583 0.005
0.0049483 0.17343 0.005
0.0049483 0.0550954 0.005
0.0049483 0.0649566 0.005
0.0049483 0.0748178 0.005
0.0049483 0.0846791 0.005
0.0049483 0.0945403 0.005
0.0049483 0.104401 0.005
0.0049483 0.114263 0.005
0.0049483 0.124124 0.005
0.0049483 0.133985 0.005
0.0049483 0.143846 0.005
0.0049483 0.153708 0.005
0.0049483 0.163569 0.005
0.0998975 0.17343 0.005
0.0154982 0.17343 0.005
0.0260481 0.17343 0.005
0.036598 0.17343 0.005
0.0471479 0.17343 0.005
0.0576978 0.17343 0.005
0.0682478 0.17343 0.005
0.0787977 0.17343 0.005
0.0893476 0.17343 0.005
0.0960885 0.163957 0.005
0.0965979 0.153782 0.005
0.101669 0.144925 0.005
0.108591 0.137335 0.005
0.11511 0.1294 0.005
0.12082 0.120864 0.005
0.126108 0.112059 0.005
0.13083 0.102943 0.005
0.135155 0.0936294 0.005
0.140988 0.0851871 0.005
0.142727 0.0755474 0.005
0.144091 0.0662514 0.005
0 0.17978 -0.005
0 0.04 -0.005
0 0.169796 -0.005
0 0.159811 -0.005
0 0.149827 -0.005
0 0.139843 -0.005
0 0.129859 -0.005
0 0.119874 -0.005
0 0.10989 -0.005
0 0.0999057 -0.005
0 0.0899214 -0.005
0 0.0799371 -0.005
0 0.0699529 -0.005
0 0.0599686 -0.005
0 0.0499843 -0.005
0 0.04 0.005
0 0.17978 0.005
0 0.0499843 0.005
0 0.0599686 0.005
0 0.0699529 0.005
0 0.0799371 0.005
0 0.0899214 0.005
0 0.0999057 0.005
0 0.10989 0.005
0 0.119874 0.005
0 0.129859 0.005
0 0.139843 0.005
0 0.149827 0.005
0 0.159811 0.005
0 0.169796 0.005
0 0.173034 8.67362e-19
0 0.0467459 0
0 0.0554006 0
0 0.164379 8.67362e-19
0 0.154714 8.67362e-19
0 0.0650664 8.67362e-19
0 0.144806 8.67362e-19
0 0.0749741 8.67362e-19
0 0.0849412 8.67362e-19
0 0.134841 8.67362e-19
0 0.0949176 8.67362e-19
0 0.124857 0
0 0.104908 0
0 0.114881 8.67362e-19
1.38778e-17 0.17978 0.005
0.30656 0.17978 0.005
0.00988903 0.17978 0.005
0.0197781 0.17978 0.005
0.0296671 0.17978 0.005
0.0395561 0.17978 0.005
0.0494452 0.17978 0.005
0.0593342 0.17978 0.005
0.0692232 0.17978 0.005
0.0791123 0.17978 0.005
0.0890013 0.17978 0.005
0.0988903 0.17978 0.005
0.108779 0.17978 0.005
0.118668 0.17978 0.005
0.128557 0.17978 0.005
0.138446 0.17978 0.005
0.148335 0.17978 0.005
0.158225 0.17978 0.005
0.168114 0.17978 0.005
0.178003 0.17978 0.005
0.187892 0.17978 0.005
0.197781 0.17978 0.005
0.20767 0.17978 0.005
0.217559 0.17978 0.005
0.227448 0.17978 0.005
0.237337 0.17978 0.005
0.247226 0.17978 0.005
0.257115 0.17978 0.005
0.267004 0.17978 0.005
0.276893 0.17978 0.005
0.286782 0.17978 0.005
0.296671 0.17978 0.005
0.30656 0.17978 -0.005
1.38778e-17 0.17978 -0.005
0.296671 0.17978 -0.005
0.286782 0.17978 -0.005
0.276893 0.17978 -0.005
0.267004 0.17978 -0.005
0.257115 0.17978 -0.005
0.247226 0.17978 -0.005
0.237337 0.17978 -0.005
0.227448 0.17978 -0.005
0.217559 0.17978 -0.005
0.20767 0.17978 -0.005
0.197781 0.17978 -0.005
0.187892 0.17978 -0.005
0.178003 0.17978 -0.005
0.168114 0.17978 -0.005
0.158225 0.17978 -0.005
0.148335 0.17978 -0.005
0.138446 0.17978 -0.005
0.128557 0.17978 -0.005
0.118668 0.17978 -0.005
0.108779 0.17978 -0.005
0.0988903 0.17978 -0.005
0.0890013 0.17978 -0.005
0.0791123 0.17978 -0.005
0.0692232 0.17978 -0.005
0.0593342 0.17978 -0.005
0.0494452 0.17978 -0.005
0.0395561 0.17978 -0.005
0.0296671 0.17978 -0.005
0.0197781 0.17978 -0.005
0.00988903 0.17978 -0.005
0.00668225 0.17978 0
0.289991 0.17978 8.67362e-19
0.0152548 0.17978 0
0.0248279 0.17978 0
0.281418 0.17978 0
0.0346406 0.17978 8.67362e-19
0.271844 0.17978 8.67362e-19
0.0445118 0.17978 8.67362e-19
0.262031 0.17978 0
0.0543962 0.17978 8.67362e-19
0.252159 0.17978 0
0.242275 0.17978 8.67362e-19
0.0642833 0.17978 0
0.0741709 0.17978 0
0.232388 0.17978 8.67362e-19
0.2225 0.17978 8.67362e-19
0.0840589 0.17978 0
0.0939471 0.17978 8.67362e-19
0.103836 0.17978 8.67362e-19
0.212612 0.17978 8.67362e-19
0.202724 0.17978 8.67362e-19
0.192835 0.17978 0
0.182947 0.17978 8.67362e-19
0.113724 0.17978 0
0.123613 0.17978 8.67362e-19
0.133502 0.17978 8.67362e-19
0.143391 0.17978 8.67362e-19
0.15328 0.17978 0
0.163169 0.17978 0
0.173058 0.17978 8.67362e-19
0.30656 0.17343 -0.005
0.30656 0.17978 -0.005
0.30656 0.17978 0.005
0.30656 0.17343 0.005
0.117732 0.17343 0.005
0.117732 0.17343 -0.005
0.30656 0.17343 -0.005
0.12767 0.17343 -0.005
0.137609 0.17343 -0.005
0.147547 0.17343 -0.005
0.157485 0.17343 -0.005
0.167424 0.17343 -0.005
0.177362 0.17343 -0.005
0.1873 0.17343 -0.005
0.197239 0.17343 -0.005
0.207177 0.17343 -0.005
0.217115 0.17343 -0.005
0.227054 0.17343 -0.005
0.236992 0.17343 -0.005
0.24693 0.17343 -0.005
0.256868 0.17343 -0.005
0.266807 0.17343 -0.005
0.276745 0.17343 -0.005
0.286683 0.17343 -0.005
0.296622 0.17343 -0.005
0.30656 0.17343 0.005
0.296622 0.17343 0.005
0.286683 0.17343 0.005
0.276745 0.17343 0.005
0.266807 0.17343 0.005
0.256868 0.17343 0.005
0.24693 0.17343 0.005
0.236992 0.17343 0.005
0.227054 0.17343 0.005
0.217115 0.17343 0.005
0.207177 0.17343 0.005
0.197239 0.17343 0.005
0.1873 0.17343 0.005
0.177362 0.17343 0.005
0.167424 0.17343 0.005
0.157485 0.17343 0.005
0.147547 0.17343 0.005
0.137609 0.17343 0.005
0.12767 0.17343 0.005
0.134385 0.17343 8.67362e-19
0.289908 0.17343 8.67362e-19
0.281292 0.17343 8.67362e-19
0.143 0.17343 8.67362e-19
0.152621 0.17343 0
0.271671 0.17343 8.67362e-19
0.261809 0.17343 8.67362e-19
0.162483 0.17343 0
0.172404 0.17343 0
0.251888 0.17343 0
0.182338 0.17343 8.67362e-19
0.241954 0.17343 8.67362e-19
0.232019 0.17343 0
0.22208 0.17343 8.67362e-19
0.192274 0.17343 8.67362e-19
0.202213 0.17343 8.67362e-19
0.212146 0.17343 8.67362e-19
0.108246 0.148353 0.005
0.108246 0.148353 -0.005
0.117732 0.17343 -0.005
0.103412 0.158504 -0.005
0.10739 0.16902 -0.005
0.117732 0.17343 0.005
0.10739 0.16902 0.005
0.103412 0.158504 0.005
0.108246 0.148353 0.005
0.108246 0.148353 -0.005
0.158812 0.0610458 -0.005
0.115656 0.141125 -0.005
0.122339 0.133215 -0.005
0.128281 0.124734 -0.005
0.133507 0.115793 -0.005
0.138086 0.106508 -0.005
0.142593 0.0971337 -0.005
0.148015 0.088393 -0.005
0.151233 0.0787208 -0.005
0.151778 0.0684664 -0.005
0.158812 0.0610458 0.005
0.151804 0.0684427 0.005
0.151222 0.0785775 0.005
0.147937 0.0885163 0.005
0.142505 0.0972989 0.005
0.138045 0.106599 0.005
0.13347 0.115862 0.005
0.128245 0.124791 0.005
0.122301 0.133265 0.005
0.115636 0.141147 0.005
0.112031 0.144839 -2.0158e-06
0.1504 0.0838217 2.004e-05
0.145101 0.0928347 -3.83117e-05
0.140238 0.101851 -2.16165e-05
0.135862 0.111206 -2.51673e-05
0.130953 0.12036 -4.9223e-06
0.125384 0.129067 -9.31707e-08
0.119076 0.137265 1.18897e-05
0.158812 0.0610458 -0.005
0.404116 0.136897 -0.005
0.167931 0.0648758 -0.005
0.177074 0.0686461 -0.005
0.186241 0.0723584 -0.005
0.195441 0.0759976 -0.005
0.204672 0.0795466 -0.005
0.21394 0.0830011 -0.005
0.223246 0.0863643 -0.005
0.23258 0.0896348 -0.005
0.241944 0.0928158 -0.005
0.25134 0.0959109 -0.005
0.26076 0.0989278 -0.005
0.2702 0.101879 -0.005
0.279657 0.104775 -0.005
0.289129 0.107619 -0.005
0.29862 0.110403 -0.005
0.30813 0.113119 -0.005
0.31766 0.11576 -0.005
0.32721 0.118331 -0.005
0.336777 0.120839 -0.005
0.346359 0.123291 -0.005
0.355953 0.125694 -0.005
0.365559 0.128046 -0.005
0.375178 0.130345 -0.005
0.38481 0.132588 -0.005
0.394456 0.134773 -0.005
0.404116 0.136897 0.005
0.158812 0.0610458 0.005
0.394456 0.134773 0.005
0.38481 0.132588 0.005
0.375178 0.130345 0.005
0.365559 0.128046 0.005
0.355953 0.125694 0.005
0.346359 0.123291 0.005
0.336777 0.120839 0.005
0.32721 0.118331 0.005
0.31766 0.11576 0.005
0.30813 0.113119 0.005
0.29862 0.110403 0.005
0.289129 0.107619 0.005
0.279657 0.104775 0.005
0.2702 0.101879 0.005
0.26076 0.0989278 0.005
0.25134 0.0959109 0.005
0.241944 0.0928158 0.005
0.23258 0.0896348 0.005
0.223246 0.0863643 0.005
0.21394 0.0830011 0.005
0.204672 0.0795466 0.005
0.195441 0.0759976 0.005
0.186241 0.0723584 0.005
0.177074 0.0686461 0.005
0.167931 0.0648758 0.005
0.399305 0.135847 -8.67362e-19
0.17242 0.066734 0
0.389692 0.133702 0
0.18153 0.07046 -8.67362e-19
0.190681 0.0741264 0
0.380084 0.131495 0
0.199879 0.0777176 8.67362e-19
0.370482 0.12923 -8.67362e-19
0.209127 0.0812206 -8.67362e-19
0.360887 0.126909 0
0.3513 0.124535 0
0.218425 0.084635 0
0.341718 0.12211 -8.67362e-19
0.332142 0.119632 -8.67362e-19
0.322573 0.117092 0
0.227766 0.0879607 8.67362e-19
0.237144 0.0911976 0
0.313013 0.114482 0
0.303465 0.111796 -8.67362e-19
0.246559 0.0943476 8.67362e-19
0.293937 0.109038 8.67362e-19
0.284428 0.106215 0
0.274939 0.103337 -8.67362e-19
0.256002 0.097414 8.67362e-19
0.265464 0.100406 8.67362e-19
0.40227 0.13023 -0.005
0.404116 0.136897 -0.005
0.404116 0.136897 0.005
0.40227 0.13023 0.005
0.150116 0.0579739 -0.005
0.130464 0.05 -0.005
0.140476 0.0535388 -0.005
0.130464 0.05 0.005
0.150116 0.0579739 0.005
0.140476 0.0535388 0.005
0.145392 0.0555861 0
0.135469 0.0517175 0
0.0998975 0.17343 -0.005
0.150116 0.0579739 -0.005
0.0960866 0.16395 -0.005
0.0966727 0.153543 -0.005
0.101858 0.144701 -0.005
0.108728 0.137178 -0.005
0.115194 0.129295 -0.005
0.12085 0.120816 -0.005
0.126088 0.112097 -0.005
0.130775 0.103068 -0.005
0.135065 0.0937912 -0.005
0.140833 0.085389 -0.005
0.142817 0.075794 -0.005
0.144168 0.0661487 -0.005
0.150116 0.0579739 0.005
0.0998975 0.17343 0.005
0.144139 0.0661872 0.005
0.142675 0.0753947 0.005
0.140802 0.0854287 0.005
0.135023 0.0938663 0.005
0.130739 0.103149 0.005
0.126024 0.112206 0.005
0.120743 0.12099 0.005
0.115053 0.129486 0.005
0.108549 0.137378 0.005
0.101657 0.144941 0.005
0.0965852 0.153834 0.005
0.0960964 0.164005 0.005
0.0975251 0.168876 -5.42108e-06
0.143263 0.0803326 2.43394e-05
0.137622 0.0896775 -6.18828e-05
0.0957587 0.158806 -2.46988e-05
0.0987389 0.148985 -1.84017e-06
0.105153 0.141043 2.15412e-06
0.111951 0.133438 -2.30678e-06
0.132811 0.0984084 -3.51527e-05
0.118075 0.125168 -2.71958e-05
0.123451 0.116535 3.33524e-06
0.128518 0.107723 -2.45668e-05
0.0049483 0.17343 0.005
0.0998975 0.17343 0.005
0.0154982 0.17343 0.005
0.0260481 0.17343 0.005
0.036598 0.17343 0.005
0.0471479 0.17343 0.005
0.0576978 0.17343 0.005
0.0682478 0.17343 0.005
0.0787977 0.17343 0.005
0.0893476 0.17343 0.005
0.0998975 0.17343 -0.005
0.0049483 0.17343 -0.005
0.0893476 0.17343 -0.005
0.0787977 0.17343 -0.005
0.0682478 0.17343 -0.005
0.0576978 0.17343 -0.005
0.0471479 0.17343 -0.005
0.036598 0.17343 -0.005
0.0260481 0.17343 -0.005
0.0154982 0.17343 -0.005
0.0102165 0.17343 0
0.0840766 0.17343 0
0.0735236 0.17343 8.67362e-19
0.0629731 0.17343 8.67362e-19
0.0524229 0.17343 8.67362e-19
0.0418728 0.17343 8.67362e-19
0.0313222 0.17343 8.67362e-19
0.0207693 0.17343 0
0.0049483 0.0452342 0.005
0.0049483 0.17343 0.005
0.0049483 0.0550954 0.005
0.0049483 0.0649566 0.005
0.0049483 0.0748178 0.005
0.0049483 0.0846791 0.005
0.0049483 0.0945403 0.005
0.0049483 0.104401 0.005
0.0049483 0.114263 0.005
0.0049483 0.124124 0.005
0.0049483 0.133985 0.005
0.0049483 0.143846 0.005
0.0049483 0.153708 0.005
0.0049483 0.163569 0.005
0.0049483 0.17343 -0.005
0.0049483 0.0452342 -0.005
0.0049483 0.163569 -0.005
0.0049483 0.153708 -0.005
0.0049483 0.143846 -0.005
0.0049483 0.133985 -0.005
0.0049483 0.124124 -0.005
0.0049483 0.114263 -0.005
0.0049483 0.104401 -0.005
0.0049483 0.0945403 -0.005
0.0049483 0.0846791 -0.005
0.0049483 0.0748178 -0.005
0.0049483 0.0649566 -0.005
0.0049483 0.0550954 -0.005
0.0049483 0.0518971 0
0.0049483 0.156908 8.67362e-19
0.0049483 0.0604465 8.67362e-19
0.0049483 0.0699922 8.67362e-19
0.0049483 0.148358 8.67362e-19
0.0049483 0.138811 8.67362e-19
0.0049483 0.0797792 8.67362e-19
0.0049483 0.0896153 0
0.0049483 0.129029 0
0.0049483 0.119178 8.67362e-19
0.0049483 0.0994845 8.67362e-19
0.0049483 0.10933 8.67362e-19
0.130464 0.05 0.005
0.130464 0.05 -0.005
0.130464 0.05 1.10155e-16
0.0049483 0.0452342 -0.005
0.121266 0.0452836 -0.005
0.112136 0.0404359 -0.005
0.102861 0.0358699 -0.005
0.0935676 0.031363 -0.005
0.083964 0.0275474 -0.005
0.0735724 0.0271857 -0.005
0.0638064 0.0307157 -0.005
0.0548927 0.0359901 -0.005
0.0455623 0.0403826 -0.005
0.0359973 0.044533 -0.005
0.0256211 0.0449764 -0.005
0.0152873 0.045252 -0.005
0.0049483 0.0452342 0.005
0.0145892 0.0452386 0.005
0.0242288 0.0450657 0.005
0.0338538 0.0447089 0.005
0.0429258 0.0418537 0.005
0.0516346 0.0378784 0.005
0.059892 0.0329002 0.005
0.0684383 0.0285051 0.005
0.0779081 0.0267818 0.005
0.0873239 0.0286782 0.005
0.0961007 0.0325735 0.005
0.104736 0.0367748 0.005
0.113373 0.0410768 0.005
0.12188 0.0456115 0.005
0.126524 0.048045 -3.94487e-05
0.0099483 0.045154 -4.74936e-05
